ply
format ascii 1.0
element vertex 1218
property float x
property float y
property float z
property uchar red
property uchar green
property uchar blue
end_header
-0.025550 0.000940 -0.050879 60 50 42
-0.048222 0.004055 -0.023679 73 64 55
0.021062 -0.020028 -0.002279 23 40 44
-0.047947 -0.000411 -0.025579 84 77 67
-0.025591 0.000844 -0.050879 162 172 169
-0.025545 0.000918 -0.050879 215 228 224
0.077432 0.077333 0.088821 121 123 122
-0.028727 -0.011391 -0.003479 134 42 0
-0.030597 0.013402 -0.021179 149 121 59
-0.045129 0.013053 -0.021879 119 104 70
0.010585 -0.023160 -0.002679 26 37 41
-0.031085 0.007476 -0.027879 133 131 128
0.180213 0.020351 0.123221 76 77 82
-0.000010 -0.020294 -0.001879 19 21 29
-0.042557 0.016583 -0.027179 129 122 93
-0.038998 0.014588 -0.024079 94 83 62
-0.042628 -0.001274 -0.013079 33 13 15
-0.047467 0.003712 -0.018679 90 86 77
0.018844 -0.009191 -0.002779 24 38 41
-0.025639 0.000953 -0.050879 43 43 41
-0.047909 0.001961 -0.024179 70 62 51
0.104645 0.057053 0.108121 129 131 130
-0.025527 0.000909 -0.050879 238 246 243
-0.048216 0.005183 -0.022379 72 65 55
0.015934 0.002272 -0.005279 137 124 44
-0.004773 -0.024545 -0.003179 9 12 17
-0.050441 0.012969 -0.021679 54 44 27
-0.025622 0.000860 -0.050879 145 152 141
-0.025527 0.000927 -0.050879 139 140 128
0.012117 -0.023720 -0.002479 31 50 54
-0.025648 0.000937 -0.050879 63 59 50
-0.057295 -0.038551 0.039221 144 152 154
-0.010301 0.002854 -0.015279 89 56 8
0.181624 0.020781 0.118421 72 73 78
-0.047921 -0.000729 -0.025879 89 82 74
-0.033966 0.001734 -0.027679 225 237 233
0.033263 -0.003150 0.004821 25 36 42
0.003089 -0.011273 -0.004279 36 41 53
0.112893 -0.117973 0.131321 130 133 138
-0.048032 0.005865 -0.020879 75 68 60
-0.025503 0.000966 -0.050879 133 137 138
-0.025545 0.000912 -0.050879 223 234 235
-0.025490 0.000839 -0.050879 136 140 143
-0.036918 -0.002821 -0.021379 185 125 115
-0.029673 0.013348 -0.020479 161 142 89
-0.025661 0.000955 -0.050879 58 55 47
-0.014482 -0.057711 0.053521 144 150 150
-0.025563 0.000917 -0.050879 201 212 208
-0.078519 -0.053198 0.034221 161 167 165
0.007251 -0.024556 -0.005279 16 20 27
-0.040483 -0.001065 -0.014279 142 147 87
-0.014118 -0.059522 0.053221 144 150 150
0.015788 -0.010961 -0.002279 31 49 53
-0.025634 0.000848 -0.050879 150 156 156
-0.025621 0.000867 -0.050879 133 138 134
-0.002327 -0.015396 -0.003379 94 101 115
-0.025653 0.000896 -0.050879 62 59 54
-0.048656 0.012205 -0.020279 127 112 85
-0.029057 -0.000237 -0.019779 242 189 186
-0.047464 0.002024 -0.022579 67 58 49
-0.026623 -0.000549 -0.018079 155 154 157
-0.032933 -0.041028 0.050621 138 147 146
-0.049253 0.003520 -0.026279 68 64 55
-0.046848 -0.001327 -0.020279 95 83 69
-0.025637 0.000845 -0.050879 149 153 152
0.164537 -0.043737 0.105421 92 95 102
-0.047468 0.000788 -0.023779 77 67 57
-0.015547 0.004522 -0.023679 159 158 150
0.164651 0.061964 0.129821 32 32 32
-0.029237 -0.013077 -0.003879 212 120 20
-0.025637 0.000966 -0.050879 36 36 34
0.053173 0.082056 0.076621 105 107 106
-0.047561 -0.001617 -0.025579 95 88 78
-0.041096 0.013633 -0.022679 90 80 57
-0.010572 -0.016373 0.000621 113 117 128
0.000565 -0.000392 0.004721 78 74 68
-0.019828 0.014995 -0.021979 123 104 74
-0.025532 0.000920 -0.050879 118 115 91
0.171451 0.025499 0.148921 91 95 96
0.188757 0.054509 0.132521 61 62 66
-0.012630 -0.013158 -0.002679 35 40 49
0.002465 -0.023263 -0.003379 11 14 19
-0.025799 -0.045402 0.053521 137 145 147
-0.019054 0.006707 -0.026879 130 101 45
-0.025485 0.000842 -0.050879 59 81 80
-0.025561 -0.000969 -0.016079 253 199 198
-0.025506 0.001972 -0.023879 230 240 239
0.122641 0.070268 0.108621 105 107 106
0.172279 -0.003938 0.128021 86 93 99
0.009640 -0.016869 -0.000479 53 58 64
-0.025660 0.000882 -0.050879 168 173 171
0.171510 -0.005813 0.123721 89 94 98
-0.002992 -0.009830 -0.004379 32 32 42
-0.025489 0.000841 -0.050879 136 140 143
-0.025508 0.000932 -0.050879 90 66 28
-0.033553 -0.056976 0.042121 143 151 153
-0.014657 -0.016935 0.003221 83 87 97
0.004953 -0.005832 -0.005079 179 173 87
0.176511 0.019749 0.137021 85 86 91
-0.046999 -0.000904 -0.023979 98 90 81
-0.049248 0.002196 -0.026479 68 64 55
-0.025565 0.000924 -0.050879 180 188 186
-0.040663 0.010026 -0.017579 90 74 51
-0.067785 -0.038112 0.043121 159 168 163
-0.049370 0.007285 -0.024479 64 57 47
0.108075 0.030059 0.094121 121 126 130
-0.025638 0.000869 -0.050879 116 117 112
0.082284 0.086128 0.073021 104 105 106
-0.025559 0.000916 -0.050879 216 228 224
-0.004228 -0.023728 -0.003179 8 11 16
-0.025628 0.000871 -0.050879 103 105 104
-0.046770 -0.000652 -0.021979 96 86 74
0.012365 -0.009018 -0.002279 206 193 145
-0.003263 0.010508 -0.010779 190 180 145
-0.013930 0.004922 -0.023779 163 136 62
-0.025656 0.000868 -0.050879 119 119 114
-0.035821 -0.001939 -0.021779 209 147 146
-0.025652 0.000969 -0.050879 63 65 62
-0.031314 0.015604 -0.025079 79 63 29
-0.025647 0.000920 -0.050879 62 56 50
-0.003130 -0.067206 0.060621 141 150 149
-0.025538 0.000947 -0.050879 71 54 26
-0.049804 0.008726 -0.024879 64 57 47
0.150911 0.077138 0.097221 90 90 90
-0.025532 0.000910 -0.050879 226 237 233
-0.025639 0.000964 -0.050879 37 37 35
0.004723 -0.016894 -0.000679 45 48 57
0.117465 0.080684 0.087721 107 107 107
-0.050603 0.010097 -0.025479 62 55 47
-0.040924 0.015590 -0.025779 134 128 96
-0.039458 0.014485 -0.024079 97 86 66
0.018144 0.023756 0.020721 147 148 151
0.017652 -0.013667 0.003321 6 15 17
-0.047218 0.001425 -0.015579 96 86 66
-0.030068 0.001462 -0.025979 225 236 232
0.010470 -0.021174 -0.001579 8 9 14
-0.025659 0.000859 -0.050879 145 139 112
0.000582 -0.013765 -0.003679 46 54 66
-0.025643 0.000883 -0.050879 86 88 85
-0.047264 -0.000472 -0.016879 97 84 72
-0.025641 0.000885 -0.050879 86 88 83
0.177717 0.014042 0.127421 84 87 92
0.027785 -0.008201 0.002721 21 32 38
-0.042425 0.012802 -0.021679 107 93 64
-0.025496 0.000839 -0.050879 142 148 152
-0.047703 0.013615 -0.022479 106 92 64
-0.025512 0.000929 -0.050879 85 62 28
-0.025601 0.000848 -0.050879 160 166 166
-0.030131 -0.056110 0.044521 142 150 152
-0.045341 0.014924 -0.024879 96 84 63
-0.025659 0.000845 -0.050879 140 144 143
-0.025624 0.000971 -0.050879 46 48 37
-0.046806 0.013244 -0.022079 120 105 74
-0.047180 0.001572 -0.018279 89 82 74
-0.025643 0.000949 -0.050879 62 57 46
-0.061598 -0.031966 0.041921 104 111 97
0.026773 -0.009081 0.002521 21 32 38
-0.025632 0.000966 -0.050879 29 29 27
-0.025634 0.000845 -0.050879 150 156 156
0.143023 -0.062146 0.110721 79 81 87
-0.038725 0.011242 -0.019479 90 73 51
0.009066 0.002389 0.005821 63 55 42
-0.046849 -0.003624 -0.013879 126 98 53
0.173787 -0.006314 0.112521 84 87 94
-0.025503 0.000961 -0.050879 136 140 139
-0.046263 -0.004634 -0.024779 98 97 92
0.129109 0.068917 0.111921 91 93 92
-0.066477 -0.049406 0.037221 139 147 143
-0.023024 -0.051059 0.053321 144 150 150
0.172941 0.069591 0.111321 58 58 58
0.032614 -0.012763 0.003421 22 35 41
-0.047906 -0.005593 -0.011779 88 38 23
-0.050338 -0.038480 0.042721 143 151 153
-0.045657 -0.003734 -0.012379 64 10 0
-0.004776 0.011943 -0.012179 138 131 112
-0.025649 0.000875 -0.050879 146 150 149
-0.001244 -0.023958 -0.005579 24 35 39
-0.025642 0.000862 -0.050879 143 134 110
0.088021 0.073364 0.099321 129 131 128
0.170958 0.051956 0.148421 49 49 51
-0.020900 -0.046162 0.056621 140 149 148
-0.077100 -0.052131 0.035921 161 167 165
-0.047573 -0.000447 -0.024879 88 81 71
-0.025591 0.000840 -0.050879 163 172 169
-0.027893 0.016533 -0.025879 98 84 57
0.020903 0.029074 0.023621 139 143 144
-0.025653 0.000929 -0.050879 61 58 51
0.016215 -0.009684 -0.000879 69 67 29
-0.025092 0.015412 -0.023779 80 60 28
-0.031391 -0.007354 -0.007179 158 62 0
-0.010012 -0.014324 -0.004979 184 193 203
-0.002797 -0.025510 -0.005579 23 41 47
-0.025633 0.000840 -0.050879 150 156 154
0.176947 -0.089067 0.113321 97 100 109
-0.010067 -0.009757 -0.006879 84 83 88
0.051562 0.075795 0.079221 120 122 121
-0.058996 -0.034272 0.040121 97 103 101
-0.047137 -0.002387 -0.017179 100 90 72
-0.022053 -0.052731 0.052721 144 150 150
-0.086783 -0.041315 0.033121 155 160 158
-0.035825 0.017069 -0.027779 141 136 107
-0.029483 0.013882 -0.021879 86 52 15
-0.025642 0.000900 -0.050879 65 62 55
-0.066936 -0.028692 0.036421 130 132 129
-0.025550 0.000913 -0.050879 69 73 82
0.019024 -0.022065 -0.002079 11 15 20
-0.033017 -0.008041 -0.007879 180 76 0
-0.035755 -0.000296 -0.022579 227 170 167
-0.025632 0.000963 -0.050879 34 34 32
0.177459 0.012238 0.125721 83 86 91
-0.037431 0.011448 -0.019579 95 74 48
-0.025518 0.000958 -0.050879 137 137 132
-0.026101 -0.001810 -0.015479 255 199 194
0.019320 0.024562 0.021521 144 148 149
-0.028502 0.002634 -0.027479 211 223 218
-0.025506 0.000957 -0.050879 131 136 135
-0.025533 0.000972 -0.050879 127 131 132
-0.025644 0.000889 -0.050879 86 84 78
-0.017920 -0.000828 -0.013379 233 175 174
-0.003092 -0.001710 -0.005479 99 96 91
-0.030624 0.008077 -0.027779 90 74 68
0.177466 0.005596 0.116321 81 82 87
0.003395 -0.010404 -0.001479 24 22 27
-0.046823 -0.002720 -0.024579 105 98 88
-0.025656 0.000912 -0.050879 61 58 53
-0.025569 0.000917 -0.050879 173 184 180
0.019488 -0.018814 -0.002079 23 30 38
-0.042060 0.011715 -0.020179 128 113 81
-0.025514 0.000929 -0.050879 96 66 32
-0.023756 -0.001252 -0.015779 255 196 199
-0.025529 0.000909 -0.050879 234 243 242
0.003002 -0.008459 -0.002779 115 115 108
0.181162 0.029563 0.133521 79 80 85
0.012615 -0.010440 -0.000479 152 143 47
0.092026 0.084874 0.077221 110 111 115
-0.025631 0.000854 -0.050879 157 163 161
-0.043011 0.014924 -0.024879 131 117 88
-0.022941 0.015921 -0.023979 113 96 66
-0.020166 0.016106 -0.022879 118 104 79
0.127283 0.068063 0.113621 86 88 87
-0.025624 0.000961 -0.050879 65 59 54
-0.003963 -0.003777 -0.010079 86 90 100
0.136553 0.065573 0.119421 92 94 93
0.055049 0.082235 0.076521 106 108 107
-0.025654 0.000872 -0.050879 88 89 84
0.086893 0.082350 0.080621 109 111 110
-0.025600 0.000845 -0.050879 160 166 164
-0.025660 0.000893 -0.050879 62 60 54
-0.025640 0.000905 -0.050879 70 66 57
0.112712 0.024033 0.096121 170 173 180
-0.000195 -0.003662 -0.007479 153 161 164
0.014112 -0.008946 -0.002179 188 180 75
-0.032770 0.007444 -0.027679 144 149 139
-0.027696 0.013596 -0.020579 99 73 27
-0.025587 0.000867 -0.050879 157 158 155
0.100473 0.059741 0.110521 125 129 128
-0.015332 0.014685 -0.019679 122 113 85
-0.025424 -0.003677 -0.014579 220 137 122
-0.018766 0.003893 -0.025079 148 152 132
-0.047134 -0.001326 -0.017679 91 79 65
0.111535 0.027942 0.093121 169 172 178
0.176590 0.017791 0.135121 85 86 91
-0.030068 0.016328 -0.025979 112 98 63
-0.045090 0.013570 -0.022579 108 94 65
-0.047372 0.004345 -0.015979 84 76 66
-0.020108 0.002813 -0.027479 182 187 175
-0.045925 -0.037234 0.045421 140 148 150
-0.030546 0.000610 -0.021479 223 195 200
-0.086466 -0.047584 0.031821 154 160 160
0.015483 0.006229 -0.003279 146 131 78
-0.024800 -0.045600 0.054421 137 145 147
-0.043917 0.015456 -0.025679 117 107 80
-0.003046 0.012811 -0.009679 153 151 144
-0.038796 -0.043873 0.045521 142 150 153
-0.036408 0.012649 -0.021079 69 52 32
-0.031279 0.016826 -0.026879 134 123 91
-0.025584 0.000914 -0.050879 27 20 17
-0.025659 0.000926 -0.050879 66 63 58
0.142419 0.067733 0.115921 100 100 100
0.082434 0.077908 0.088421 116 118 117
-0.025546 0.000937 -0.050879 107 109 98
-0.025658 0.000944 -0.050879 57 54 47
0.132362 0.071584 0.106821 107 109 108
-0.053263 -0.040034 0.040621 144 152 154
-0.066936 -0.028526 0.036421 129 132 128
-0.025570 0.000926 -0.050879 160 170 163
-0.015987 0.005453 -0.024879 180 160 91
-0.025623 0.000841 -0.050879 153 159 157
0.144160 0.070165 0.111221 97 97 97
-0.046923 -0.000372 -0.023279 91 83 75
0.093110 0.082342 0.081421 109 111 110
0.051477 0.085026 0.069421 105 107 106
0.034662 0.040280 0.040421 140 147 147
-0.025656 0.000935 -0.050879 67 64 57
-0.025500 0.000954 -0.050879 140 142 141
-0.041722 0.015627 -0.025879 134 129 95
-0.025503 0.000949 -0.050879 142 141 139
-0.039972 -0.046407 0.043621 142 152 153
-0.029985 0.000788 -0.023879 249 206 213
-0.007324 0.011431 -0.013479 187 177 142
-0.021577 -0.003238 -0.014179 226 177 173
-0.022192 0.000435 -0.016879 242 181 186
-0.034432 0.015321 -0.024879 70 58 43
-0.010769 -0.064485 0.054521 145 151 151
-0.029035 0.014311 -0.022379 68 51 23
-0.027067 -0.057805 0.045821 142 150 152
-0.087042 -0.048578 0.031121 155 161 161
0.150467 0.074812 0.101721 89 89 89
-0.030663 0.015774 -0.025379 73 57 25
-0.025548 0.000926 -0.050879 193 202 197
-0.025630 0.000860 -0.050879 186 183 166
-0.049153 0.009954 -0.019379 71 61 49
0.007694 -0.008978 -0.002479 169 166 71
0.045155 0.012601 0.034821 128 129 131
-0.025504 0.000957 -0.050879 136 138 137
-0.048057 -0.042473 0.042121 144 152 154
-0.025660 0.000862 -0.050879 126 120 92
-0.017878 0.014404 -0.020579 122 103 71
-0.082917 -0.053313 0.031921 160 164 165
-0.030631 0.013372 -0.020979 148 122 61
-0.025649 0.000911 -0.050879 61 58 51
-0.047521 -0.000022 -0.024279 87 79 67
-0.025637 0.000882 -0.050879 90 92 91
-0.025527 0.000935 -0.050879 84 64 32
-0.025972 0.001773 -0.023679 231 242 240
0.155179 -0.073963 0.104021 99 104 112
-0.025657 0.000917 -0.050879 60 57 50
-0.033640 0.014638 -0.023879 75 64 40
-0.077287 -0.038678 0.039121 157 163 161
-0.025505 0.000895 -0.050879 47 41 35
-0.025547 0.000935 -0.050879 135 135 128
-0.025590 0.000907 -0.050879 112 92 71
0.160478 -0.063530 0.102321 93 93 103
-0.025525 0.000963 -0.050879 140 137 131
-0.010992 -0.016144 0.000521 51 56 66
-0.045098 0.005751 -0.012179 93 79 59
-0.009430 0.004061 -0.016179 100 65 18
-0.025643 0.000885 -0.050879 92 93 88
-0.027095 0.014452 -0.022079 67 51 25
-0.025627 0.000968 -0.050879 35 35 33
-0.025646 0.000912 -0.050879 64 61 54
-0.025660 0.000890 -0.050879 90 88 87
-0.028524 -0.008167 -0.002379 154 65 0
0.015595 -0.012933 -0.002179 18 36 40
-0.025659 0.000872 -0.050879 83 84 79
-0.025488 0.000940 -0.050879 146 151 150
-0.025542 0.000929 -0.050879 157 159 140
-0.025495 0.000947 -0.050879 145 147 144
0.003980 -0.019363 -0.000479 12 15 22
-0.021850 0.015976 -0.023879 114 97 71
-0.031418 0.000892 -0.025479 233 238 234
-0.025657 0.000902 -0.050879 62 59 54
-0.047511 0.005383 -0.016179 86 79 69
-0.006339 -0.025874 -0.002079 8 14 16
0.007350 -0.004452 -0.002579 62 53 11
-0.047074 0.000707 -0.019079 87 77 68
-0.024377 0.015716 -0.023979 111 95 61
0.012773 -0.000973 -0.004479 173 151 56
-0.048961 0.009348 -0.018479 73 65 52
-0.025527 0.000945 -0.050879 81 61 24
-0.050935 0.011370 -0.025679 64 57 47
-0.025488 0.000838 -0.050879 136 140 141
-0.025635 0.000864 -0.050879 171 177 173
0.033686 -0.002426 0.005121 24 36 42
-0.046724 0.004809 -0.010479 94 77 53
-0.025557 0.000913 -0.050879 195 207 203
-0.019303 -0.006746 -0.003179 161 131 54
0.103804 0.074350 0.098421 125 127 126
0.020945 -0.015019 -0.002879 26 44 50
0.032105 -0.006305 0.003821 23 34 40
0.075439 -0.105649 0.116321 135 139 142
-0.012959 0.014054 -0.017979 129 116 90
0.115050 0.079317 0.089521 109 110 112
-0.035102 0.015358 -0.025079 74 62 46
-0.034396 0.012458 -0.020379 137 117 46
-0.025647 0.000895 -0.050879 64 61 56
-0.025603 0.000864 -0.050879 153 159 157
-0.025496 0.000920 -0.050879 110 79 38
-0.049815 0.010365 -0.023579 66 57 46
-0.025662 0.000940 -0.050879 58 55 50
-0.025647 0.000850 -0.050879 146 150 149
-0.017179 0.013063 -0.018779 91 69 32
-0.047379 0.013081 -0.021679 128 112 79
-0.026969 -0.008727 -0.001879 173 88 13
-0.025650 0.000842 -0.050879 143 149 147
0.004017 0.005573 -0.000579 129 116 79
0.163640 0.069231 0.113421 18 18 18
-0.034034 -0.000142 -0.022379 238 178 179
-0.043217 0.013225 -0.022379 114 100 70
-0.020515 -0.048181 0.056121 140 149 148
0.137390 0.075038 0.099821 96 96 96
-0.014499 0.005609 -0.024279 103 75 22
-0.038129 -0.011852 -0.005379 248 160 22
0.139520 0.081558 0.088321 97 97 97
-0.047100 0.000945 -0.021979 69 65 52
-0.025645 0.000871 -0.050879 128 130 127
-0.025658 0.000899 -0.050879 61 58 53
-0.043403 0.016190 -0.026579 131 120 91
-0.041379 -0.001322 -0.013479 57 43 21
-0.047379 -0.000131 -0.024079 87 78 69
-0.025500 0.000955 -0.050879 140 142 141
-0.031126 -0.000133 -0.021079 240 184 187
-0.010311 -0.022487 0.004421 13 19 27
-0.047847 0.000252 -0.025079 78 70 59
0.015795 -0.010035 -0.000579 65 61 39
-0.025615 0.000867 -0.050879 119 123 122
0.028774 0.017519 0.023921 137 141 140
-0.032460 -0.008390 -0.007779 168 62 0
-0.069132 -0.062230 0.046121 77 83 81
0.174801 0.011370 0.134121 85 88 93
0.048974 0.081283 0.077321 106 108 106
-0.000550 -0.021805 -0.003779 12 17 20
0.149038 -0.081104 0.121521 101 111 115
-0.027276 -0.006666 -0.003679 164 184 92
0.034291 0.040150 0.040121 138 146 145
-0.047992 0.014383 -0.024079 87 76 59
0.038465 0.015795 0.033521 130 134 133
-0.025296 0.001779 -0.023479 236 247 246
-0.040456 0.010614 -0.018579 92 76 53
-0.023300 -0.054869 0.049821 141 150 152
0.125537 0.073194 0.103221 111 113 112
-0.025495 0.000841 -0.050879 135 140 143
-0.025647 0.000957 -0.050879 57 59 56
-0.025637 0.000864 -0.050879 180 180 178
-0.025602 0.000872 -0.050879 118 120 120
-0.043832 0.014686 -0.024479 115 104 76
-0.027168 0.016174 -0.025279 90 72 49
-0.016943 -0.005035 -0.006479 156 133 68
0.030959 -0.017347 0.003221 26 41 46
-0.039759 -0.003708 -0.014879 165 83 56
-0.039533 0.010614 -0.018579 91 75 50
-0.028372 -0.012050 -0.003379 188 97 0
-0.031598 0.015240 -0.024479 76 59 18
0.141251 -0.066346 0.109021 101 106 111
0.113375 0.086245 0.077821 100 100 101
-0.048736 -0.000271 -0.026479 75 66 59
-0.025660 0.000873 -0.050879 83 84 79
0.012517 -0.015294 -0.001479 25 38 44
0.077121 -0.105959 0.112421 134 138 141
-0.019541 -0.013328 0.002821 92 101 114
-0.025652 0.000904 -0.050879 60 57 52
0.002702 -0.024383 -0.004479 6 9 14
-0.013213 -0.001510 -0.011579 120 81 23
-0.025657 0.000840 -0.050879 140 144 143
-0.028428 -0.001588 -0.016679 221 184 184
-0.086907 -0.042707 0.032421 155 159 158
0.160464 -0.044938 0.107521 93 96 104
-0.024508 0.001333 -0.021879 230 240 234
0.180140 0.020407 0.123721 76 77 82
-0.033489 0.017289 -0.027779 122 111 80
-0.025554 0.000916 -0.050879 139 150 153
-0.025598 0.000910 -0.050879 101 87 61
-0.024737 0.014788 -0.022179 70 55 23
-0.025657 0.000859 -0.050879 140 134 112
0.158655 0.071357 0.110421 77 77 77
-0.040306 0.016630 -0.027379 139 132 103
-0.025649 0.000921 -0.050879 60 57 50
-0.025535 0.000925 -0.050879 121 124 107
-0.034537 0.012841 -0.020879 147 118 46
-0.010070 0.001357 -0.015679 95 60 18
0.060189 0.085724 0.070421 102 103 105
-0.049781 0.007551 -0.025579 62 58 49
-0.025511 0.000961 -0.050879 131 135 134
-0.007035 -0.004248 0.006421 37 34 27
0.111993 0.045163 0.101521 129 131 130
-0.018532 -0.003122 -0.011179 238 184 181
-0.031346 0.014521 -0.023279 66 50 17
0.012653 -0.002046 0.006021 33 24 17
0.007036 0.001644 0.006621 64 60 48
-0.025655 0.000897 -0.050879 61 58 53
0.006555 -0.023507 -0.003079 6 7 11
0.011666 -0.001719 0.008421 34 29 23
-0.047355 0.002475 -0.021179 68 61 53
-0.029229 -0.012244 -0.003979 138 45 0
-0.029104 0.001391 -0.024679 226 226 224
-0.036095 -0.002697 -0.021479 206 145 143
-0.025659 0.000864 -0.050879 145 140 121
-0.047050 -0.000955 -0.023979 97 90 80
-0.002808 -0.010242 -0.006279 49 52 57
-0.034187 0.016056 -0.025879 99 88 66
-0.007273 -0.026232 -0.001079 34 44 51
-0.025660 0.000878 -0.050879 87 87 85
-0.003137 -0.010025 -0.004679 17 18 27
0.012105 0.003903 -0.001279 138 120 45
0.015672 0.008416 0.004121 110 108 102
-0.025653 0.000919 -0.050879 61 58 51
-0.042746 -0.053147 0.038421 145 153 155
-0.025651 0.000848 -0.050879 144 148 147
-0.029221 -0.011147 -0.004079 181 90 8
-0.025649 0.000901 -0.050879 62 59 52
-0.029082 0.010252 -0.027179 23 14 13
-0.025613 0.000879 -0.050879 98 98 96
-0.025544 0.000921 -0.050879 199 210 200
-0.006138 -0.002695 -0.010879 39 43 47
0.012486 -0.001323 0.006921 33 26 18
-0.044644 0.006719 -0.013079 97 81 60
-0.025594 0.000863 -0.050879 128 132 131
0.003315 0.000200 0.008421 61 57 46
-0.029023 0.009117 -0.027579 18 2 2
0.016265 0.001573 -0.005579 146 131 57
0.163899 -0.041085 0.106621 92 95 102
-0.025973 -0.013894 0.001921 40 65 75
0.031583 -0.006486 0.003621 23 34 40
-0.025543 0.000946 -0.050879 68 53 23
-0.026660 0.015738 -0.024579 76 59 26
-0.025730 0.014056 -0.020979 67 53 24
-0.040278 -0.005471 -0.013379 162 69 0
0.118004 0.084914 0.080721 102 102 102
-0.031523 0.007520 -0.027879 139 143 135
0.040461 -0.022298 0.012221 42 52 57
-0.047418 0.003331 -0.020379 76 67 58
-0.031073 0.016708 -0.026779 134 123 91
-0.049785 0.003467 -0.026779 66 61 55
-0.006075 -0.025876 -0.002579 10 14 18
0.114557 0.024201 0.095421 169 172 179
-0.025527 0.000912 -0.050879 215 222 219
-0.044723 -0.033643 0.047721 135 143 145
-0.025585 0.000913 -0.050879 20 18 33
-0.031508 0.009912 -0.026879 48 21 20
-0.034352 0.003653 -0.028279 194 200 195
-0.036794 0.017069 -0.027779 144 140 111
-0.047265 0.000371 -0.016979 96 85 76
-0.050479 -0.040085 0.041921 143 154 154
-0.025505 0.000945 -0.050879 144 139 127
-0.047970 0.004995 -0.021779 73 66 59
-0.025558 0.000919 -0.050879 218 230 229
-0.032886 0.002187 -0.028279 214 225 221
-0.034997 0.014584 -0.023679 72 60 44
-0.016219 0.002002 -0.014279 137 80 75
0.101454 0.049190 0.104221 134 136 135
-0.010007 -0.062736 0.055621 143 149 149
-0.025570 0.000914 -0.050879 171 180 177
-0.033181 -0.008696 -0.007879 190 83 0
-0.025695 0.017256 -0.026579 115 106 77
-0.025652 0.000881 -0.050879 146 149 148
0.144958 0.079735 0.092221 99 99 99
-0.007795 0.010262 -0.011179 185 173 136
-0.028546 0.009688 -0.027479 16 0 3
-0.025577 0.000911 -0.050879 203 214 208
-0.025567 0.000927 -0.050879 200 209 204
-0.040232 0.017113 -0.027779 138 131 102
-0.044511 0.013066 -0.021979 119 106 72
-0.025622 0.000973 -0.050879 54 48 38
-0.015651 0.013399 -0.018379 122 104 71
-0.042198 0.016395 -0.026979 131 124 95
-0.003055 -0.013349 -0.005579 82 91 106
0.071051 0.081607 0.079821 107 109 108
-0.047301 -0.003972 -0.025879 91 90 88
-0.025496 0.000961 -0.050879 135 136 138
-0.025646 0.000862 -0.050879 141 134 106
0.008207 -0.019461 -0.001179 12 18 24
0.004490 -0.009579 -0.001379 107 104 80
-0.015154 0.012564 -0.017579 92 68 30
-0.009765 0.003206 -0.018879 102 67 14
-0.025635 0.000960 -0.050879 28 30 27
-0.025646 0.000896 -0.050879 62 59 54
-0.033017 0.016284 -0.026279 121 109 81
0.014518 -0.018881 -0.001679 22 31 36
0.153368 -0.074882 0.101721 23 23 34
-0.044832 -0.012905 -0.001279 54 33 30
-0.025499 0.000947 -0.050879 142 144 141
-0.025499 0.000949 -0.050879 140 142 141
0.011857 -0.014698 -0.000979 60 69 76
-0.035134 0.012745 -0.020979 108 82 21
-0.038625 0.016897 -0.027579 140 133 104
-0.025266 -0.011442 0.002621 54 54 47
-0.031858 -0.056586 0.043221 143 151 153
-0.025656 0.000862 -0.050879 133 129 97
-0.025646 0.000873 -0.050879 152 154 151
-0.047776 0.000591 -0.024579 77 69 58
-0.002048 -0.021730 -0.003179 12 20 22
-0.025638 0.000963 -0.050879 32 32 30
-0.021710 0.016895 -0.023979 114 108 83
-0.025588 0.000911 -0.050879 122 100 54
-0.021166 -0.014939 0.001721 124 159 185
0.097988 0.084560 0.078621 111 112 116
-0.025632 0.000843 -0.050879 150 156 158
-0.025492 0.000968 -0.050879 121 122 124
-0.025494 0.000959 -0.050879 136 141 137
0.029355 0.016773 0.025121 140 142 141
-0.025537 0.000911 -0.050879 224 235 231
-0.043771 -0.010313 -0.008579 221 146 38
-0.038866 0.017113 -0.027779 143 136 107
0.038112 -0.003157 0.006421 22 33 36
0.008930 -0.071453 0.070221 141 147 147
-0.025529 0.000926 -0.050879 137 138 130
-0.029690 0.001285 -0.025079 227 230 227
-0.027210 -0.039181 0.054921 131 140 139
0.171332 0.053692 0.145021 23 24 26
-0.032248 0.014687 -0.023679 81 63 25
-0.025518 0.000942 -0.050879 85 63 27
-0.047387 0.003672 -0.017679 83 79 69
-0.025548 0.000928 -0.050879 180 190 184
-0.025547 0.000911 -0.050879 181 187 187
-0.047633 0.014157 -0.023379 92 80 53
-0.028933 0.014606 -0.022779 64 49 19
0.098059 0.081590 0.083521 115 117 115
-0.044535 0.015722 -0.025879 109 102 74
-0.041529 0.017131 -0.027879 139 132 103
0.050746 0.082932 0.074621 104 106 105
-0.026256 -0.003482 -0.014479 208 133 111
0.124978 0.082962 0.084521 101 101 101
-0.042928 0.014878 -0.024779 129 117 86
-0.035571 0.012079 -0.019979 136 112 50
-0.026719 0.002248 -0.025479 214 214 213
-0.029749 0.016629 -0.026179 133 123 87
-0.012219 0.013591 -0.017379 130 117 86
-0.024075 0.015814 -0.024079 111 94 64
-0.033376 -0.004575 -0.006779 99 52 32
-0.066581 -0.036562 0.042821 136 145 140
-0.028457 0.009554 -0.027479 18 1 4
-0.055429 -0.049943 0.033921 148 157 156
0.167627 -0.102694 0.117721 102 105 114
0.154832 0.058881 0.133121 95 97 96
-0.025561 0.000918 -0.050879 212 224 220
0.030031 -0.010875 0.002821 21 32 38
-0.025628 0.000852 -0.050879 152 158 156
-0.042575 0.010890 -0.018879 127 112 81
-0.032066 0.006661 -0.027979 177 182 176
-0.007810 -0.059558 0.057921 143 149 148
-0.025533 0.000934 -0.050879 117 121 102
0.004794 -0.018460 -0.000079 73 76 81
-0.025496 0.000921 -0.050879 102 76 34
-0.025551 0.000911 -0.050879 76 83 86
-0.048236 0.009699 -0.016879 107 97 72
0.155410 -0.113156 0.122921 108 112 123
-0.003632 -0.025335 -0.004979 18 34 41
0.005393 -0.023636 -0.003879 10 11 16
-0.027784 -0.041828 0.053521 136 145 144
0.017172 -0.027937 -0.000079 43 58 63
-0.035786 -0.055022 0.041521 144 152 154
-0.034713 0.016506 -0.026879 127 117 90
-0.025653 0.000945 -0.050879 64 61 54
-0.049713 0.009129 -0.024379 64 57 47
0.094602 0.083710 0.079221 113 114 119
-0.025621 0.000844 -0.050879 154 160 158
-0.085522 -0.042968 0.032921 154 160 158
0.117289 0.029863 0.094521 115 116 121
0.022548 -0.020164 -0.002179 28 41 47
-0.042118 0.010738 -0.018579 109 96 68
0.136613 0.083624 0.083921 104 104 104
0.172094 -0.005992 0.119921 87 90 97
-0.050177 0.005087 -0.026979 62 57 51
-0.045917 -0.004307 -0.022479 107 92 79
0.010671 -0.017526 -0.000779 4 15 19
-0.052387 -0.012873 -0.022679 151 157 149
-0.000910 -0.023254 -0.005279 26 32 37
-0.080022 -0.045815 0.037721 156 165 162
-0.042968 -0.006949 -0.014479 237 140 11
-0.042610 -0.049495 0.040421 143 153 154
-0.034987 -0.009942 -0.007479 210 102 0
-0.016413 0.005488 -0.024679 141 123 69
0.131020 0.059698 0.127121 98 99 98
-0.015776 0.005584 -0.024979 169 144 74
-0.025650 0.000905 -0.050879 60 57 52
0.027291 -0.019429 0.001421 28 41 44
-0.025519 0.000964 -0.050879 132 134 133
0.017951 -0.012817 0.002421 10 16 19
-0.046536 -0.056321 0.036521 149 153 154
-0.025662 0.000953 -0.050879 58 55 48
0.186314 0.037077 0.120921 60 61 66
-0.047286 -0.016450 0.005321 47 31 18
-0.025559 0.000933 -0.050879 126 124 121
-0.029987 0.008178 -0.027879 67 53 50
0.122415 0.072808 0.103021 114 116 115
-0.018107 -0.040790 0.058621 138 144 142
0.070440 -0.102964 0.111621 135 139 142
-0.027550 0.002108 -0.025379 91 94 99
0.184761 0.041283 0.134221 77 78 83
-0.034240 -0.005455 -0.007079 132 52 3
-0.025499 0.000951 -0.050879 141 143 140
-0.003957 0.009301 -0.008379 135 125 90
-0.025621 0.000965 -0.050879 57 49 37
-0.026811 0.008963 -0.027379 113 114 107
-0.025612 0.000864 -0.050879 182 189 187
-0.025609 0.000882 -0.050879 160 159 152
-0.006587 -0.010386 -0.006379 24 28 35
0.066571 0.086115 0.070321 97 99 98
0.124581 0.087292 0.076121 104 104 104
-0.050736 0.003312 -0.008379 147 135 105
-0.048812 0.009077 -0.018079 70 63 47
-0.047197 0.001901 -0.017679 91 82 74
-0.048469 0.004252 -0.024179 70 63 53
0.041952 -0.008660 0.006721 27 36 43
-0.025544 0.000939 -0.050879 105 102 91
-0.042655 0.016742 -0.027479 129 122 93
0.161491 -0.061538 0.101721 98 97 107
-0.028658 0.015205 -0.023779 63 48 17
-0.025622 0.000969 -0.050879 54 48 41
-0.030666 -0.011070 -0.006979 156 56 0
0.017653 -0.006810 -0.002779 138 127 61
-0.025605 0.000883 -0.050879 186 201 204
0.174331 0.001837 0.126821 89 90 95
0.009719 -0.018358 -0.001579 19 30 35
-0.013245 0.012683 -0.016679 126 106 74
-0.025530 0.000910 -0.050879 234 245 241
0.128898 0.089206 0.074721 100 100 102
0.019449 0.018151 0.017921 142 146 145
-0.070166 -0.025178 0.033121 118 120 115
-0.010894 -0.018260 0.001221 97 104 114
-0.041059 0.011242 -0.019479 101 88 60
0.015863 -0.010175 -0.000379 62 58 35
-0.025645 0.000863 -0.050879 141 134 106
0.114038 0.087228 0.075321 98 98 98
-0.017357 -0.048411 0.057521 141 150 149
-0.042261 0.010360 -0.018179 107 93 65
-0.013244 0.002827 -0.011679 59 30 14
0.010398 -0.011242 0.001321 86 74 22
-0.025532 0.000933 -0.050879 124 124 109
-0.025616 0.000877 -0.050879 93 95 94
-0.025659 0.000930 -0.050879 64 61 56
-0.025655 0.000913 -0.050879 62 59 54
-0.018744 -0.043000 0.058421 137 146 143
-0.025568 0.000913 -0.050879 165 176 170
0.015673 0.002272 -0.005279 138 124 47
-0.025633 0.000871 -0.050879 113 115 112
-0.031009 -0.000258 -0.020779 242 186 189
-0.025652 0.000879 -0.050879 149 153 152
-0.025645 0.000948 -0.050879 64 60 49
-0.023242 0.015415 -0.023279 118 99 67
0.021884 -0.014783 -0.002479 26 41 48
-0.025647 0.000872 -0.050879 154 156 153
-0.054394 -0.006170 -0.004579 31 33 24
-0.008784 0.013096 -0.015079 133 124 97
-0.025486 0.000944 -0.050879 146 150 149
-0.025063 -0.011035 0.002621 61 59 42
0.018294 -0.008459 -0.002779 24 39 42
0.172936 -0.092411 0.116521 100 103 112
-0.025652 0.000970 -0.050879 70 72 69
0.017820 -0.016085 -0.002179 25 40 45
-0.025641 0.000948 -0.050879 62 58 47
-0.025655 0.000921 -0.050879 61 58 51
-0.048499 0.000372 -0.026079 76 69 59
-0.053271 -0.046443 0.037321 149 158 157
-0.025627 0.000965 -0.050879 39 39 37
-0.018867 -0.014595 0.003321 20 28 42
0.174641 -0.095190 0.115821 101 104 113
-0.025441 0.000855 -0.050879 96 102 111
-0.009020 -0.027709 0.001821 37 55 57
0.163334 -0.087967 0.120221 103 107 120
0.117202 0.080684 0.087721 107 107 107
-0.025545 0.000936 -0.050879 127 128 120
-0.042038 0.016467 -0.027079 131 124 95
-0.031585 0.015694 -0.025179 86 70 36
-0.025571 0.000920 -0.050879 175 186 182
-0.025623 0.000866 -0.050879 132 134 131
-0.022545 -0.012538 0.002121 56 78 94
0.018202 -0.006735 -0.002679 112 104 66
-0.046119 -0.038915 0.044621 141 151 152
-0.025662 0.000865 -0.050879 164 166 160
-0.043239 0.010799 -0.018779 134 121 87
0.023430 -0.004455 0.001021 52 53 34
0.117242 0.074556 0.099421 116 118 117
-0.043150 0.016066 -0.026479 128 121 93
-0.018167 0.014883 -0.021279 122 103 73
-0.020056 0.000888 -0.016479 228 168 168
0.010037 0.002389 0.005821 59 53 44
0.179300 0.010693 0.116521 79 80 85
-0.025554 0.000917 -0.050879 174 185 188
0.056811 0.084209 0.072621 103 104 106
-0.057044 -0.033415 0.042021 136 146 145
-0.086760 -0.044657 0.032221 154 160 160
0.039281 -0.009913 0.005821 25 34 42
-0.025592 0.000850 -0.050879 162 171 168
-0.025502 0.000967 -0.050879 131 135 136
-0.025600 0.000861 -0.050879 175 184 181
-0.003532 -0.002216 -0.006879 85 84 78
-0.016207 -0.044036 0.058921 140 149 148
0.014234 -0.077192 0.073121 141 145 146
0.185856 0.043191 0.131821 70 71 75
-0.000012 -0.021984 -0.003779 13 18 22
-0.025662 0.000902 -0.050879 60 57 52
0.015995 0.018988 0.017621 150 148 147
0.012832 -0.018132 -0.001679 21 32 38
-0.047460 0.003886 -0.018779 87 83 74
-0.025627 0.000973 -0.050879 214 217 210
-0.043900 -0.000269 -0.012979 20 8 24
-0.039312 -0.046246 0.044021 142 152 153
0.009132 -0.014697 -0.001879 69 73 82
-0.025537 0.000910 -0.050879 232 243 239
-0.025487 0.000956 -0.050879 135 139 140
-0.025654 0.000946 -0.050879 63 60 53
0.075322 0.082285 0.078921 109 111 110
0.009414 -0.003257 -0.001479 78 63 0
0.009273 -0.019912 -0.001679 24 31 39
-0.025641 0.000959 -0.050879 35 35 33
-0.009165 -0.018357 0.000421 188 192 200
-0.025620 0.000855 -0.050879 154 160 158
0.157652 0.055049 0.139321 50 50 50
0.023918 0.018761 0.019821 135 136 138
-0.014391 -0.016705 0.002521 74 77 83
-0.036136 0.015260 -0.025079 94 87 67
-0.025489 0.000960 -0.050879 138 139 141
-0.032864 0.002024 -0.028079 219 230 226
-0.038043 0.012812 -0.021379 68 55 38
-0.040076 0.014329 -0.023879 97 87 64
0.080672 -0.108075 0.119621 135 140 143
0.048351 0.084916 0.069921 106 107 104
-0.025658 0.000959 -0.050879 49 48 46
0.086375 -0.109565 0.119421 132 136 139
-0.022634 -0.003854 -0.014279 239 179 178
-0.017468 -0.040240 0.058821 137 143 141
0.020267 0.021625 0.020421 143 147 148
-0.004984 -0.015354 -0.004279 89 98 113
0.144466 0.079024 0.093421 92 92 92
0.155998 -0.112697 0.122221 109 110 122
-0.043903 0.014974 -0.024879 115 101 76
-0.028468 -0.010899 -0.003279 142 49 0
0.178929 0.015769 0.123821 81 81 89
-0.025538 0.000908 -0.050879 230 239 238
-0.025601 0.000873 -0.050879 117 119 118
-0.033929 0.013694 -0.022179 80 62 20
-0.040394 0.013506 -0.022479 80 67 47
0.001614 -0.010383 -0.001979 23 26 33
-0.043206 0.011188 -0.019279 141 131 95
-0.067470 -0.057729 0.043621 128 134 134
-0.025658 0.000948 -0.050879 58 55 48
0.173265 0.002901 0.131421 89 92 99
-0.013805 0.012709 -0.016979 126 107 73
-0.025535 0.000929 -0.050879 130 134 117
-0.004941 -0.055328 0.062321 142 150 150
-0.025507 0.000973 -0.050879 130 134 135
-0.001662 -0.025336 -0.005879 20 29 33
0.163453 -0.105966 0.120921 105 108 117
-0.056438 -0.050019 0.032721 133 136 140
-0.045091 0.014223 -0.023779 100 86 58
-0.025630 0.000868 -0.050879 107 106 105
-0.047193 -0.000942 -0.016579 108 96 71
-0.022968 -0.037624 0.055621 137 154 155
-0.025500 0.000971 -0.050879 129 133 134
0.143318 0.071730 0.107821 97 97 97
0.037774 0.018367 0.034321 130 134 135
-0.025651 0.000948 -0.050879 69 64 58
-0.047890 0.014383 -0.024079 86 75 55
-0.018785 -0.000496 -0.014579 246 186 186
-0.038199 0.016248 -0.026779 130 120 93
-0.025643 0.000894 -0.050879 77 74 67
-0.050117 0.010645 -0.024379 66 58 47
-0.007776 0.011516 -0.013679 181 171 135
0.122404 0.083643 0.083121 101 101 101
-0.025524 0.000928 -0.050879 139 136 121
-0.047842 0.014210 -0.023379 92 80 54
0.031248 0.004166 0.008721 56 57 40
-0.025646 0.000954 -0.050879 49 49 47
-0.025658 0.000848 -0.050879 141 145 144
-0.037719 0.013695 -0.022779 68 56 40
-0.049206 0.002863 -0.026279 69 65 56
-0.010685 -0.062438 0.055121 143 149 149
-0.038477 -0.037213 0.048721 137 145 141
-0.033292 -0.004743 -0.006779 97 43 9
-0.025514 0.000954 -0.050879 136 137 134
-0.020483 -0.007200 -0.003179 165 128 59
-0.044315 -0.038598 0.045621 139 149 150
0.009686 0.003002 0.004921 64 58 41
-0.049494 0.005823 -0.025779 63 59 50
0.111778 0.038208 0.096921 133 138 140
-0.022799 -0.004783 -0.013679 233 180 175
-0.027340 0.015101 -0.023379 69 54 24
0.000940 -0.024133 -0.004779 15 20 24
0.018742 -0.021833 -0.001979 9 16 22
0.043042 0.012169 0.034021 127 128 130
-0.047700 -0.002924 -0.026179 97 92 86
0.144556 -0.075583 0.115221 71 78 87
-0.002951 -0.016334 -0.002779 66 72 84
-0.008214 -0.014378 -0.005079 101 109 124
-0.035905 0.014790 -0.024279 75 63 47
-0.047102 0.013870 -0.022979 99 86 57
-0.031023 -0.001272 -0.019379 240 188 190
-0.014261 0.002138 -0.019679 82 58 26
0.007292 -0.007245 -0.004979 140 132 56
-0.025537 0.000912 -0.050879 226 237 233
-0.048737 -0.000136 -0.026379 74 67 59
0.161557 -0.093278 0.125921 106 110 121
-0.040485 0.011415 -0.019679 92 77 53
-0.046050 -0.003546 -0.023179 111 94 88
0.059324 0.086240 0.069521 102 103 105
0.016229 -0.015689 -0.001979 24 36 43
-0.025646 0.000889 -0.050879 83 84 79
-0.039767 -0.009158 -0.009679 198 89 0
-0.034780 0.014195 -0.023079 73 60 41
0.011577 0.002480 -0.001479 132 115 37
-0.010963 0.004922 -0.017279 81 51 7
-0.035065 0.015547 -0.025179 79 68 50
-0.029479 -0.002559 -0.009779 144 149 96
-0.037229 0.017175 -0.027879 145 141 112
-0.001152 -0.071245 0.059021 143 147 148
-0.047088 -0.052039 0.037421 146 154 156
-0.030589 0.013772 -0.021879 101 71 15
-0.025650 0.000894 -0.050879 64 61 56
0.015818 0.000455 -0.005879 145 127 53
-0.030923 0.015437 -0.024579 68 52 16
-0.036726 0.016486 -0.026979 133 123 97
-0.021874 -0.014909 0.001621 109 154 177
-0.034184 -0.006749 -0.007779 176 70 4
-0.013865 0.014615 -0.018579 130 122 100
-0.035151 0.012852 -0.021279 75 50 3
0.091393 0.082600 0.080621 109 111 110
0.094388 0.082275 0.081721 110 112 111
0.148871 0.068165 0.115421 92 92 92
-0.025595 0.000868 -0.050879 126 128 127
0.007188 -0.007000 -0.004879 136 124 20
-0.050716 0.009656 -0.026179 61 57 46
-0.000179 -0.025280 -0.005679 9 15 21
-0.038213 -0.056189 0.040021 144 152 154
0.165062 -0.044837 0.105121 90 93 100
-0.025644 0.000845 -0.050879 146 152 150
-0.025558 0.000926 -0.050879 136 143 136
-0.036047 -0.005749 -0.007879 82 42 22
-0.015359 -0.016727 0.006221 35 38 45
-0.028033 0.015496 -0.024379 66 53 21
0.010469 -0.004841 0.005821 58 61 54
-0.025647 0.000878 -0.050879 130 132 129
-0.025528 0.000933 -0.050879 70 54 25
-0.050300 0.010462 -0.024879 66 58 47
0.075548 0.077379 0.088421 121 123 120
0.015707 0.017722 0.016721 151 150 145
-0.008167 -0.009539 -0.007779 34 34 43
-0.009083 -0.015249 -0.004579 174 180 196
-0.077172 -0.042348 0.038921 158 164 162
0.076953 0.081344 0.081021 112 114 113
0.114036 0.085624 0.079121 103 103 103
0.005903 0.024655 0.008621 145 149 148
-0.025501 0.000924 -0.050879 95 66 31
-0.036087 -0.004960 -0.016779 195 96 57
-0.025016 -0.051229 0.051321 142 151 150
0.080177 0.081135 0.081921 113 115 114
-0.019314 -0.014099 0.003021 90 99 112
0.089631 0.078727 0.087521 116 118 117
-0.041102 0.016066 -0.026479 137 130 101
0.173044 0.064029 0.119621 19 19 21
-0.029227 -0.004904 -0.006179 143 167 77
-0.046628 -0.002564 -0.020679 105 93 79
-0.036460 -0.004217 -0.020779 242 177 173
0.003657 -0.012216 -0.004079 56 63 75
-0.025643 0.000972 -0.050879 66 66 64
-0.036514 0.014790 -0.024279 79 69 53
-0.031453 -0.013533 -0.006079 193 89 7
-0.049096 0.005318 -0.025379 67 60 50
-0.012578 -0.000646 -0.012579 111 70 17
-0.004006 -0.003082 -0.011579 151 158 169
-0.006117 -0.016498 -0.003579 147 152 165
-0.049622 0.008292 -0.024479 64 57 47
-0.005117 -0.009650 -0.004779 35 35 45
0.133433 -0.031975 0.088321 71 78 84
0.005168 0.004126 0.002421 108 98 71
0.011595 -0.023252 -0.002679 23 39 45
0.181918 0.026064 0.123821 76 77 82
0.019111 0.001881 -0.003179 106 104 47
-0.049475 0.003396 -0.026579 69 65 55
-0.025518 0.000891 -0.050879 29 23 22
-0.019690 -0.002265 -0.013279 244 190 188
-0.049463 0.009001 -0.023079 67 61 49
0.157326 0.065537 0.121921 99 99 99
-0.021987 0.000238 -0.016779 244 183 188
0.032037 0.000878 0.006021 22 34 40
-0.031037 -0.012162 -0.006679 182 91 0
0.131903 0.078373 0.092721 100 100 100
-0.035565 -0.042024 0.048021 140 148 150
-0.033938 -0.034482 0.053521 130 136 133
-0.025659 0.000945 -0.050879 59 56 49
-0.045252 0.013516 -0.022579 108 91 63
0.091558 0.087146 0.072121 107 108 112
-0.025642 0.000891 -0.050879 86 83 76
-0.028517 -0.044666 0.051421 139 148 148
0.071205 0.085795 0.071521 100 103 100
0.022453 0.023771 0.022521 142 146 147
0.029889 -0.001652 0.004521 23 34 40
-0.038380 0.015758 -0.025979 125 114 93
-0.004501 -0.010569 -0.006979 45 48 57
-0.003353 -0.007492 -0.004579 86 89 96
0.016356 -0.011005 -0.002479 31 49 53
0.010055 -0.001101 -0.005579 174 157 84
-0.025538 0.000919 -0.050879 175 183 168
-0.036315 0.016551 -0.026879 132 122 95
-0.003966 -0.007705 -0.004379 81 84 93
-0.007612 0.011629 -0.013779 183 173 136
-0.003572 0.007422 -0.006279 149 129 85
-0.025645 0.000963 -0.050879 63 63 61
-0.007361 -0.068293 0.054521 144 148 149
0.049480 0.014635 0.037421 121 125 123
0.010622 0.005224 -0.000179 120 103 63
-0.025469 0.000922 -0.050879 134 138 139
-0.047966 0.010861 -0.018579 138 125 94
-0.031471 -0.004853 -0.006579 132 140 69
0.009479 0.002075 0.006321 62 54 43
-0.025525 0.000926 -0.050879 143 147 132
0.013290 -0.024377 -0.002279 35 57 60
-0.025524 0.000928 -0.050879 75 68 52
-0.008106 0.011558 -0.013779 177 167 132
-0.025623 0.000959 -0.050879 70 62 49
0.176769 0.009523 0.125121 81 85 89
-0.024412 0.017534 -0.025879 105 98 77
-0.034966 -0.006125 -0.007579 114 54 10
-0.049273 0.010195 -0.019379 70 60 48
-0.069145 -0.053279 0.038921 161 171 170
0.157853 -0.071409 0.099921 97 97 107
-0.010629 -0.005518 -0.007779 187 196 206
-0.025625 0.000857 -0.050879 164 171 168
-0.015791 0.004353 -0.023779 165 169 159
-0.049270 0.010274 -0.018479 60 50 38
-0.046489 -0.047665 0.039921 146 154 156
-0.055630 -0.034652 0.042021 142 146 146
0.177194 0.003955 0.113521 81 82 87
0.188327 0.044219 0.124721 61 62 66
0.090219 0.083336 0.079021 110 110 114
-0.085931 -0.048506 0.031521 156 162 162
0.010658 0.005470 0.000421 81 67 35
0.157720 -0.099500 0.127421 110 114 125
-0.025655 0.000883 -0.050879 148 155 152
-0.025574 0.000920 -0.050879 172 180 178
-0.040856 0.009128 -0.016279 94 74 49
-0.025657 0.000928 -0.050879 61 58 51
-0.025509 0.000973 -0.050879 132 136 137
-0.046944 0.009942 -0.017179 148 133 94
0.013782 -0.015663 -0.001779 23 36 42
-0.025618 0.000855 -0.050879 154 160 158
-0.033427 -0.007632 -0.007879 202 93 0
-0.049349 0.005458 -0.025679 66 59 49
-0.050750 0.010911 -0.025379 58 55 43
-0.050223 0.003628 -0.026979 63 60 53
-0.025581 0.000928 -0.050879 133 107 53
-0.038478 0.016742 -0.027279 135 128 100
-0.025526 0.000919 -0.050879 138 142 126
-0.029655 0.016488 -0.026179 135 121 87
0.147451 0.062232 0.126621 88 87 84
-0.026715 0.014499 -0.021979 70 53 23
-0.025624 0.000875 -0.050879 93 95 94
-0.025643 0.000887 -0.050879 84 83 79
-0.036568 -0.057674 0.040721 146 151 154
-0.010357 -0.017495 0.001021 66 70 79
0.042173 0.048928 0.052721 139 139 138
0.100149 0.085735 0.076321 109 110 112
-0.025628 0.000871 -0.050879 104 106 105
-0.025525 0.000925 -0.050879 146 147 135
-0.034941 0.014892 -0.024279 71 59 44
-0.025653 0.000848 -0.050879 144 148 147
-0.054684 -0.036162 0.041821 138 148 147
0.010720 0.004328 -0.000579 118 102 23
-0.025483 0.000947 -0.050879 142 146 145
-0.025610 0.000871 -0.050879 109 111 108
0.008901 -0.003285 -0.005279 162 143 49
0.038402 -0.011681 0.005521 28 38 42
-0.046954 -0.001878 -0.024479 102 95 85
-0.016731 0.012929 -0.018479 89 66 33
-0.025622 0.000971 -0.050879 53 49 36
0.156642 -0.111575 0.122521 108 111 124
0.006397 -0.012286 -0.003179 81 84 94
-0.044340 -0.013384 -0.001579 65 51 37
-0.049662 0.007856 -0.024979 65 58 50
0.017116 -0.005678 -0.003679 184 175 101
-0.025598 0.000841 -0.050879 160 169 168
-0.046703 -0.003763 -0.019979 105 94 82
-0.025649 0.000945 -0.050879 66 62 53
-0.025648 0.000926 -0.050879 61 56 51
-0.025554 0.000932 -0.050879 50 52 46
0.137146 -0.118870 0.136521 83 88 94
-0.013332 -0.001216 -0.011479 115 73 19
-0.025639 0.000968 -0.050879 58 58 56
0.015475 -0.016189 -0.001879 22 33 39
-0.034667 0.014530 -0.023579 73 59 42
-0.020396 0.015407 -0.022679 121 102 72
-0.031039 0.015612 -0.024979 75 61 23
-0.022753 -0.001252 -0.015779 255 191 195
-0.039440 0.016876 -0.027479 141 134 105
-0.025592 0.000863 -0.050879 134 138 139
-0.041978 -0.008963 -0.012579 192 100 0
-0.025546 0.000941 -0.050879 62 49 20
-0.005340 -0.020541 0.001221 7 7 15
-0.025639 0.000873 -0.050879 116 120 119
0.114466 0.077325 0.093321 111 113 112
0.007988 -0.073429 0.069321 141 147 147
-0.007313 -0.010879 -0.008279 38 44 56
0.144378 -0.080923 0.112021 45 48 58
-0.025490 0.000957 -0.050879 137 141 142
-0.030716 -0.000889 -0.019779 238 186 188
-0.057177 -0.048040 0.033421 122 131 132
0.003434 -0.007139 -0.004579 192 184 111
-0.034269 0.016021 -0.025779 96 85 61
-0.047260 0.010315 -0.017679 147 134 100
-0.048624 0.006522 -0.022479 67 60 50
-0.049393 0.011455 -0.019379 88 77 55
-0.025629 0.000861 -0.050879 176 176 160
-0.048512 0.002594 -0.025379 76 67 60
-0.022696 -0.004077 -0.014179 238 182 179
-0.025642 0.000969 -0.050879 68 68 66
-0.025513 0.000973 -0.050879 131 137 135
-0.014356 -0.019545 0.004721 28 36 45
0.174195 0.005670 0.131321 88 91 96
-0.032450 -0.001466 -0.019979 245 189 192
-0.003223 0.013891 -0.008979 154 152 150
-0.025544 0.000924 -0.050879 188 196 184
-0.047135 -0.003300 -0.017579 101 96 87
-0.042387 0.016787 -0.027479 133 126 97
-0.017482 -0.044122 0.058621 137 146 143
-0.077792 -0.045216 0.038521 159 165 163
-0.046351 -0.002766 -0.023479 106 98 87
-0.000640 -0.004299 -0.007679 138 144 151
-0.006025 -0.004373 0.007821 38 33 27
-0.009126 0.002284 -0.017579 102 67 14
-0.004365 -0.023780 -0.003079 6 9 14
-0.010289 0.004558 -0.016479 91 60 16
-0.055838 -0.006172 -0.003979 33 33 33
-0.025601 0.000869 -0.050879 128 130 127
-0.048732 0.004484 -0.025079 71 62 53
-0.017636 0.014911 -0.020979 119 102 72
0.031099 0.018646 0.025721 136 140 141
-0.022104 -0.039678 0.057321 132 141 140
-0.015096 -0.015096 0.003621 79 84 88
-0.010642 0.000120 -0.014279 164 134 70
-0.025626 0.000848 -0.050879 153 157 156
-0.015590 -0.002208 -0.010279 103 60 19
-0.040764 0.014052 -0.023379 97 85 64
-0.029783 0.016471 -0.025979 106 92 55
-0.036166 0.000569 -0.022779 212 157 155
-0.025601 0.000880 -0.050879 144 146 141
-0.046150 -0.003820 -0.012279 61 13 0
-0.017522 0.005692 -0.024379 146 137 108
0.040516 -0.006114 0.006521 20 31 37
-0.044782 0.013831 -0.023179 103 89 62
-0.042633 -0.052818 0.038721 145 153 155
-0.047274 -0.035148 0.045721 138 146 148
-0.012389 -0.000489 -0.012879 110 69 18
-0.041168 -0.004877 -0.013979 163 62 3
-0.025540 0.000932 -0.050879 106 105 75
0.097583 0.064965 0.115321 134 136 133
-0.040946 0.014832 -0.024679 125 116 89
-0.025549 0.000934 -0.050879 148 148 143
-0.014782 -0.023436 0.008821 18 33 40
-0.025623 0.000848 -0.050879 152 158 156
-0.025493 0.000939 -0.050879 147 149 146
-0.025661 0.000840 -0.050879 139 143 142
0.017836 -0.011297 -0.002779 29 49 54
-0.048580 0.002574 -0.025679 77 68 61
-0.009735 0.003101 -0.015679 120 87 42
0.011518 -0.023110 -0.002779 23 38 44
0.019303 -0.008019 -0.002679 22 37 42
-0.012904 -0.023163 0.006021 22 32 38
-0.044246 0.014277 -0.023879 107 96 68
-0.025637 0.000953 -0.050879 47 50 46
0.164920 0.071987 0.107721 89 89 89
0.004473 -0.005108 -0.005279 110 109 110
-0.027260 0.014452 -0.022079 66 50 24
0.008037 -0.009731 -0.001979 154 152 99
0.034125 0.070887 0.059721 127 128 130
-0.043514 -0.001141 -0.012879 23 9 16
-0.016289 0.002421 -0.014279 130 67 72
0.147929 -0.116603 0.129221 115 120 129
-0.025513 0.000972 -0.050879 133 139 139
-0.025964 0.002062 -0.024179 230 239 238
0.024189 -0.004927 0.001721 49 47 16
0.004944 -0.023183 -0.003179 8 9 14
-0.030332 -0.054344 0.044921 144 149 152
-0.024042 0.015415 -0.023479 112 95 64
-0.039317 -0.056265 0.039321 144 152 154
-0.014238 -0.023685 0.007521 19 38 42
-0.006338 -0.002990 -0.010979 191 193 204
-0.025657 0.000970 -0.050879 61 63 60
-0.035759 0.012884 -0.021479 69 50 28
0.035386 -0.005388 0.004921 23 34 40
-0.017750 0.014683 -0.020979 121 105 76
-0.025656 0.000847 -0.050879 141 145 144
-0.025647 0.000848 -0.050879 146 152 150
-0.047549 0.004344 -0.020679 74 67 56
0.141734 -0.115678 0.133721 116 123 131
0.164185 0.060640 0.131021 33 33 33
-0.030209 0.013913 -0.022179 72 50 6
-0.025619 0.000878 -0.050879 93 95 94
-0.019237 0.006799 -0.026879 131 103 48
-0.053899 -0.042369 0.039321 146 154 156
-0.025487 0.000842 -0.050879 128 144 144
-0.041468 -0.003746 -0.014579 186 87 10
-0.014981 -0.062262 0.052521 144 150 150
-0.022411 0.015625 -0.023379 117 100 71
-0.025493 0.000962 -0.050879 132 136 137
0.173543 -0.001191 0.125821 89 91 96
-0.044084 0.015155 -0.025179 114 105 76
-0.022385 0.014897 -0.022179 101 76 43
-0.025641 0.000891 -0.050879 86 83 76
-0.025656 0.000840 -0.050879 141 145 144
-0.010432 0.011764 -0.014279 142 128 93
-0.025642 0.000842 -0.050879 148 152 151
-0.005312 -0.027604 -0.003379 42 63 66
-0.014122 -0.054122 0.055021 144 150 150
-0.009876 -0.023828 0.002321 15 30 34
-0.009002 0.011183 -0.013079 173 159 122
0.012757 -0.003606 0.005221 36 26 21
-0.035731 -0.046870 0.046021 144 149 151
-0.025648 0.000877 -0.050879 138 142 141
-0.014760 -0.012797 0.004821 122 121 133
-0.018641 0.003757 -0.024979 145 150 130
-0.046797 -0.005792 -0.019579 124 121 119
-0.009743 -0.007980 -0.003379 47 46 57
0.173649 -0.002430 0.120421 86 89 96
-0.025644 0.000891 -0.050879 83 80 75
-0.066929 -0.051272 0.047021 96 91 76
-0.025495 0.000959 -0.050879 136 140 141
-0.025513 0.000937 -0.050879 87 66 29
-0.034914 -0.000696 -0.022179 229 169 169
0.004408 0.007874 -0.004979 203 193 157
0.161787 -0.101497 0.123321 105 109 120
-0.039180 0.013877 -0.023079 72 63 48
-0.025653 0.000931 -0.050879 60 57 50
0.140947 -0.065738 0.109021 97 102 109
0.014624 -0.025384 -0.001779 30 49 53
-0.020176 0.006050 -0.027579 159 156 142
-0.025651 0.000906 -0.050879 60 57 52
-0.025655 0.000974 -0.050879 50 50 48
-0.025588 0.000867 -0.050879 156 158 157
0.015235 -0.076571 0.074021 140 147 146
-0.025502 0.000911 -0.050879 123 114 96
-0.005894 -0.067193 0.058221 143 149 149
-0.025569 0.000917 -0.050879 169 180 176
-0.025634 0.000861 -0.050879 161 159 136
-0.013071 -0.020134 0.004321 123 128 139
-0.025632 0.000838 -0.050879 151 155 154
-0.029672 0.001189 -0.024879 224 230 223
-0.025527 0.000971 -0.050879 130 134 135
0.017842 -0.013593 0.003821 10 15 14
