ply
format ascii 1.0
element vertex 1224
property float x
property float y
property float z
property uchar red
property uchar green
property uchar blue
end_header
-0.170155 -0.088914 0.028043 84 90 88
0.006664 0.031709 0.024643 154 155 148
-0.061718 -0.079380 0.044043 96 103 72
-0.026393 0.039392 0.011343 153 154 156
0.048988 0.004621 0.003943 159 135 0
0.056479 0.058068 0.006043 142 118 0
-0.113584 -0.001770 -0.017857 132 135 131
0.008792 -0.032222 0.048743 183 187 167
-0.097643 -0.031961 -0.035157 14 14 14
0.174012 0.069712 0.059243 73 72 66
-0.008762 -0.005847 -0.110657 123 134 134
0.117185 0.000881 0.003343 111 89 50
0.045638 0.035908 0.022443 161 135 0
-0.061394 -0.032818 -0.023057 4 6 5
-0.035568 0.025654 0.001243 162 163 165
0.058212 0.067479 0.004443 138 136 128
-0.003977 -0.001926 0.003643 175 178 155
-0.079312 0.009193 -0.025757 180 179 177
0.052586 0.079999 0.022143 69 61 55
-0.032603 0.027327 0.003343 158 159 161
-0.098857 0.043994 -0.022757 155 154 159
0.113854 -0.007081 -0.001557 115 92 50
-0.084178 -0.041072 -0.038557 15 19 18
0.043878 -0.004433 0.012943 165 138 0
0.035782 -0.029014 0.023243 172 150 5
0.018049 -0.034827 0.049743 163 164 126
-0.069440 -0.006020 -0.011857 10 5 2
-0.012254 -0.057552 0.055143 114 117 86
0.049763 0.025917 0.008643 164 138 0
-0.002200 0.025525 0.017243 159 159 157
0.037538 -0.069859 0.005843 157 138 0
-0.087264 -0.039475 -0.037857 45 73 90
0.096371 0.020284 0.001943 122 97 56
-0.071190 -0.017450 -0.019457 74 78 81
0.059248 -0.022667 -0.030157 160 149 7
0.077148 -0.032095 -0.027957 132 109 57
0.151000 0.083747 0.025543 45 41 40
-0.067843 -0.047620 -0.013857 74 76 75
0.030508 -0.019323 0.036943 191 190 169
0.047861 -0.015555 0.000443 167 142 0
-0.008763 -0.005837 -0.110657 80 84 83
-0.086480 -0.027480 -0.035257 129 132 131
0.047575 0.025877 0.013843 164 138 0
0.031169 -0.056470 0.023143 167 147 0
-0.096838 0.060601 -0.014957 144 148 153
-0.067895 -0.027945 -0.022557 68 72 73
-0.082929 -0.013523 -0.024557 154 158 161
0.058488 -0.039878 -0.033157 168 144 0
0.090277 -0.043737 -0.026557 113 96 55
0.081212 -0.036662 -0.026657 130 107 57
-0.029171 -0.007742 0.014143 163 165 155
-0.097104 -0.038976 -0.035857 18 18 18
-0.096937 -0.036456 -0.035757 15 15 15
-0.095142 0.048060 -0.019257 153 154 158
-0.098493 0.019972 -0.031357 164 163 168
-0.024461 -0.078374 0.005643 123 132 93
0.050157 0.035217 0.011343 162 136 0
-0.049732 -0.004709 -0.012257 11 12 10
0.143466 0.076300 0.040443 48 43 43
0.028782 -0.053064 0.030443 169 149 3
0.236091 0.052195 0.090343 58 57 55
0.070293 -0.014120 -0.025157 139 117 59
-0.022960 -0.002999 0.004243 179 182 163
0.027762 0.028762 0.033843 164 160 135
-0.076591 -0.002367 -0.019657 17 18 20
-0.001725 0.024505 0.017043 159 159 157
0.014498 0.008603 0.018143 167 169 155
-0.067937 0.011479 -0.019657 142 142 143
0.056473 -0.012073 -0.019457 170 145 0
-0.005248 0.076351 0.032043 76 75 73
-0.019668 0.009565 0.001843 171 171 171
0.048091 0.040230 0.018243 159 132 0
-0.097050 0.021314 -0.030057 166 165 170
0.178734 0.076090 0.042743 73 68 65
-0.081052 0.031643 -0.018157 163 164 168
0.176667 0.074442 0.048743 75 70 66
-0.016934 -0.014523 0.023543 133 134 126
-0.078678 0.021017 -0.020757 168 169 173
0.035688 -0.059835 0.011743 163 142 1
-0.101291 0.004457 -0.023457 90 80 75
-0.066024 -0.028027 -0.021557 3 5 4
0.002152 -0.034111 0.049143 161 165 142
-0.003693 -0.024721 0.046843 139 141 127
-0.048761 -0.060871 -0.015457 171 177 168
-0.076633 -0.037381 -0.034557 54 55 80
-0.089084 0.031330 -0.022657 163 162 167
-0.014156 -0.091343 0.038243 213 225 176
0.002622 -0.077406 0.004443 103 138 98
0.021604 -0.087574 0.030743 99 85 13
-0.024616 -0.010626 0.021643 67 66 63
-0.045255 0.012807 -0.008557 171 172 176
0.099983 0.084163 0.019043 62 61 59
0.183184 0.074029 0.046143 73 68 65
-0.029694 -0.046603 0.032243 25 28 20
-0.041127 -0.045000 0.032343 27 29 22
-0.088062 0.033577 -0.021357 162 161 166
-0.078090 -0.009509 -0.026457 49 50 52
0.058337 -0.046324 -0.035157 168 143 0
-0.096468 0.010456 -0.027557 159 160 155
0.057727 -0.025225 -0.027057 172 145 2
0.015714 0.078525 0.029343 85 82 76
-0.005864 -0.008021 0.016543 189 190 167
-0.093023 0.018456 -0.029357 170 169 174
-0.008776 -0.005848 -0.110657 117 127 129
0.064860 0.077444 0.010343 94 79 53
-0.057951 -0.041721 -0.022057 8 8 7
-0.139531 -0.081442 0.008743 86 95 94
-0.095660 -0.026046 -0.035257 13 13 15
0.022283 -0.086220 0.032643 145 126 5
-0.036021 -0.039033 0.031243 11 11 10
0.035636 -0.056551 0.012243 164 143 3
-0.068315 -0.029489 -0.023657 73 77 77
0.303191 0.024804 0.149943 51 51 49
-0.006173 0.021013 0.013243 161 161 159
0.056381 -0.044241 -0.028557 171 145 0
0.127845 -0.013974 0.001943 108 86 49
0.033933 -0.052425 0.016943 166 143 1
0.055086 -0.026931 -0.018957 172 146 1
-0.062656 -0.049461 -0.015857 76 81 77
0.046419 0.083678 0.018343 70 69 65
0.096773 0.061878 0.019343 115 93 52
-0.052096 -0.044389 0.029143 91 91 91
-0.075381 0.023280 -0.018457 169 170 174
-0.078591 -0.031096 -0.037657 143 147 146
-0.091163 0.045024 -0.018457 156 155 160
-0.114269 -0.003501 -0.016457 89 91 88
-0.015835 0.041930 0.017543 157 157 157
-0.090794 0.020572 -0.027057 170 169 174
0.041042 -0.056065 0.001743 165 142 2
0.056571 -0.017455 -0.020757 170 145 0
0.051529 0.030868 0.006343 162 136 0
-0.053309 -0.075713 0.035743 107 114 81
0.013188 0.008791 0.017643 167 169 157
0.067777 0.012038 -0.015757 135 114 58
-0.066948 -0.009876 -0.021957 9 10 11
-0.082026 -0.021831 -0.028157 114 118 119
-0.050397 0.004489 -0.013757 190 192 190
0.039815 0.083750 0.017743 77 74 67
-0.018180 0.027464 0.010143 165 165 165
-0.068955 -0.008346 -0.016157 2 3 5
-0.055132 0.007165 -0.015757 179 181 180
0.000220 0.073157 0.037243 71 70 68
0.052814 -0.021827 -0.012857 169 144 0
0.042546 -0.004640 0.016043 163 142 1
-0.057650 0.032967 -0.006557 167 168 172
0.076358 0.047007 0.003243 127 103 57
-0.091465 0.054112 -0.014857 150 151 155
0.059901 -0.036631 -0.038357 173 171 166
0.059745 -0.000175 -0.023257 172 169 165
0.208986 0.062231 0.075943 66 61 58
0.022527 -0.083605 0.010343 117 138 37
-0.039039 -0.041310 -0.022657 69 97 120
-0.001378 0.075787 0.033443 78 77 75
-0.088133 -0.022609 -0.031157 116 116 114
-0.058020 0.011136 -0.015757 153 154 158
-0.008766 -0.005842 -0.110657 93 99 97
0.040119 -0.025680 0.013543 171 146 2
-0.101438 0.041501 -0.024857 157 156 161
-0.094709 0.031785 -0.025057 164 163 168
-0.054322 0.035479 -0.004157 165 166 171
-0.003777 0.074141 0.035443 69 68 66
0.040977 0.045314 0.038043 157 133 0
-0.059045 0.064161 0.005843 154 155 160
0.224492 0.055331 0.078743 60 59 57
-0.001623 0.063747 0.034043 147 147 145
-0.051436 -0.037069 -0.024657 7 7 7
0.059724 -0.030691 -0.033757 158 141 11
0.026676 -0.080593 0.024443 119 100 0
-0.008787 -0.005842 -0.110657 80 84 85
0.051558 -0.039901 -0.014857 168 141 0
-0.074059 0.053697 -0.005957 154 155 159
-0.014149 -0.053798 0.055243 110 113 86
-0.056072 -0.036557 -0.024257 7 6 6
0.051937 0.032040 0.005843 162 136 0
-0.050280 0.016854 -0.009557 170 171 176
-0.009026 -0.011226 0.024043 172 178 164
0.089804 -0.009685 -0.014157 129 106 54
-0.046151 0.024891 -0.004357 165 166 170
-0.007392 0.072207 0.034943 115 115 113
0.002224 -0.043615 0.054843 173 174 149
0.076293 -0.045128 -0.030257 129 107 57
-0.041612 -0.015507 -0.014657 3 4 6
-0.101842 0.032419 -0.028257 161 160 165
-0.096367 -0.025627 -0.035757 13 15 14
-0.078421 0.012415 -0.024257 129 129 129
-0.074045 0.067849 -0.000257 148 149 153
0.058436 -0.037399 -0.032357 168 143 0
-0.093476 -0.009661 -0.029957 13 12 13
0.038072 0.067947 0.050443 72 62 60
0.003435 0.039340 0.025943 155 156 151
0.075228 -0.013049 -0.022357 137 115 55
0.057134 0.059834 0.005243 140 117 3
-0.053743 -0.064952 -0.018957 166 172 170
0.200390 0.061954 0.077143 67 62 58
0.126989 -0.013332 0.001943 107 85 48
0.043351 0.044102 0.032143 161 135 0
0.046563 -0.069125 -0.013057 163 137 0
0.084571 -0.024154 -0.022257 129 106 54
0.036869 0.076253 0.035743 81 75 69
0.012700 0.082949 0.017643 79 76 71
0.023053 0.081982 0.023243 84 77 72
-0.041583 -0.039163 -0.023457 2 19 33
0.047121 -0.004519 0.005043 164 137 0
-0.043725 0.015703 -0.006757 169 170 174
-0.027870 0.048844 0.014943 149 150 152
-0.092528 0.041022 -0.020757 156 155 160
0.050362 -0.009505 -0.003457 165 141 0
0.075696 -0.053821 -0.034657 124 101 56
-0.080694 0.020520 -0.021857 168 169 173
0.182752 0.066388 0.068643 70 65 61
0.060560 -0.036375 -0.038957 170 170 169
-0.078259 0.020304 -0.020857 170 171 175
-0.115690 -0.079082 0.003643 123 138 138
-0.088561 0.061949 -0.010257 147 148 152
-0.072925 -0.031748 -0.028557 59 60 64
0.057542 -0.046860 -0.033057 171 144 1
0.036864 0.035769 0.040343 164 156 119
0.221955 0.052974 0.093043 61 58 55
0.059626 0.004182 -0.021457 166 166 166
0.049400 0.013179 0.005643 163 139 3
0.050013 0.033727 0.011043 162 136 0
0.065477 0.072257 0.008743 98 84 58
-0.048036 -0.012973 -0.016757 3 4 6
0.129872 0.031293 0.023143 106 82 49
0.026962 -0.056160 0.033943 172 151 0
-0.068456 -0.012261 -0.014057 5 8 7
0.004633 0.081392 0.022343 75 74 70
0.046614 -0.061196 -0.010957 168 143 1
-0.007607 -0.088337 0.043743 186 196 146
0.077633 -0.012969 -0.021257 136 114 56
-0.017345 0.021492 0.008143 167 167 167
-0.133773 -0.076427 -0.003057 95 107 105
-0.079116 0.006486 -0.018157 147 146 144
0.207450 0.055586 0.088943 65 57 48
0.003520 0.083288 0.016043 76 75 71
-0.093844 0.046553 -0.019157 152 154 157
-0.030502 0.029300 0.004843 163 164 166
0.032442 -0.040542 0.026543 162 141 0
0.041980 0.024236 0.026943 167 142 0
-0.006037 -0.035474 0.049943 144 146 131
0.053919 0.026021 -0.001157 164 138 0
-0.003730 -0.002559 0.004343 192 194 174
0.053127 0.076346 0.021143 121 101 12
-0.028993 0.007247 -0.003157 170 171 173
-0.035836 0.060038 0.015343 145 146 148
-0.077611 0.025283 -0.018757 166 167 171
0.009915 0.021674 0.022143 158 160 148
0.020244 0.076825 0.033343 85 82 77
-0.082840 -0.040475 -0.038657 16 17 18
-0.071458 -0.028351 -0.025457 85 88 93
-0.094800 -0.028484 -0.035257 14 14 16
0.147225 0.075639 0.042443 47 43 42
0.084525 0.082980 0.019843 69 68 66
0.049477 0.016833 0.006243 165 139 0
-0.086740 -0.009055 -0.025757 85 86 88
-0.050159 0.047207 0.002743 157 158 162
-0.079061 -0.014637 -0.023257 111 114 119
-0.006434 0.017916 0.011843 162 162 160
0.050090 -0.052575 -0.015757 169 142 0
-0.018760 0.003125 -0.001057 169 169 167
-0.066620 0.072261 0.005043 145 149 152
-0.036507 -0.002024 0.000743 167 171 153
-0.033833 -0.014363 0.017343 22 21 19
-0.061844 0.068879 0.006643 151 152 156
-0.062883 0.017345 -0.015457 169 170 174
-0.004779 -0.040373 0.051443 170 170 148
0.129122 0.079758 0.031843 60 59 57
-0.066834 0.016553 -0.017257 170 171 175
0.069022 0.033153 -0.006057 135 112 60
0.265220 0.042370 0.116043 53 53 52
-0.069287 -0.041658 -0.029457 125 129 132
-0.008761 -0.005840 -0.110657 89 92 92
-0.070756 -0.039525 -0.029757 114 118 121
0.045366 0.074803 0.036143 74 71 64
0.052898 -0.033687 -0.016157 169 142 0
-0.102854 0.034397 -0.028057 159 158 163
0.014167 0.074027 0.038343 88 87 83
0.057012 -0.044115 -0.030457 171 144 1
-0.091422 0.009118 -0.025257 153 152 148
0.034615 -0.069170 0.011343 158 140 4
0.057702 0.071292 0.006243 135 133 124
0.124322 -0.019041 -0.002157 108 86 49
-0.066808 0.023108 -0.014957 168 169 173
-0.087998 0.010338 -0.028957 179 179 178
-0.025265 -0.001393 0.000643 181 184 165
0.050523 -0.014984 -0.006057 168 143 1
-0.077505 0.064756 -0.003057 150 151 155
0.021446 -0.084490 0.036543 192 170 0
0.052365 -0.044222 -0.018057 170 143 0
0.059585 -0.016596 -0.029757 176 171 163
-0.054359 -0.016672 -0.020157 3 3 3
-0.094764 0.014847 -0.030757 130 130 134
-0.000322 -0.019846 0.028243 168 172 155
0.057640 0.046570 -0.000857 153 127 5
-0.019843 0.013939 0.003643 170 170 170
0.088159 0.020877 -0.001757 126 102 54
-0.082376 0.017452 -0.023857 171 170 175
-0.011499 -0.025770 0.048043 130 137 125
0.008830 0.058424 0.036343 150 151 145
0.027252 0.012163 0.026643 170 168 146
-0.055019 0.057522 0.004643 155 156 160
0.046903 -0.014068 0.003243 167 142 0
-0.082287 0.046220 -0.013257 156 157 161
-0.079424 0.048693 -0.010757 155 156 160
0.027518 -0.059616 0.030743 169 149 0
-0.015156 -0.003193 0.005343 185 187 166
0.008673 -0.043005 0.056343 153 156 127
0.036904 0.009910 0.029843 174 169 138
0.057250 -0.032756 -0.027857 171 144 1
0.262797 0.043881 0.111243 54 54 54
0.015371 0.074735 0.037043 88 87 83
0.122967 0.082582 0.025743 59 58 56
0.191911 0.068700 0.062143 71 68 63
0.051439 0.045458 0.012543 159 132 0
0.051649 0.031027 0.006143 162 136 0
-0.057039 0.002999 -0.011857 156 156 158
0.047477 0.000384 0.006243 156 132 0
-0.030111 -0.082703 0.043043 127 139 93
0.046852 0.031478 0.017643 164 138 1
0.021253 -0.055920 0.048943 175 155 0
-0.014213 0.079149 0.025643 84 83 81
0.075077 -0.024997 -0.027357 135 113 56
-0.120340 -0.077950 0.001543 114 128 129
-0.177341 -0.098135 0.051143 77 81 80
0.057405 -0.033320 -0.028057 171 144 1
0.147289 0.085353 0.020043 44 40 41
0.058095 0.072826 0.006543 135 134 129
0.141238 0.032451 0.029243 101 80 47
-0.101440 0.009887 -0.028057 156 157 152
-0.049243 -0.064164 -0.016857 173 178 173
-0.006784 0.037294 0.019743 157 157 154
0.053070 0.005644 -0.004757 160 137 0
0.082235 -0.044129 -0.029457 124 101 57
0.078192 -0.050769 -0.036357 116 101 68
0.109540 0.035981 0.015043 111 88 47
0.075648 -0.051900 -0.036357 122 99 55
-0.066461 -0.011466 -0.023457 111 112 118
-0.036323 0.019244 -0.001657 165 166 170
0.114537 0.079127 0.030343 59 58 56
0.043822 0.029987 0.024943 164 140 0
-0.008761 -0.005836 -0.110657 81 85 84
-0.063005 0.070951 0.006743 149 150 154
0.042716 -0.009858 0.013543 167 143 1
0.006596 0.030262 0.024043 155 156 149
-0.008764 -0.005835 -0.110657 75 77 76
0.056332 0.064943 0.009043 139 113 0
0.088413 -0.045828 -0.029457 95 87 59
0.023833 0.004937 0.021243 168 172 151
-0.046595 0.009382 -0.010657 158 159 163
0.065783 0.070284 0.008143 98 83 55
0.004030 -0.017853 0.029643 188 190 176
-0.172601 -0.090504 0.033443 77 83 81
0.058614 0.010209 -0.016957 152 133 3
-0.095375 0.056355 -0.016157 149 150 154
-0.050155 0.067640 0.011643 149 150 154
0.036861 -0.001208 0.024943 176 171 136
-0.008778 -0.005842 -0.110657 79 84 87
0.091621 -0.025450 -0.019357 125 101 53
-0.071731 -0.039993 -0.032557 19 20 25
0.014880 -0.069290 0.055343 115 114 58
0.050098 -0.045862 -0.013657 167 142 0
0.052255 -0.004642 -0.006157 162 136 0
-0.030902 -0.087828 0.038543 181 191 139
0.128108 0.078742 0.033343 59 58 56
0.178857 0.038061 0.059243 89 77 65
0.090055 -0.012914 -0.015157 129 106 56
-0.008757 -0.005848 -0.110657 132 144 142
0.041449 0.009878 0.022743 167 144 4
0.003906 0.008235 0.012743 164 165 159
0.056935 -0.037400 -0.027657 170 143 0
-0.086145 -0.021520 -0.029757 120 120 120
0.010237 -0.011756 0.024443 195 198 178
0.051315 -0.063187 -0.021957 167 140 0
0.038049 0.043009 0.042343 124 110 42
-0.006095 0.029847 0.017043 159 159 157
-0.084839 -0.040626 -0.038057 43 56 58
-0.009904 0.016310 0.009443 166 166 165
0.059168 -0.042936 -0.036757 165 142 5
0.063161 -0.038867 -0.039757 151 149 151
-0.023163 -0.091912 0.032143 242 246 213
0.039460 -0.069700 0.002043 160 138 1
-0.026127 -0.064389 0.052243 106 111 88
-0.045312 0.006230 -0.011557 179 181 180
-0.018480 -0.047373 0.048743 151 155 143
-0.078460 0.015239 -0.022757 173 172 177
0.141282 0.027090 0.026843 103 83 51
0.142174 0.057780 0.039443 85 70 48
0.057891 0.012792 -0.014657 158 134 2
-0.003020 0.001446 0.005443 119 120 115
0.112264 -0.002271 -0.000357 115 92 52
-0.024855 -0.011628 0.021543 24 23 19
-0.114761 0.002965 -0.021757 62 62 60
0.047558 -0.038633 -0.006757 165 139 0
0.174889 0.073558 0.050643 75 72 67
0.066096 0.021165 -0.012757 136 115 63
0.059983 -0.012086 -0.028357 174 175 171
-0.052630 -0.029764 -0.023257 3 4 4
0.007013 0.080318 0.025443 80 80 76
-0.064023 0.039172 -0.006857 164 163 168
-0.064919 0.049716 -0.003257 140 141 145
0.011446 -0.093507 0.043543 169 177 125
-0.045816 0.025151 -0.004157 165 166 170
0.056997 -0.017933 -0.022257 170 145 0
0.039331 -0.069384 0.002243 160 138 1
-0.042097 -0.029652 0.021143 52 14 14
-0.001651 -0.087569 0.045643 178 185 133
-0.008782 -0.005847 -0.110657 103 111 114
0.067728 -0.023105 -0.030257 133 113 57
0.143487 0.081078 0.031343 47 46 44
-0.045163 -0.033271 0.024143 5 3 5
-0.097315 0.007851 -0.025057 148 147 142
0.048463 0.056799 0.024943 147 121 0
0.184926 0.068310 0.063543 71 68 63
0.210968 0.057556 0.085643 65 62 57
-0.079292 0.004533 -0.015057 139 134 130
0.050986 0.055867 0.018143 148 121 0
0.257625 0.037782 0.121443 57 51 49
0.047881 0.018336 0.010443 168 142 3
-0.082634 -0.039747 -0.038457 14 13 18
0.040821 -0.059671 0.001243 164 141 1
-0.010397 0.068005 0.031643 145 145 145
0.057085 -0.019292 -0.023257 170 145 0
0.044830 0.051814 0.031743 152 127 0
0.019661 0.020497 0.026543 163 162 142
-0.062171 0.019234 -0.014457 165 166 170
0.038273 -0.047877 0.008843 165 142 2
-0.050554 -0.055150 0.035843 85 89 75
-0.029630 0.055535 0.016943 144 145 147
0.016269 -0.004915 0.011243 181 179 156
-0.012366 -0.018177 0.024443 177 183 172
0.017436 -0.058624 0.055543 172 161 1
0.150732 0.003819 0.023143 116 104 88
0.025532 -0.052746 0.039743 173 152 0
-0.054774 0.044574 -0.000657 161 162 167
0.058261 -0.025549 -0.028357 171 144 1
-0.043335 0.078211 0.020143 77 78 82
-0.072111 -0.045392 -0.030957 19 20 24
0.050460 0.045500 0.014943 158 131 0
0.025919 0.034394 0.035343 160 157 132
-0.065140 -0.009104 -0.009457 22 17 16
-0.086107 0.035627 -0.019457 162 161 166
-0.092838 -0.040168 -0.036357 17 22 25
0.116838 0.059594 0.028143 105 81 46
0.084500 -0.021453 -0.021357 130 107 55
-0.119553 -0.005106 -0.015457 117 119 114
-0.049399 0.009154 -0.012157 154 155 159
0.048675 -0.003052 0.002043 160 137 0
0.084808 0.022479 -0.002757 127 102 55
-0.016238 -0.074008 -0.001357 77 103 73
0.071905 0.014753 -0.012257 132 111 56
0.043837 -0.012732 0.010143 167 142 0
0.011534 -0.001229 0.010643 128 127 114
-0.090709 0.010971 -0.029657 178 178 176
0.051066 0.025288 0.005443 160 139 0
-0.038248 0.007931 -0.007257 152 152 154
0.214541 0.060556 0.078243 64 60 57
-0.082901 0.004373 -0.014857 110 106 103
-0.044214 -0.072107 -0.008757 110 128 88
0.038224 -0.025036 0.018743 174 149 4
-0.088677 -0.019483 -0.029057 110 112 109
0.044986 0.081793 0.023343 68 64 61
-0.030207 0.021831 0.002143 171 172 174
0.046493 0.077320 0.031843 76 73 68
0.064622 0.002684 -0.021157 134 117 65
-0.040070 -0.035275 0.030043 21 26 28
0.033155 -0.081340 0.011143 148 128 5
0.067625 -0.018942 -0.028557 135 114 56
0.059855 0.002748 -0.022257 166 165 160
-0.055023 -0.031776 -0.023757 5 5 5
0.093419 -0.011579 -0.013157 127 104 54
-0.080142 -0.017263 -0.024757 107 107 111
-0.101826 0.026166 -0.030957 163 162 167
0.059310 0.032620 -0.009557 165 156 152
0.038651 0.003221 0.025643 130 107 31
0.047732 -0.067048 -0.014857 164 138 0
-0.011461 -0.080581 0.045943 133 139 88
-0.015811 -0.046184 0.050043 127 119 52
-0.082389 0.020058 -0.022857 170 169 174
0.100305 0.004580 -0.003257 119 95 51
-0.071183 -0.016293 -0.018957 103 107 110
-0.009074 -0.087351 0.043543 176 185 137
0.065918 0.077625 0.010943 95 83 54
-0.077709 0.058338 -0.005857 151 152 156
0.037868 0.050301 0.045643 111 91 34
0.043515 0.035875 0.028243 163 137 0
0.004375 0.056336 0.033443 156 157 152
-0.085656 0.045987 -0.015057 156 157 161
-0.035835 0.001624 -0.007457 177 185 170
-0.008783 -0.005848 -0.110657 107 117 120
0.090490 -0.022920 -0.018957 128 105 55
-0.076381 -0.036502 -0.033857 12 12 20
-0.019473 -0.000794 -0.000157 186 189 169
-0.051682 -0.042440 -0.023157 8 12 11
-0.096250 -0.036557 -0.035857 15 15 15
-0.065068 -0.041812 -0.019257 6 8 7
0.003086 0.043953 0.027943 156 157 152
0.054104 -0.051414 -0.025057 172 146 1
-0.048110 -0.037616 -0.024057 8 8 9
0.105302 0.080554 0.026643 64 63 59
0.134868 0.059262 0.036343 89 72 43
-0.073702 -0.031014 -0.036257 121 125 137
0.171973 0.070281 0.057643 77 71 65
0.115444 0.084868 0.017943 56 55 53
0.014114 -0.093620 0.043743 134 140 92
0.059142 -0.029204 -0.031357 169 144 0
0.300061 0.033727 0.140543 52 52 52
-0.080510 -0.038216 -0.037257 26 30 33
-0.094420 -0.016231 -0.031357 14 14 16
-0.069616 -0.014097 -0.018157 75 80 84
0.154864 0.077817 0.039043 53 51 44
-0.008780 -0.005842 -0.110657 80 85 88
0.058566 -0.030661 -0.030057 170 146 1
-0.057890 0.002076 -0.011657 33 33 35
0.046633 -0.036359 -0.004357 164 138 0
0.153277 0.081262 0.031643 48 44 43
-0.057439 0.028112 -0.008657 169 170 174
-0.075229 -0.015009 -0.021257 134 138 141
-0.065271 0.029895 -0.011257 165 166 170
-0.057244 0.017023 -0.012957 169 170 174
-0.024275 0.082445 0.014843 80 80 80
0.055790 -0.009763 -0.016657 169 144 0
0.045784 0.006979 0.011943 163 140 2
-0.084548 0.000606 -0.016657 82 54 29
0.034974 -0.048863 0.015743 165 142 0
0.079022 0.036474 0.000043 131 108 56
-0.091873 -0.080462 0.006843 141 156 159
-0.015924 0.045486 0.019143 155 155 155
-0.022950 -0.021317 0.024943 127 142 93
-0.035943 -0.084684 0.044643 133 141 100
0.044765 0.046089 0.029443 157 130 0
0.041581 0.078074 0.031743 68 65 58
-0.135484 -0.081783 0.009643 93 103 102
0.082550 -0.037167 -0.026157 128 105 55
0.057847 -0.033763 -0.029057 172 145 2
0.051983 -0.019307 -0.010857 168 143 0
-0.092046 0.023060 -0.026757 168 167 172
0.126582 0.077743 0.034943 59 59 57
0.030242 0.031215 0.035943 162 156 131
-0.076058 0.004100 -0.013957 142 139 136
-0.055328 -0.007099 -0.015357 3 3 5
-0.047743 0.045491 0.003243 155 156 160
-0.061575 -0.056007 -0.017757 172 175 175
-0.017309 0.000839 -0.000957 175 178 165
-0.049428 0.082016 0.016643 69 71 69
0.049902 -0.007702 -0.001657 163 137 0
0.091253 -0.016602 -0.016257 129 106 54
-0.191690 -0.095301 0.052143 78 79 78
-0.098287 0.039853 -0.023957 122 121 126
-0.196992 -0.090827 0.049543 76 80 82
-0.086262 0.047608 -0.014757 155 156 160
0.091629 0.010291 -0.004657 122 98 50
-0.022785 0.078754 0.025843 67 67 67
0.066748 -0.002801 -0.022257 139 118 61
-0.065771 -0.001627 -0.014557 87 68 48
-0.001269 -0.028700 0.047443 145 148 129
-0.066013 0.023442 -0.014457 169 170 174
-0.054159 -0.034354 -0.024457 7 7 7
0.021939 0.011810 0.023943 166 168 147
-0.000076 0.047642 0.027943 153 153 151
0.057964 -0.022778 -0.027357 171 146 2
-0.003750 -0.087551 0.045043 178 187 137
-0.011703 -0.004483 0.008343 187 188 167
-0.051393 0.034958 -0.002857 163 164 168
-0.030038 -0.058365 0.053743 102 107 85
-0.103349 0.055996 -0.021357 149 150 155
-0.023895 -0.012654 0.021943 29 28 23
-0.069921 -0.001809 -0.018757 73 51 26
-0.085821 0.012895 -0.027957 176 176 174
0.060212 0.005722 -0.021357 166 165 161
-0.088091 -0.007089 -0.027557 16 16 18
-0.082058 -0.023695 -0.030357 119 123 123
-0.009739 0.034523 0.017243 159 159 157
-0.008771 -0.005840 -0.110657 78 83 86
0.054935 -0.012362 -0.015257 169 144 0
-0.096561 0.013861 -0.031057 172 172 172
-0.069374 0.028340 -0.014057 166 167 171
0.058664 0.039377 -0.005457 139 117 52
0.010389 -0.079986 0.006443 108 132 60
0.017517 0.006437 0.018543 168 169 150
0.046023 0.060942 0.032743 145 119 0
-0.010697 0.002779 0.002643 136 137 132
0.092015 0.021838 0.000443 125 101 54
-0.056943 -0.089864 0.036643 172 184 136
0.045639 -0.068780 -0.010657 163 137 0
-0.013163 -0.086502 0.043043 169 178 127
0.048779 0.072314 0.030143 123 103 0
-0.050716 0.036331 -0.001957 160 161 165
-0.089298 -0.019173 -0.029057 106 107 102
0.041125 0.048897 0.039343 157 134 0
-0.197686 -0.091330 0.052243 77 79 78
-0.077177 -0.037442 -0.034757 25 27 52
-0.058118 -0.030514 -0.022957 4 3 4
0.018897 -0.041503 0.056743 158 142 14
-0.087433 -0.035280 -0.037957 146 150 151
-0.070270 0.016369 -0.018757 169 170 174
0.053252 -0.058270 -0.025557 169 142 1
0.036416 -0.005597 0.020643 183 179 148
-0.028414 -0.010322 0.020143 38 39 34
0.137522 0.035759 0.028743 101 81 48
0.047332 0.063409 0.030543 142 115 0
0.246091 0.049254 0.099543 55 55 53
-0.061782 -0.011824 -0.015157 10 10 10
0.052083 0.054288 0.014843 151 126 0
-0.041973 0.060109 0.012343 148 149 150
0.034630 -0.066967 0.012043 158 138 3
0.054415 -0.056381 -0.027857 170 143 0
-0.091427 -0.017085 -0.029557 14 12 13
0.075586 -0.053251 -0.037757 121 99 56
0.011323 0.008678 0.016643 166 168 155
-0.025014 0.026223 0.006443 162 163 165
-0.058466 0.022712 -0.011257 170 171 175
-0.020981 0.075630 0.028943 57 58 57
-0.089449 0.056604 -0.012657 150 151 155
-0.040554 -0.013643 -0.012857 6 8 7
0.022352 0.002552 0.019243 170 172 151
0.078208 -0.048625 -0.032257 125 104 56
0.058258 -0.045528 -0.034757 168 143 0
0.078052 -0.043988 -0.029757 129 105 57
0.055370 0.038819 0.000643 160 135 0
-0.030358 -0.007742 0.014143 160 162 152
0.078876 0.003762 -0.013657 132 109 55
0.082389 -0.036845 -0.026157 128 105 55
-0.057249 -0.089099 0.022843 215 235 190
-0.068961 -0.045285 -0.020457 69 71 69
0.130766 0.082638 0.027043 55 54 52
0.116310 -0.004992 0.000443 115 92 50
-0.102715 0.028502 -0.030457 160 159 164
-0.068734 -0.037084 -0.027657 100 106 109
0.083069 -0.020538 -0.021757 132 109 56
-0.043202 -0.039457 -0.023557 6 12 16
0.015241 0.029511 0.028143 157 158 141
0.012143 -0.077642 0.008843 80 97 62
0.164106 0.082200 0.030543 76 71 67
0.141885 0.068885 0.044743 70 57 38
0.046251 -0.050230 -0.007357 165 140 0
-0.020568 0.079816 0.024243 69 69 69
-0.006384 0.024389 0.014543 160 160 158
0.034627 -0.077775 0.009443 150 130 6
0.111738 -0.017863 -0.006957 118 95 53
-0.028005 0.062357 0.020743 144 145 147
0.042653 0.007194 0.018743 165 142 2
0.021143 0.082641 0.020443 87 84 77
-0.054868 -0.007458 -0.015557 4 4 6
-0.048576 -0.050422 -0.010457 153 160 150
-0.054328 -0.064182 0.035443 89 93 76
0.092802 0.045633 0.010743 121 97 54
0.054045 -0.036703 -0.019457 170 144 0
-0.061835 -0.004161 -0.013057 22 23 21
-0.058256 -0.089057 0.034743 174 186 138
-0.099293 -0.032642 -0.034857 14 14 14
0.020927 -0.023788 0.036743 209 209 181
0.049776 -0.011381 -0.002657 166 141 0
-0.057862 0.061539 0.005143 154 155 160
-0.093178 -0.034488 -0.036057 18 18 20
-0.082395 0.006271 -0.018457 146 145 141
0.011587 0.044102 0.032143 152 153 141
0.056440 0.042324 -0.000057 158 131 2
-0.035460 0.081825 0.018143 80 80 80
0.051205 -0.054419 -0.018757 169 142 0
0.004592 0.062105 0.035843 149 149 147
-0.061048 -0.034884 -0.023357 4 6 5
0.057839 -0.034623 -0.029257 171 144 1
-0.032313 0.009600 -0.003857 140 141 144
-0.043525 0.061348 0.012043 148 149 153
0.045528 -0.067756 -0.010157 163 137 0
-0.074693 -0.043076 -0.034457 18 20 23
-0.159425 -0.106180 0.057943 101 109 110
-0.074173 -0.034311 -0.032657 197 198 198
0.057165 -0.042895 -0.030457 171 144 1
0.064335 -0.019706 -0.030457 135 125 84
0.010616 0.037973 0.029043 153 155 142
0.060136 0.001864 -0.022757 167 166 160
0.190844 0.068586 0.062643 72 69 64
-0.044588 -0.070865 0.034243 99 106 75
-0.095299 0.030670 -0.025757 163 162 167
-0.010764 0.043295 0.020543 155 155 155
0.056318 -0.001661 -0.015357 162 140 0
0.047608 0.027457 0.014443 165 139 0
0.007103 0.076552 0.033343 83 82 78
-0.008764 -0.005838 -0.110657 79 83 82
0.057155 -0.014150 -0.021357 169 144 0
-0.022855 -0.048674 0.046843 138 138 125
0.086573 -0.021457 -0.020357 128 105 53
0.130625 0.013623 0.015743 104 85 51
0.054182 0.011202 -0.005257 161 137 1
0.033714 -0.030391 0.028143 173 151 5
0.050743 0.021929 0.005243 165 139 1
0.045444 -0.067497 -0.009957 163 137 0
0.059802 0.001362 -0.022757 167 166 163
0.026114 -0.061345 0.033843 174 153 0
0.163023 0.073460 0.050443 79 74 68
0.032021 0.046019 0.042643 156 146 116
0.041425 -0.051749 0.001643 163 140 0
-0.072572 -0.013936 -0.019957 112 116 119
0.048787 -0.003057 0.001843 160 137 0
0.038915 0.057738 0.047143 138 123 3
-0.023322 -0.063698 0.052043 107 114 86
-0.016052 -0.028571 0.048643 134 137 128
-0.083032 0.042663 -0.015157 158 159 163
0.011211 0.070921 0.041743 80 79 75
-0.095316 0.043422 -0.021057 156 155 160
0.009356 0.021340 0.021743 158 160 147
0.058742 -0.010227 -0.024957 161 144 6
-0.021291 -0.019391 0.023743 68 73 39
-0.062291 0.049767 -0.001957 159 160 164
-0.099610 -0.042931 -0.033857 19 21 20
0.039883 -0.069345 0.001043 160 138 1
0.040750 -0.052548 0.002543 163 140 0
0.056251 -0.026988 -0.022357 172 146 1
0.054847 0.082291 0.017043 66 64 59
-0.054510 -0.015326 -0.019857 3 3 3
-0.052674 0.020367 -0.009357 168 169 174
-0.002226 0.024434 0.016743 159 159 157
-0.112973 -0.002969 -0.016657 88 90 87
-0.034559 0.077137 0.023643 64 64 66
-0.002341 0.001686 0.005743 133 134 129
-0.010442 0.031289 0.015343 160 160 160
-0.101326 0.012725 -0.032657 171 171 169
-0.101803 0.028213 -0.030057 161 160 165
0.107440 0.004057 0.000043 117 94 48
0.083299 0.005366 -0.010857 127 104 52
-0.101055 0.022066 -0.032257 162 161 166
0.015912 -0.090351 0.045843 140 137 61
-0.097492 0.001728 -0.018257 80 57 32
-0.088929 0.035800 -0.020957 161 160 165
-0.006954 -0.027217 0.049843 130 134 119
0.041766 0.037313 0.033043 165 137 1
0.067717 -0.027475 -0.032157 133 112 55
0.099564 0.007575 -0.002157 120 96 51
-0.043713 -0.060871 0.034043 96 101 79
-0.008776 -0.005852 -0.110657 140 154 155
-0.046875 -0.023268 -0.020757 3 4 6
-0.051319 -0.048769 -0.013757 165 166 165
-0.061413 -0.043055 -0.020457 8 10 9
-0.058628 -0.001752 -0.013157 14 14 17
-0.082266 0.015087 -0.024757 166 166 168
-0.091566 -0.024913 -0.033457 14 14 16
0.058508 -0.028291 -0.029757 171 143 0
0.051612 -0.024187 -0.011157 167 142 0
0.030575 0.073715 0.040443 79 76 69
-0.081462 0.069106 -0.003857 145 146 150
-0.103410 0.040785 -0.026157 157 156 161
-0.097151 0.040879 -0.022957 158 157 162
-0.104753 0.046010 -0.024957 155 154 160
0.052912 -0.041562 -0.018557 169 142 0
0.058197 -0.010785 -0.023757 167 144 4
0.005715 0.018946 0.018443 160 161 152
0.039025 0.026015 0.033843 157 144 0
-0.065128 0.069686 0.005143 73 78 80
-0.008753 -0.005836 -0.110657 89 94 90
-0.102081 0.039552 -0.025757 159 158 163
-0.024498 0.082258 0.016643 79 79 79
-0.023666 -0.013169 0.022143 58 57 52
-0.059599 -0.045108 -0.018457 64 60 48
0.042699 0.056430 0.038943 149 124 0
-0.070461 -0.031059 -0.026157 84 87 92
0.055900 -0.009044 -0.016757 168 143 0
-0.008771 -0.005849 -0.110657 130 141 143
0.089440 0.031283 0.002843 125 101 53
-0.077759 0.012293 -0.024057 141 141 141
-0.024754 -0.073275 -0.004157 65 90 65
0.100733 0.063127 0.021743 114 90 52
-0.035632 -0.014074 0.016643 23 21 19
0.094220 -0.006592 -0.010757 126 102 55
0.028835 -0.052325 0.030643 169 149 3
0.073583 -0.019680 -0.025957 134 114 55
-0.054209 -0.006378 -0.014657 4 4 6
-0.069194 -0.013316 -0.009757 26 26 26
-0.057714 -0.015205 -0.019357 4 4 4
-0.042291 -0.056125 0.033843 93 97 80
-0.005663 -0.064580 0.053643 116 118 81
-0.067652 -0.002930 -0.015357 56 46 37
-0.010868 0.078249 0.027143 86 85 83
0.034285 -0.024721 0.029143 179 158 7
0.084805 -0.001367 -0.012857 132 106 52
-0.047416 -0.016502 -0.018657 2 3 5
0.058644 -0.000198 -0.020957 157 136 10
-0.105778 -0.001048 -0.017557 74 61 48
-0.001490 0.057277 0.031243 149 149 147
-0.061324 -0.048108 -0.015657 158 160 157
0.015910 -0.022495 0.035243 206 207 196
0.046513 0.033147 0.019143 164 138 0
0.041172 -0.010693 0.016843 164 143 2
0.121247 0.082387 0.025843 60 59 57
-0.141813 -0.080907 0.007543 85 95 94
0.073693 -0.036985 -0.029957 129 110 57
0.057312 0.021280 -0.010257 162 138 2
-0.037402 0.007997 -0.006757 155 156 158
0.017909 0.040914 0.034043 152 150 135
-0.028804 0.005709 -0.004157 147 147 151
0.058762 -0.015536 -0.026957 170 145 5
0.028721 -0.042794 0.035443 168 147 2
-0.008770 -0.005840 -0.110657 81 84 86
-0.087418 -0.016038 -0.026757 105 107 106
0.070732 -0.018273 -0.026757 132 110 50
0.106722 -0.011756 -0.006857 121 97 53
-0.024648 0.072495 0.026243 139 140 142
-0.100201 0.014305 -0.032857 169 169 169
0.050459 -0.004598 -0.002157 162 136 0
0.043333 -0.050690 -0.001957 163 140 0
0.217761 0.060134 0.077043 64 60 59
0.055756 -0.048145 -0.028557 172 146 1
-0.072884 0.068237 0.000643 148 149 153
0.041648 0.014988 0.024643 169 143 1
-0.079600 -0.032182 -0.036157 130 134 132
-0.049570 0.034154 -0.002257 161 162 166
0.048829 -0.049763 -0.012357 167 142 0
0.056833 -0.049537 -0.031957 172 144 1
0.016111 0.083374 0.015143 80 77 72
-0.099987 0.029115 -0.028657 162 161 166
-0.066643 0.060710 0.000443 153 154 158
0.057819 0.033910 -0.006157 156 131 2
0.055588 0.011170 -0.009057 163 135 0
-0.040038 -0.043992 -0.015557 29 53 53
0.018583 0.038194 0.033243 154 151 134
-0.069752 -0.022774 -0.021557 86 90 89
-0.018600 -0.079343 0.045843 125 131 85
-0.048677 -0.061839 -0.015657 166 173 161
0.080484 0.046256 0.004943 127 103 54
-0.017338 0.044847 0.018143 157 157 157
-0.097957 -0.038265 -0.035857 15 15 15
-0.031234 0.007734 -0.004157 152 152 152
-0.059830 -0.057790 -0.018357 167 173 170
-0.014658 0.031173 0.013343 162 162 162
-0.012039 0.006844 0.004343 168 168 168
-0.087819 0.018927 -0.026157 171 169 173
-0.062785 0.025986 -0.011657 167 168 172
-0.007431 0.005458 0.005843 166 166 164
-0.077644 -0.011651 -0.023157 24 25 29
-0.027660 -0.027066 0.025443 2 13 7
-0.092250 0.016363 -0.029657 152 151 156
0.015656 -0.058934 0.058543 135 127 50
-0.041361 -0.016398 -0.014857 4 5 7
0.061917 -0.038324 -0.040057 155 154 150
0.043699 -0.048377 -0.002057 162 139 0
-0.095627 -0.039493 -0.035657 17 18 20
0.056625 0.047405 0.001343 153 128 0
-0.100648 0.054056 -0.019657 151 152 157
-0.095351 0.021649 -0.029057 167 166 171
0.144085 0.083425 0.025843 47 46 44
0.162476 0.056018 0.053743 95 80 68
0.053963 -0.033680 -0.018557 170 144 0
0.299381 0.033947 0.141943 51 51 49
0.049391 -0.031003 -0.008057 164 138 0
-0.061283 0.013781 -0.016057 171 172 176
-0.111086 -0.077113 -0.001057 131 145 146
0.020534 0.062446 0.043543 142 140 127
0.012387 0.015060 0.020243 163 165 151
-0.090670 0.001238 -0.015357 78 55 29
0.040690 -0.034423 0.008643 165 142 2
-0.084982 0.019587 -0.024457 170 169 174
-0.054091 -0.044770 -0.019657 131 106 74
0.156646 0.084309 0.024443 44 40 39
-0.088373 0.015778 -0.027757 149 149 151
-0.100309 0.032066 -0.027657 162 161 166
0.098860 -0.005052 -0.007957 122 98 50
0.034618 -0.061249 0.013343 162 140 2
0.044164 -0.071783 -0.008357 159 135 0
0.080514 0.084406 0.016943 66 65 63
0.054436 0.059216 0.011543 145 119 0
-0.085792 0.011751 -0.028157 176 176 174
0.057907 0.059307 0.003543 139 114 2
-0.091370 0.016810 -0.029157 170 169 174
0.087321 0.037933 0.004443 127 103 58
0.025434 -0.061480 0.035643 174 153 0
0.059826 -0.030349 -0.035257 173 172 165
0.014351 0.059821 0.039543 147 148 140
0.046574 -0.038830 -0.004857 164 138 0
-0.000431 0.081074 0.022243 74 73 71
0.041518 -0.075974 -0.004057 156 134 0
0.047146 0.023297 0.013943 164 138 0
-0.011293 -0.060372 0.054143 114 117 86
0.003018 0.079297 0.027143 83 82 78
-0.075656 -0.027471 -0.036757 65 69 70
-0.042358 -0.091534 0.028443 239 248 216
-0.065325 0.011688 -0.018557 158 157 162
-0.041532 0.019052 -0.004257 165 166 170
-0.072536 0.009203 -0.022857 179 179 177
0.099908 -0.039834 -0.021257 115 98 55
-0.076167 -0.024679 -0.026657 86 91 93
0.085022 -0.008179 -0.015657 133 110 58
-0.056268 -0.012317 -0.018457 4 4 4
-0.082577 -0.043946 -0.036157 15 20 18
0.013443 -0.071924 0.054043 121 114 62
-0.028235 -0.060376 0.057043 103 108 86
0.054514 -0.001843 -0.010757 163 137 0
-0.129391 -0.020696 -0.009157 93 95 92
-0.097013 0.005358 -0.018757 95 84 80
-0.109903 -0.000727 -0.018157 71 72 68
-0.050790 0.077004 0.015643 143 144 148
0.051862 -0.005434 -0.005457 164 138 0
-0.087954 -0.031899 -0.036957 144 146 148
0.015912 -0.036732 0.051743 166 164 138
-0.047904 -0.018303 -0.019557 2 3 5
0.049948 0.074199 0.027843 112 93 0
-0.046256 0.025991 -0.004057 165 166 170
-0.069333 -0.021147 -0.020157 55 59 60
-0.070503 -0.010891 -0.024757 118 119 123
0.049142 -0.027618 -0.007457 164 138 0
0.058093 -0.035646 -0.030257 170 143 0
-0.077056 -0.011158 -0.023057 24 25 29
0.032566 -0.058003 0.018743 166 145 2
-0.127253 -0.011331 -0.010957 85 87 84
0.057067 -0.022114 -0.024157 173 147 2
0.126709 0.079030 0.032443 57 56 54
0.029230 -0.032801 0.038543 170 149 4
-0.067459 0.055968 -0.001957 154 155 159
0.051096 -0.057518 -0.019457 169 142 1
-0.193161 -0.110598 0.080643 77 81 80
-0.031297 0.031501 0.005543 155 156 158
0.017114 -0.031755 0.047743 172 173 142
-0.040465 0.055479 0.011043 148 149 151
-0.008775 -0.005845 -0.110657 99 107 109
-0.081847 -0.022898 -0.029057 116 120 121
-0.077005 0.048578 -0.009557 156 157 161
0.128234 0.042338 0.026343 97 78 45
-0.008759 -0.005839 -0.110657 86 93 90
0.012021 -0.029979 0.047943 183 188 163
-0.077918 -0.044481 -0.034257 15 20 18
0.103550 -0.015781 -0.010057 120 98 51
-0.086946 0.004149 -0.015257 88 78 76
-0.057295 -0.019552 -0.020457 4 4 4
0.085039 -0.036598 -0.025057 126 102 54
0.029586 -0.067825 0.022943 161 142 2
0.039975 -0.062084 0.002243 162 140 2
-0.071842 0.049345 -0.006657 157 158 162
0.053128 0.058668 0.014543 146 120 0
-0.076199 -0.038105 -0.034557 77 79 96
-0.062694 0.007572 -0.019157 180 180 178
0.055942 0.036810 -0.001257 160 133 0
0.142402 -0.007706 0.011843 90 79 56
-0.060590 0.063341 0.004843 153 154 158
0.034894 -0.016171 0.028543 189 187 167
-0.071460 0.074220 0.003443 146 147 151
-0.067101 -0.040013 -0.027057 121 125 129
-0.025660 -0.038758 0.039843 67 70 64
0.053240 -0.032524 -0.016457 169 142 0
-0.040614 0.067505 0.016243 146 147 149
0.186330 0.066840 0.067243 66 63 58
-0.015595 -0.091789 0.032843 253 255 244
0.075807 -0.052726 -0.034557 127 103 57
-0.035370 0.040000 0.006943 152 153 155
-0.003815 -0.013413 0.026543 184 186 175
-0.045406 -0.088336 0.041043 157 168 126
0.029073 -0.086686 0.012943 117 125 39
0.054370 -0.029101 -0.017957 171 145 0
-0.075541 0.048373 -0.008857 158 159 163
-0.059927 -0.023630 -0.020657 4 6 5
-0.017395 0.003855 0.000143 141 141 141
-0.042510 0.026676 -0.001757 163 164 168
0.050127 0.043273 0.014743 159 132 0
0.126108 -0.011009 0.002643 110 88 48
0.017386 -0.019769 0.035743 200 203 186
-0.084201 0.016942 -0.025157 170 169 174
0.040529 0.076415 0.035043 72 69 62
-0.090954 0.019217 -0.027857 170 169 174
0.058039 -0.008003 -0.022657 167 142 0
0.045307 0.037465 0.024143 160 134 0
-0.107494 0.053948 -0.024557 150 151 156
0.046887 -0.032543 -0.004257 164 138 0
0.058386 -0.026597 -0.029157 170 143 0
-0.068029 -0.009186 -0.022357 9 10 14
0.137855 0.078412 0.035143 48 47 45
0.023411 0.076677 0.034043 73 70 63
0.000985 0.046626 0.028043 153 153 151
-0.029884 -0.038201 0.033543 73 66 58
-0.038267 0.014783 -0.004357 168 169 174
0.044039 -0.069223 -0.007457 162 138 2
-0.041631 0.047156 0.006943 152 153 155
-0.041904 -0.031917 -0.022157 6 7 9
0.121331 0.079723 0.030443 62 61 59
0.035899 -0.013900 0.025943 186 185 166
0.008306 -0.077475 0.007443 80 103 66
-0.069915 0.008497 -0.022057 181 181 181
-0.092219 0.003746 -0.015657 63 53 47
0.027327 -0.011948 0.023043 191 189 161
-0.089386 0.025253 -0.024657 167 166 171
0.006115 -0.061351 0.056143 121 119 78
-0.192816 -0.087014 0.048043 78 80 79
-0.086239 0.026811 -0.022657 166 165 170
-0.012986 0.000295 0.000543 173 174 170
-0.088997 0.050709 -0.014757 154 153 158
0.138559 0.081477 0.030243 47 46 44
-0.140928 -0.086848 0.021243 95 103 103
0.127575 0.083853 0.024143 57 56 54
0.051616 0.004537 -0.001557 157 133 0
-0.074455 -0.029731 -0.037157 71 74 79
0.030985 0.037318 0.038743 158 153 124
-0.056954 0.021011 -0.011257 169 170 174
0.051891 -0.002421 -0.005057 162 136 0
0.050257 -0.052997 -0.016357 169 142 1
0.031798 -0.086032 0.011943 137 121 5
0.075074 -0.018407 -0.024757 129 107 50
-0.004423 0.009916 0.009443 163 163 161
0.052759 0.049876 0.011443 154 126 0
-0.039825 -0.035564 0.030143 36 37 37
0.047653 0.027959 0.014543 165 139 0
-0.000964 -0.067190 0.053943 117 118 79
0.098046 -0.040074 -0.021957 118 97 54
-0.191841 -0.102558 0.064743 74 78 77
0.050731 -0.009477 -0.004257 165 140 0
-0.072297 0.057504 -0.003557 152 153 157
0.055845 0.023294 -0.006457 164 138 1
-0.042847 -0.070947 0.035043 100 107 78
-0.073342 -0.002355 -0.019357 16 17 19
-0.056420 0.017537 -0.012357 169 170 174
0.055030 -0.049767 -0.027257 172 146 1
0.048130 -0.014686 0.000143 167 142 0
-0.067800 0.043372 -0.007157 162 163 167
-0.058641 0.068866 0.008043 151 152 157
0.049127 -0.058656 -0.015857 168 143 1
-0.065333 -0.006987 -0.009457 21 17 11
-0.026438 -0.085608 0.044143 146 155 108
-0.059257 -0.088964 0.036043 167 179 131
0.053484 -0.024518 -0.015257 171 144 1
0.058029 -0.026827 -0.028257 171 144 1
-0.070832 -0.041152 -0.030257 127 130 134
0.011779 -0.093090 0.043843 168 174 123
-0.057536 0.063112 0.005943 153 154 159
0.051166 0.061549 0.020143 144 118 0
0.057515 -0.044346 -0.031857 172 145 2
-0.059068 -0.072431 0.039643 92 97 75
0.046145 -0.051320 -0.007557 167 142 0
0.054402 -0.020943 -0.016057 171 144 1
0.097217 -0.008505 -0.010257 125 101 53
-0.034038 -0.072426 -0.009157 87 128 108
0.005702 -0.017914 0.030343 202 204 190
0.045615 -0.044755 -0.005157 163 139 0
-0.099761 0.054210 -0.019157 151 152 157
0.078712 -0.041118 -0.028557 129 106 56
0.022756 -0.067205 0.040143 187 163 2
-0.048298 0.039202 0.000543 157 158 162
-0.070910 -0.038374 -0.029557 92 93 97
0.059655 0.016612 -0.016257 165 163 160
-0.009030 -0.016991 0.025643 178 186 173
-0.101299 0.049402 -0.021857 153 154 158
-0.008778 -0.005845 -0.110657 102 107 110
0.002456 -0.082412 0.049143 135 140 86
0.041391 0.052055 0.040143 153 128 0
-0.032331 -0.011245 0.018443 23 23 21
-0.084954 -0.019134 -0.027357 102 107 106
-0.074194 -0.031861 -0.035857 130 131 144
0.083716 0.011565 -0.007857 128 104 56
0.121484 -0.008396 0.001443 112 90 51
-0.005339 -0.062600 0.054243 116 119 81
0.231863 0.052706 0.085643 59 58 56
0.048465 -0.062319 -0.015457 166 140 1
-0.083807 0.042461 -0.015557 158 159 163
-0.075465 -0.077263 0.002143 161 173 169
0.094587 -0.032478 -0.020257 121 97 55
0.078886 0.000351 -0.015057 132 108 54
0.059347 -0.019810 -0.029857 151 128 0
-0.079550 0.016384 -0.022857 170 171 175
-0.007306 0.032121 0.017343 159 159 157
-0.086151 0.056925 -0.010657 149 150 154
-0.040366 -0.002475 -0.006757 11 11 11
-0.054083 -0.050243 -0.013757 171 175 174
-0.094571 -0.016231 -0.031357 14 14 16
-0.059888 -0.087538 0.021143 215 231 194
0.056330 -0.022604 -0.021557 173 147 2
-0.008544 -0.000913 0.001943 174 176 165
0.038702 0.060379 0.048443 134 115 9
0.059783 -0.042735 -0.039057 150 130 25
-0.124036 -0.017706 -0.009957 94 96 93
0.101805 0.021198 0.004943 119 94 53
-0.049891 -0.058935 -0.015357 169 174 169
-0.047861 -0.020130 -0.020057 3 4 6
-0.072671 -0.022431 -0.023357 91 95 98
0.014541 0.039966 0.031943 152 152 140
-0.127269 -0.022709 -0.008657 93 95 92
0.061566 -0.006145 -0.026457 161 159 157
-0.036688 0.065053 0.017043 144 145 147
-0.017797 0.076957 0.028943 70 70 68
0.197050 0.064707 0.071343 70 67 62
0.074796 0.040558 -0.000257 131 108 59
-0.081015 0.041738 -0.014457 158 159 163
0.079921 0.022453 -0.005157 132 109 57
0.033164 -0.050507 0.019843 166 144 0
0.092318 0.003177 -0.007657 124 100 52
-0.021061 -0.082169 0.043143 135 145 95
0.058382 -0.003291 -0.021757 163 138 2
-0.084480 0.031007 -0.020157 164 163 168
0.005196 0.083459 0.015943 78 77 73
0.136943 0.035670 0.028443 100 80 48
-0.082363 0.064782 -0.005757 146 147 151
0.029230 0.053960 0.044343 146 140 117
-0.013133 -0.074821 -0.001057 84 123 92
0.017553 0.082800 0.019943 88 85 78
-0.035195 0.005331 -0.007657 179 181 178
-0.069097 0.045439 -0.006957 159 160 164
-0.089413 -0.031864 -0.036257 32 28 29
-0.049190 -0.049034 0.034943 67 70 61
-0.093805 0.045173 -0.019757 156 155 160
0.003270 0.005265 0.011043 165 166 161
-0.057495 -0.012843 -0.018457 4 4 4
0.043793 0.016468 0.019743 164 141 0
-0.040412 0.005489 -0.009757 177 179 178
0.053558 -0.014759 -0.012857 167 142 0
-0.045539 -0.023365 -0.020257 3 4 6
0.258830 0.040030 0.119443 53 53 48
0.056060 0.045503 0.001843 157 130 0
-0.098177 0.010750 -0.028457 159 160 154
-0.045497 -0.038928 0.026343 1 5 10
-0.097423 0.038102 -0.024157 159 158 163
-0.069545 -0.014951 -0.010757 42 42 42
-0.087319 -0.020923 -0.029657 115 117 116
0.045682 0.068713 0.036243 128 103 7
-0.096678 0.026856 -0.027657 165 164 169
-0.092447 0.063007 -0.011757 146 147 151
0.031271 -0.003110 0.020143 150 145 123
-0.083890 0.014289 -0.026057 152 152 154
-0.007521 0.081211 0.020543 80 79 77
-0.053124 -0.034649 -0.024557 7 7 7
0.021634 -0.009800 0.019343 191 187 155
-0.108840 0.006097 -0.022357 62 56 54
-0.033256 -0.060477 0.046343 93 98 75
0.052165 0.006555 -0.002057 158 134 0
-0.038727 -0.015952 -0.010257 17 16 15
-0.099626 -0.042496 -0.034457 18 20 19
0.026347 -0.024833 0.038343 194 188 160
-0.128466 -0.017861 -0.010257 91 93 90
-0.088188 0.038750 -0.019457 160 159 164
0.104423 -0.022079 -0.012457 119 96 52
-0.091879 0.004696 -0.016857 88 81 75
-0.034585 0.008383 -0.005357 141 142 143
-0.069547 -0.010263 -0.024257 11 12 16
0.016167 0.037797 0.031943 154 152 137
0.060662 0.044120 -0.005157 155 150 146
-0.052101 0.060854 0.007443 153 154 158
0.020921 0.015840 0.025143 166 165 145
0.063702 0.017296 -0.015657 128 117 72
0.017849 -0.076677 0.048543 194 170 4
-0.054813 0.010687 -0.014157 155 155 157
-0.089224 0.059565 -0.011557 148 149 153
-0.067721 0.025487 -0.014357 167 168 172
0.056620 -0.040316 -0.027857 170 143 0
-0.093835 0.033916 -0.023957 162 161 166
0.042554 -0.058800 -0.001857 166 143 3
-0.026838 -0.000640 -0.001357 183 186 169
0.012321 0.002449 0.013943 170 172 159
0.057371 0.057463 0.003743 145 119 0
0.039527 0.054899 0.045243 146 124 6
-0.070046 0.028672 -0.014157 166 167 171
0.091903 -0.018344 -0.016657 127 104 54
-0.064205 0.065979 0.004143 153 154 159
-0.060011 0.030475 -0.008557 167 169 172
0.142503 0.018428 0.023743 108 90 51
-0.082841 -0.026135 -0.035457 38 41 39
-0.039362 -0.000633 -0.005457 37 37 35
-0.069585 -0.030811 -0.025357 81 85 88
0.025566 -0.017775 0.038643 204 205 191
-0.164090 -0.093627 0.039243 81 85 84
0.078909 0.042078 0.002343 129 105 57
-0.084667 -0.035694 -0.037957 151 159 160
0.057465 -0.054331 -0.035657 168 141 0
0.147578 0.082048 0.029443 46 42 41
0.022044 0.015385 0.025543 166 165 145
-0.048035 -0.078761 0.036843 117 125 87
0.066302 -0.028231 -0.033157 133 113 60
0.029560 -0.049277 0.030343 165 146 0
-0.087745 0.056612 -0.011757 149 150 154
0.033551 0.016794 0.031143 171 166 136
0.052793 0.045226 0.009243 158 131 0
0.005222 -0.058719 0.056843 123 120 79
-0.005575 -0.023051 0.042643 149 158 141
-0.068202 0.024351 -0.015057 167 168 172
-0.093677 0.011501 -0.030057 178 178 176
0.080306 -0.022812 -0.023957 131 108 54
-0.071616 -0.039058 -0.031957 15 15 19
0.077559 -0.012637 -0.021157 135 113 56
0.009908 -0.094626 0.042943 182 174 143
-0.006484 -0.094499 0.040243 223 227 197
0.032026 -0.074709 0.015543 151 132 4
0.125050 0.084455 0.021643 55 54 52
0.144243 0.010155 0.020843 102 83 59
-0.081071 -0.024811 -0.034457 127 132 131
0.056740 0.066234 0.008543 134 109 2
0.140866 0.085074 0.019643 44 43 41
0.049709 0.080454 0.024843 71 68 63
0.058969 -0.043419 -0.036357 165 142 0
0.115872 0.000619 0.002543 110 89 49
-0.039290 -0.049287 0.033943 84 86 76
-0.076810 0.020364 -0.020057 168 169 173
-0.001636 0.040011 0.023343 156 156 154
0.073117 0.009004 -0.014357 134 112 55
0.054849 -0.049763 -0.026657 172 146 1
-0.088840 0.035583 -0.021057 163 162 167
-0.041947 -0.000894 -0.006757 27 28 30
-0.066489 0.025899 -0.013657 167 168 172
-0.087944 0.004897 -0.016657 115 105 103
0.095250 -0.000751 -0.007857 123 99 53
-0.055147 0.004336 -0.013457 163 163 163
-0.015972 0.028574 0.011643 164 164 164
-0.074197 -0.021363 -0.023757 101 103 107
0.004252 -0.075708 0.052643 119 121 73
0.022519 0.003838 0.019943 169 171 150
-0.092733 0.059943 -0.012957 148 149 153
0.053787 -0.035431 -0.018557 170 144 0
-0.087108 -0.008722 -0.026057 26 27 29
-0.094642 0.053334 -0.016957 151 152 156
-0.021027 0.032570 0.011043 163 164 161
0.013317 0.016239 0.021343 162 164 150
0.135885 0.082214 0.028443 51 50 48
0.046391 0.041942 0.023043 159 132 0
-0.096381 0.038406 -0.023557 160 159 164
-0.093302 -0.029983 -0.035057 16 14 17
0.112806 -0.024712 -0.009357 113 91 50
0.049002 -0.029014 -0.007357 164 138 0
0.049599 -0.047879 -0.013257 167 142 0
-0.008765 -0.005848 -0.110657 127 140 139
-0.132775 -0.081062 0.008143 95 105 104
-0.074128 0.012710 -0.022057 147 147 148
0.087192 0.047013 0.008643 124 100 57
-0.032767 0.016922 -0.000857 162 165 170
-0.042897 0.057123 0.010643 149 150 152
-0.076727 -0.008471 -0.018057 11 12 14
-0.188729 -0.106359 0.067943 76 80 79
0.080034 -0.047442 -0.034157 100 89 85
0.054979 -0.037268 -0.022257 171 145 0
-0.070468 0.011006 -0.021257 168 168 168
0.039448 -0.076776 0.000043 154 132 0
0.051162 -0.056880 -0.019357 169 142 1
0.055263 0.021973 -0.005457 164 138 1
0.023506 -0.059084 0.042343 178 155 0
