ply
format ascii 1.0
element vertex 1220
property float x
property float y
property float z
property uchar red
property uchar green
property uchar blue
end_header
-0.041298 -0.012286 0.003856 143 147 146
0.061063 -0.037701 0.023656 161 161 161
-0.062136 0.001341 0.003556 158 160 159
-0.064676 -0.008538 -0.002544 161 163 162
0.012788 0.020972 -0.016944 117 100 74
-0.034608 -0.021967 -0.004744 28 29 31
-0.028763 -0.014652 0.006456 154 155 157
0.073529 0.004029 0.007956 84 84 84
0.064978 -0.012732 -0.001244 128 128 128
-0.024995 -0.029849 -0.000944 163 164 166
-0.050627 -0.021363 -0.001144 158 159 158
-0.067296 -0.003435 -0.001544 163 165 164
-0.031602 -0.019541 -0.020944 42 43 45
-0.018094 -0.008250 0.012656 149 153 154
0.016613 -0.029016 0.014656 168 170 169
0.017908 0.021795 -0.019244 126 110 84
0.007620 0.017448 -0.009544 113 99 73
0.061716 -0.039488 0.023056 160 160 160
0.008064 0.017912 -0.010544 118 104 78
0.064880 -0.003932 0.011056 130 130 130
-0.048847 0.028284 -0.022544 129 131 124
-0.020040 0.027908 -0.007844 16 16 18
0.010486 0.022048 -0.019044 115 104 79
0.075971 -0.045901 0.019156 145 145 145
0.064920 -0.016088 -0.002444 126 127 126
0.063166 -0.017348 0.013856 135 135 135
-0.056912 0.004418 0.007856 145 147 146
0.072290 0.009664 0.004756 148 148 148
-0.045213 0.020342 0.009456 9 9 11
-0.034134 -0.005231 -0.019344 44 47 49
-0.007144 -0.018664 0.011056 164 168 169
0.004552 0.026189 -0.021944 108 108 106
0.056388 0.007448 0.005056 128 125 109
-0.059341 -0.024825 -0.005644 159 160 162
-0.056837 -0.009369 0.001356 160 162 161
-0.000367 0.010287 0.010156 90 90 88
0.040818 0.004691 0.011856 136 130 113
-0.032560 -0.018596 0.003256 129 130 132
-0.002896 -0.018262 0.012556 165 169 170
-0.003847 0.002153 -0.060644 31 32 32
-0.034548 0.037630 -0.001144 15 15 17
-0.009767 -0.032375 0.002656 171 173 172
0.023805 -0.001844 0.028656 168 170 169
-0.035678 -0.024452 -0.011044 32 33 35
0.026530 0.021696 -0.021644 59 62 46
-0.031501 -0.019623 0.003056 143 144 146
-0.064164 -0.018671 -0.006944 159 161 160
-0.035962 0.039348 -0.004044 31 31 33
-0.015197 -0.031809 0.000756 169 170 172
-0.007971 0.029212 -0.006644 6 6 8
-0.050362 0.028632 -0.002744 2 2 4
-0.040116 -0.012229 0.004156 136 140 139
0.029406 0.004890 0.017456 66 48 35
0.017998 0.021264 -0.018144 120 104 78
-0.047197 -0.031347 -0.005244 157 158 157
-0.005648 0.025514 -0.021344 19 19 19
-0.007433 -0.023412 0.008756 166 170 171
-0.010461 -0.008818 0.014656 150 154 153
0.062791 -0.025150 0.012356 137 137 137
0.039944 -0.027418 0.024056 162 164 163
0.006256 0.022860 -0.018844 100 92 73
0.074805 0.010651 0.003756 138 138 137
-0.053652 0.017058 0.001356 44 44 45
-0.054875 0.023020 -0.010644 136 137 132
0.030176 -0.029982 0.020356 165 167 166
0.017982 0.021439 -0.018644 125 109 83
0.065099 -0.009101 0.006856 127 127 127
-0.026800 -0.008316 0.010256 149 153 154
-0.001498 -0.033571 0.004856 172 173 175
-0.070648 0.002420 -0.000344 157 159 158
-0.041346 0.004634 0.014256 130 134 133
0.000445 -0.029298 0.008056 170 172 171
0.064413 -0.019957 -0.000344 68 68 70
0.060225 0.002538 0.022156 147 149 150
0.054133 -0.010707 0.018356 71 71 68
0.008909 0.024676 -0.024044 90 77 60
0.030831 0.021378 -0.020444 118 106 80
0.075329 -0.002475 0.011756 95 95 95
-0.025550 0.034665 -0.009544 92 92 90
-0.070783 0.000493 -0.001244 159 161 160
0.008153 -0.037740 0.005156 171 173 172
0.019309 0.010246 0.003456 138 128 97
0.005109 -0.002724 0.018056 153 155 154
-0.064617 0.005387 0.003856 145 147 146
0.004726 0.010402 0.008856 155 158 155
0.063686 -0.012548 0.017756 121 121 121
0.023627 -0.016903 0.022456 165 167 166
0.025494 0.006223 0.014656 148 148 143
-0.033204 -0.027040 -0.001344 151 152 154
-0.015053 0.024341 -0.000644 64 63 64
-0.003612 -0.029079 0.006456 170 171 173
0.018353 0.014005 -0.003144 131 117 89
-0.038262 -0.031561 -0.003444 161 163 162
-0.056231 -0.005634 0.003656 160 162 161
-0.056755 0.017806 -0.000744 64 54 43
-0.028216 0.026421 0.006356 22 22 23
0.035064 0.019975 -0.017344 125 108 83
-0.048255 0.026740 -0.016144 4 4 7
0.027831 0.023975 -0.022844 132 122 99
-0.017988 -0.027848 0.002256 166 167 169
-0.013507 -0.032029 0.001156 168 172 173
0.003844 -0.031521 0.008056 170 173 171
-0.026234 -0.000903 0.013756 128 132 133
-0.011978 -0.028411 0.003956 166 170 171
-0.010617 0.016324 0.005056 31 31 31
-0.003856 0.025883 -0.014344 48 46 41
-0.012363 -0.031080 0.002256 168 172 173
0.065931 -0.043847 0.021456 147 147 147
-0.053320 -0.005439 0.005156 156 160 159
-0.024506 0.023032 -0.006944 10 10 12
-0.063059 -0.030185 -0.009744 154 156 155
-0.027383 -0.003877 0.012056 146 150 151
-0.050133 0.032336 0.000756 1 1 3
0.001375 -0.032577 0.006556 171 173 172
-0.017471 -0.025136 0.004356 164 165 167
0.039664 -0.047021 0.016156 162 162 162
-0.011762 -0.036406 -0.001344 174 175 178
0.063524 0.002522 0.019156 151 151 151
0.014150 0.023759 -0.022844 102 86 61
-0.065470 -0.004481 -0.001244 163 165 164
0.035795 -0.002308 0.031256 142 142 132
0.021962 0.017534 -0.011144 95 89 62
0.016628 -0.032514 0.012656 168 170 169
0.075935 0.001933 0.011556 89 86 88
0.009409 0.022096 -0.018944 113 98 75
0.009135 0.023752 -0.022344 68 53 42
-0.003940 0.002126 -0.060644 124 119 117
-0.000301 -0.001664 0.021056 151 153 152
0.004996 -0.028554 0.009956 170 171 173
-0.061269 0.001090 0.003956 159 161 160
-0.004145 0.026139 -0.022144 15 16 15
0.031429 0.014734 -0.013844 59 92 57
-0.048439 -0.029308 -0.004744 156 158 157
0.005454 0.025873 -0.021244 108 108 106
0.014465 -0.025798 0.015256 168 170 169
-0.019498 0.027601 -0.023644 17 17 19
-0.049992 0.025110 -0.017144 129 131 128
0.036471 -0.017862 0.026656 160 162 161
0.062546 -0.022911 0.015256 137 137 137
0.031899 0.021846 -0.021044 136 120 94
0.007275 0.016624 -0.007944 115 102 76
0.025578 -0.042100 0.010356 167 169 168
-0.034745 -0.019231 0.002256 124 126 125
0.017097 -0.040887 0.006956 168 170 169
-0.056654 0.002978 0.007356 146 148 147
-0.015896 0.012836 0.012856 8 9 13
0.030127 0.016127 -0.013044 36 70 39
-0.034488 -0.024426 -0.014544 30 31 33
-0.062847 -0.003660 0.000856 162 164 163
0.017887 0.015105 -0.005444 117 105 78
0.029575 0.022492 -0.022244 122 114 88
-0.017280 0.027087 -0.023144 17 17 19
0.014807 0.016180 -0.007344 125 109 83
0.039644 -0.031485 0.022556 162 164 163
-0.009828 0.025943 -0.003644 12 12 10
0.064260 -0.010292 0.011556 130 130 130
0.065581 -0.008034 0.007456 103 103 103
-0.051643 0.025960 0.006856 3 3 5
0.026146 0.019731 -0.022044 57 72 51
0.010154 0.023683 -0.021944 112 97 77
-0.042495 -0.006584 0.007256 143 142 147
-0.048113 0.008854 0.013656 153 155 154
-0.057593 -0.033294 -0.006144 158 158 158
-0.050746 0.030546 0.009956 2 2 4
-0.023896 -0.007669 0.011456 146 150 151
0.062932 -0.023932 0.012056 139 139 139
0.013753 0.025085 -0.025244 105 92 73
-0.031126 0.040290 -0.004244 36 43 43
0.068544 0.050917 0.008556 145 144 149
-0.060795 -0.029256 -0.006844 155 156 158
0.026374 0.017469 -0.019844 42 57 37
-0.029615 0.019506 0.010956 5 5 7
0.054482 0.009528 0.000556 126 108 91
0.032016 -0.044430 0.012756 163 165 164
0.002516 0.014941 -0.003844 118 107 85
0.015095 0.018956 -0.013244 118 103 74
0.041092 -0.046141 0.016856 162 162 162
0.047995 -0.040979 0.020756 162 162 162
-0.061220 -0.021796 -0.006344 158 160 159
0.023781 0.016550 -0.015144 29 43 28
-0.045764 0.001658 0.011556 148 150 149
0.090588 -0.037255 0.018556 138 138 138
0.058985 -0.046075 0.019956 156 156 156
-0.050509 0.024057 -0.014844 140 140 138
0.065141 -0.020630 -0.002444 63 63 65
-0.003949 0.002142 -0.060644 73 65 57
-0.055293 -0.008715 0.002356 160 162 161
-0.057682 -0.020123 -0.003744 159 161 160
-0.032750 -0.008168 0.008356 119 120 122
-0.053413 -0.027115 -0.004044 158 158 158
0.048311 0.005212 0.011156 127 111 82
0.021668 0.012310 -0.006344 40 53 35
-0.062586 0.020606 -0.005644 172 171 170
0.000858 -0.021433 0.012456 168 172 171
-0.049375 0.023854 -0.011344 3 5 3
-0.054625 0.011836 0.011656 152 154 153
0.044486 0.015503 -0.009544 123 107 82
0.050626 -0.016657 0.026456 84 87 85
-0.027892 -0.011188 0.008356 152 153 155
-0.011349 0.027213 -0.006744 3 3 5
-0.030412 0.000453 0.004856 16 17 21
-0.065920 -0.019004 -0.008644 157 159 157
-0.003949 0.002167 -0.060644 122 122 120
-0.013582 0.026558 -0.021944 17 17 19
-0.052273 -0.009423 0.002956 157 161 160
0.065621 -0.009765 -0.001944 136 136 136
-0.006802 -0.032184 0.003656 171 172 174
0.038487 0.021914 -0.020444 137 122 101
0.019488 0.008217 0.011156 163 164 160
-0.051514 0.026524 0.005256 1 1 1
-0.003669 0.021209 -0.011144 6 6 8
0.075258 -0.045869 0.019356 146 146 146
-0.014050 -0.023513 0.006256 162 166 167
0.027812 -0.034229 0.017556 166 168 167
0.005599 -0.037752 0.003956 171 172 175
0.017234 0.017020 -0.009344 127 116 86
-0.013189 0.026525 -0.022344 17 17 19
0.002046 0.026263 -0.021944 111 111 109
0.018481 0.014738 -0.004744 122 111 83
-0.035472 -0.008635 0.007156 103 104 109
0.049673 0.002065 0.022156 144 144 144
-0.030766 0.010985 0.014956 142 143 142
-0.032506 0.017064 0.010356 13 15 17
0.028585 0.008913 0.000256 57 94 56
-0.071543 0.004856 0.000256 149 151 150
-0.044505 0.027065 0.012756 6 6 7
0.011218 0.013359 -0.001944 131 120 92
-0.068878 -0.004005 -0.002544 161 163 162
-0.008888 -0.018412 0.010656 162 166 167
-0.051726 0.025421 0.007156 3 3 5
-0.003937 0.025636 -0.017244 34 36 29
0.049519 -0.010817 0.020956 47 46 41
0.001525 -0.034666 0.005256 171 172 174
-0.014321 0.027535 -0.024244 16 15 20
0.003141 0.027185 -0.023944 111 111 109
0.001742 -0.033239 0.006356 171 172 174
-0.051173 0.019607 0.005656 3 4 6
0.024912 0.018631 -0.020044 41 56 37
0.003544 0.020039 -0.013244 92 85 74
0.022115 -0.039986 0.009756 167 169 168
0.009632 0.020180 -0.014944 112 96 70
0.057569 0.013117 -0.006944 121 104 86
0.034858 0.008262 -0.000444 63 96 61
-0.035969 0.032164 0.009656 21 22 24
-0.032380 -0.020952 0.002056 139 140 142
0.063353 -0.017960 0.001656 133 133 133
0.078111 -0.001476 0.011056 69 68 64
-0.062793 -0.028085 -0.008344 155 157 156
0.045376 -0.006297 0.032856 114 116 115
0.011138 0.019648 -0.014044 116 100 74
0.002442 -0.029875 0.008456 170 173 170
0.012023 -0.031889 0.010756 168 170 169
-0.003941 0.002123 -0.060644 145 147 146
0.042845 0.019808 -0.018144 129 111 89
0.033673 -0.032251 0.020256 164 166 165
-0.041671 -0.025392 -0.004044 148 153 154
-0.025354 0.034815 -0.008844 70 71 66
-0.054524 -0.013298 0.000556 159 161 160
0.056222 0.012527 -0.005744 122 105 86
0.074412 0.001793 0.012056 83 83 85
0.071446 0.011363 0.004456 142 142 142
-0.033111 0.006897 0.011856 44 45 47
-0.003726 0.002156 -0.060644 145 143 144
-0.003844 0.002160 -0.060644 15 15 15
0.026771 0.003704 0.017556 72 54 40
-0.008315 0.001454 0.019856 154 158 157
0.060258 -0.017356 0.025156 76 76 76
0.018398 0.022841 -0.021444 119 99 72
0.044028 -0.004860 0.032656 119 119 118
0.060566 -0.021556 0.028056 111 111 111
-0.056809 -0.019080 -0.003044 159 161 160
-0.041361 0.014655 0.006156 14 14 15
-0.022918 -0.030930 -0.001044 165 166 168
0.065679 -0.005948 0.008456 108 108 108
-0.035452 0.002325 0.005756 15 16 22
-0.030218 -0.002602 -0.018944 21 20 25
0.016968 -0.008358 0.023656 159 161 160
0.006814 0.025016 -0.020644 109 103 91
-0.057939 0.013658 0.009356 144 142 138
-0.009761 0.027674 -0.024144 36 36 37
-0.051098 -0.030904 -0.004744 158 158 158
-0.007880 -0.037169 -0.000344 174 177 176
0.058887 -0.028821 0.026656 155 155 155
0.078820 -0.002197 0.009456 77 74 69
-0.064520 -0.031676 -0.009244 153 155 154
0.035734 0.010538 -0.003644 52 92 55
0.027645 -0.040880 0.012656 165 167 166
0.065768 -0.012774 -0.002844 136 136 136
-0.033642 0.036294 0.002456 39 40 42
-0.021296 0.026984 -0.003744 78 80 79
0.040213 0.005933 0.009356 91 83 66
0.064461 -0.010573 0.010056 134 134 134
-0.004164 -0.010318 0.015956 150 155 154
-0.017530 -0.011726 0.011156 156 157 160
0.038792 0.018424 -0.014744 122 111 90
-0.062139 0.015492 0.004656 81 73 56
-0.001414 -0.022892 0.011056 166 170 171
-0.015831 0.028557 -0.007344 14 14 14
-0.053951 -0.007333 0.003556 159 161 160
0.072732 -0.041508 0.022056 151 151 151
0.054614 -0.031594 0.025256 157 157 157
-0.033239 -0.022853 0.000856 134 135 137
0.029174 0.012748 -0.006744 48 88 51
-0.033973 0.015407 0.008756 11 12 14
0.021515 0.003235 0.016056 65 43 32
-0.048993 0.022814 0.010156 3 3 5
0.053542 -0.028219 0.026356 156 156 156
-0.054431 -0.021152 -0.002244 160 160 160
0.052864 0.032831 -0.003544 151 146 141
-0.056087 0.014934 0.006956 144 144 142
0.023806 0.016259 -0.015244 33 46 32
-0.042584 0.024490 0.012556 9 8 15
0.067725 -0.005971 0.008656 100 100 100
-0.061063 0.007434 0.006456 121 116 110
0.014342 -0.000398 0.025656 173 174 171
0.022154 0.024762 -0.024244 135 120 99
-0.053629 -0.033140 -0.005244 157 160 158
-0.043032 0.033910 0.005756 16 16 18
0.062315 -0.028934 0.015156 141 141 141
0.067340 -0.008635 0.007156 82 82 82
-0.003240 0.012856 0.005256 153 157 156
0.007567 0.025999 -0.022944 86 83 74
0.073293 -0.036923 0.024056 150 150 150
0.025871 -0.014427 0.024356 165 167 166
0.051162 -0.040151 0.021556 163 163 163
-0.031393 -0.014350 -0.021244 26 24 30
0.014335 0.023425 -0.022144 105 89 64
-0.040659 0.038874 -0.003944 35 35 37
0.017781 -0.000603 0.026956 165 167 166
-0.008747 0.026639 -0.022844 18 18 20
-0.035634 -0.033238 -0.004244 165 167 166
0.052064 0.009738 -0.000544 84 75 72
-0.066775 0.010311 0.004956 128 128 115
-0.003949 0.002132 -0.060644 141 139 135
0.025256 0.019595 -0.020844 38 53 34
0.025313 -0.028481 0.018856 166 168 167
-0.040839 0.035664 0.002856 25 25 27
-0.042694 0.040078 -0.005944 18 18 20
-0.040201 -0.016981 0.001556 138 142 143
0.032800 0.005294 0.009956 82 94 70
0.001207 0.016401 -0.002744 126 119 104
0.033885 -0.035994 0.018756 164 166 165
0.033677 -0.017043 0.025956 162 164 163
-0.003947 0.002159 -0.060644 101 95 92
-0.004265 0.005372 0.008756 33 33 33
-0.029718 -0.021983 0.002256 148 150 148
-0.046163 0.007604 0.013956 156 158 157
-0.022215 0.020001 0.011856 4 5 8
0.070094 -0.004617 0.009656 94 94 94
0.024082 -0.002683 0.028456 164 166 165
-0.056255 -0.003029 0.004756 160 162 161
-0.021711 -0.029563 0.000256 165 166 168
-0.030761 -0.008973 -0.020044 21 20 25
-0.008974 -0.026526 0.006456 168 169 171
0.022877 0.017396 -0.013044 47 51 31
-0.027496 0.021025 0.011556 5 6 8
0.001898 -0.027437 0.009856 169 172 169
-0.016865 -0.018014 0.008356 159 160 162
-0.027592 -0.014855 0.006756 157 158 160
-0.062089 0.011475 0.007056 135 131 118
-0.046658 0.005146 0.012856 150 152 151
-0.013996 0.022688 0.000556 18 16 0
-0.066862 -0.004526 -0.001844 164 166 165
-0.008342 -0.026696 0.006556 167 171 173
-0.005998 0.014404 0.001656 46 48 47
0.050087 0.017430 -0.014044 113 98 79
0.011680 0.024029 -0.023244 100 85 65
0.035897 -0.016743 0.026856 160 162 161
-0.011243 0.004522 0.020056 173 173 173
0.078109 0.047048 0.011656 141 141 143
-0.003763 0.002173 -0.060644 150 150 150
-0.021772 -0.017636 0.007056 158 159 161
-0.000203 0.019565 -0.008744 123 123 121
-0.002526 0.009861 0.009956 104 103 97
-0.015158 -0.018933 0.008356 159 163 164
-0.003872 0.002169 -0.060644 56 57 52
0.030428 0.004901 0.017756 61 41 31
-0.051870 0.024200 0.005056 2 3 5
0.035899 -0.031625 0.021356 163 165 164
0.015483 -0.025437 0.015856 167 169 168
-0.056340 -0.029826 -0.006044 157 159 158
0.006934 0.020267 -0.014944 105 90 67
-0.031318 -0.005270 -0.021244 39 38 43
0.059325 0.001092 0.024556 138 139 141
0.059150 -0.014092 0.023456 118 118 116
-0.004488 0.013148 0.004756 152 154 153
0.002137 0.026038 -0.021344 112 112 110
0.011752 0.024029 -0.023244 100 85 65
-0.047497 0.032118 -0.014244 21 15 9
0.046936 -0.042297 0.020056 163 163 163
0.056303 -0.038055 0.023056 162 162 162
-0.019428 -0.024885 0.003756 162 163 165
0.001211 0.021338 -0.012244 115 115 113
-0.015142 -0.032341 0.000456 170 172 170
-0.042691 -0.010246 0.004756 151 154 151
0.047750 -0.006376 0.026356 52 52 50
-0.059684 0.020101 -0.003244 64 55 45
0.008122 0.019826 -0.014044 115 101 75
-0.040055 -0.032609 -0.004044 160 162 161
-0.027594 -0.031479 -0.002644 165 166 168
0.002067 0.023767 -0.016844 126 125 123
0.053542 0.034260 -0.007644 144 143 149
0.001360 -0.014500 0.015756 164 168 169
-0.027948 -0.021767 0.002956 154 155 158
-0.017375 -0.016467 0.008956 159 163 164
0.026553 -0.024346 0.020556 165 167 166
0.053558 -0.008473 0.019656 56 54 54
-0.039722 -0.022053 -0.001944 146 150 149
0.050579 0.010242 -0.001044 78 80 81
-0.040037 -0.024232 -0.003044 152 153 152
0.025779 0.024183 -0.023344 137 124 102
0.040476 -0.000121 0.021456 155 156 138
-0.054791 -0.027391 -0.004544 157 159 158
0.014974 0.024866 -0.024844 109 94 71
-0.058805 0.005700 0.007456 147 149 148
0.024327 0.013862 -0.013044 44 57 41
-0.052304 0.023694 -0.013344 139 138 138
-0.040599 -0.011655 0.004356 142 144 143
-0.033718 -0.027103 -0.001444 151 152 154
0.052078 0.014656 -0.011344 83 70 64
0.038587 -0.030416 0.022656 163 165 164
-0.009792 -0.007894 0.015256 150 154 153
-0.032922 -0.024119 -0.017644 46 47 49
0.064950 0.001356 0.014256 133 133 133
-0.013175 0.015402 0.012356 7 8 12
0.011528 0.010973 0.002556 131 115 82
-0.053754 0.014543 0.008356 153 155 154
-0.053808 0.021576 -0.007844 142 144 141
0.022208 -0.029348 0.017256 167 169 168
0.065017 0.000382 0.013256 131 131 131
0.073820 0.013721 0.002456 137 137 137
0.072554 0.010013 0.004556 146 146 146
0.064676 -0.001244 0.015056 132 132 132
-0.036028 -0.010883 0.000156 20 21 25
0.086070 -0.034580 0.022756 143 143 143
0.001333 0.026783 -0.022844 109 111 106
0.025332 0.020202 -0.020844 41 55 38
-0.031925 -0.007248 -0.021444 42 43 47
0.034995 -0.024490 0.023456 163 165 164
-0.002592 0.027535 -0.023944 106 108 107
-0.017674 0.026788 -0.003944 76 76 76
-0.054707 -0.001486 0.006156 158 160 159
0.065089 -0.013159 -0.001344 127 127 127
-0.037117 0.033800 0.006056 23 23 25
-0.047991 0.031918 -0.010244 44 24 18
-0.066894 -0.007022 -0.003044 162 164 163
-0.042271 -0.021971 -0.002144 153 155 154
0.052909 0.013528 -0.010944 63 43 28
0.031660 -0.026426 0.021656 164 166 165
0.068647 -0.035901 0.024656 160 160 160
-0.025451 -0.009260 0.010256 149 150 152
0.063420 -0.018176 0.005456 135 135 135
-0.034883 -0.024372 -0.013544 33 34 36
0.020878 0.022144 -0.020444 112 92 67
0.039896 -0.035497 0.020956 163 165 164
-0.058763 -0.002338 0.003756 160 162 161
0.008266 0.011470 0.001856 132 114 84
-0.029143 -0.003289 -0.017244 37 39 37
0.062431 -0.023266 0.015456 138 138 138
-0.010386 0.023895 -0.001544 9 8 6
0.014642 -0.038231 0.008356 168 170 169
-0.013781 0.024101 -0.000044 13 14 13
0.057680 -0.045331 0.020256 156 156 156
-0.028043 -0.020141 0.003856 156 158 157
-0.004252 0.020384 -0.008944 4 5 7
-0.049000 0.014294 0.009956 157 159 158
0.056450 -0.020137 0.028456 119 119 119
-0.055488 0.017306 0.000456 82 83 75
-0.000602 -0.033215 0.005356 172 173 175
0.048234 -0.046416 0.018756 161 161 161
0.044526 -0.002184 0.028656 96 98 90
-0.059640 -0.002310 0.003356 161 163 162
-0.054249 -0.018619 -0.001544 159 160 161
-0.007066 -0.008963 0.015656 150 154 153
0.009648 0.020680 -0.016044 110 94 69
-0.056733 -0.027284 -0.005744 158 160 159
0.011289 -0.022911 0.015256 169 171 170
-0.070889 0.001620 -0.000744 159 161 160
0.035269 0.022623 -0.021144 134 118 91
-0.052113 0.024328 -0.014644 130 132 129
0.061762 0.002836 0.020356 149 149 149
-0.015432 0.018666 0.010856 35 34 26
0.021713 0.010926 -0.003944 46 58 40
-0.016174 -0.033831 -0.000744 170 171 173
0.048892 0.009295 0.000556 87 84 85
0.072273 0.006566 0.004956 154 154 154
0.039406 -0.041513 0.018356 162 164 163
0.045095 0.016636 -0.011944 129 112 90
0.011639 -0.025537 0.014156 169 171 170
0.019607 0.000218 0.027556 159 164 163
0.038957 0.003765 0.013656 180 183 165
-0.010306 0.022536 -0.001244 17 12 1
0.013993 0.023065 -0.021444 118 103 80
-0.040740 -0.021687 -0.001744 151 153 152
-0.001361 -0.019266 0.012656 166 170 169
0.012312 0.026067 -0.026444 107 96 78
-0.003943 0.002118 -0.060644 144 146 145
-0.042898 0.007541 0.015056 143 147 146
-0.029211 -0.004368 0.011356 142 141 144
-0.065234 -0.007968 -0.002644 161 163 162
-0.000987 0.021809 -0.013544 45 45 46
0.026447 -0.029468 0.019056 166 168 167
-0.048359 0.015658 0.004856 15 15 15
0.049507 -0.005292 0.021656 56 54 55
-0.040084 0.036893 0.000756 34 34 36
0.066064 0.003694 0.010456 131 131 129
-0.050223 0.025951 -0.018444 135 134 132
0.021220 0.013745 -0.003344 110 105 83
-0.008887 0.022400 -0.000644 9 4 0
-0.064173 0.015503 0.001256 99 95 87
-0.051126 0.021933 -0.003944 2 2 4
0.057330 -0.019580 0.028256 118 119 119
0.041470 0.005084 0.011356 134 121 101
0.019550 0.024147 -0.023644 122 107 81
-0.039423 0.031221 0.010956 15 16 18
-0.010420 0.027811 -0.024344 38 38 40
0.060945 -0.023109 0.025856 106 106 106
-0.031701 -0.011280 -0.021444 21 22 25
-0.021140 -0.005512 0.013156 145 149 150
-0.008097 0.025842 -0.021544 19 19 22
0.035991 -0.043448 0.015556 165 165 165
-0.050099 0.032660 0.001656 1 1 3
-0.024334 -0.018773 0.005756 157 158 160
-0.053251 0.002335 0.008756 150 152 151
0.004315 -0.026439 0.011056 169 172 169
0.059225 -0.037654 0.023556 160 160 160
-0.007490 0.015003 0.002856 9 10 12
-0.049127 -0.033224 -0.004944 160 159 160
-0.027465 -0.027168 -0.000144 159 160 162
0.016546 0.023147 -0.021844 112 96 71
0.065931 -0.013299 -0.003344 137 135 138
0.049009 0.000946 0.023356 129 130 126
0.020208 0.021219 -0.018244 121 105 79
0.053208 0.032528 -0.009044 103 102 107
0.051863 0.016265 -0.011944 106 94 78
0.002874 0.017053 -0.007844 105 99 77
-0.026901 0.007861 0.017456 141 145 144
-0.067416 -0.008480 -0.004044 161 163 162
-0.003858 0.002156 -0.060644 15 15 17
0.046657 -0.008742 0.026756 61 61 62
-0.057193 -0.000317 0.005456 158 160 159
-0.035307 0.004789 0.007356 11 12 13
-0.039107 0.009116 0.014956 138 138 139
-0.033528 -0.014877 0.004856 122 125 122
-0.034233 -0.004588 0.009356 102 103 105
0.006489 0.002779 0.013956 44 29 30
-0.040661 -0.019051 0.000356 144 148 147
0.019810 0.023899 -0.023344 125 108 82
-0.050181 -0.028408 -0.004044 156 158 157
-0.017176 -0.035203 -0.002344 172 173 175
0.019097 0.021619 -0.018944 125 109 83
0.084539 0.039720 0.012656 140 140 140
0.003651 0.025589 -0.020444 114 114 112
0.066104 -0.047723 0.019156 151 151 151
0.019775 0.000050 0.027556 163 164 167
-0.018802 -0.027562 0.002156 165 166 168
-0.006502 -0.024129 0.008556 166 171 169
-0.048436 0.029717 0.011656 5 5 7
-0.062514 -0.021343 -0.007144 157 160 161
-0.029418 0.039437 -0.003744 41 43 43
-0.001060 -0.025615 0.009656 169 171 170
-0.004133 -0.025261 0.008756 168 172 173
-0.002413 -0.011501 0.016056 153 157 156
0.039628 0.000215 0.020456 174 175 158
0.010795 0.021588 -0.018144 116 99 73
-0.064601 0.010550 0.005856 90 87 65
0.087611 -0.046373 0.016056 134 134 134
-0.053954 -0.028298 -0.004644 158 160 159
-0.048570 0.032090 -0.006644 44 27 18
-0.001133 0.013007 0.004656 157 160 155
0.024149 0.016879 -0.016744 33 45 31
-0.054919 -0.013981 0.000056 159 161 160
0.007971 0.026353 -0.024144 79 72 60
-0.056958 0.026044 -0.014544 66 58 44
-0.005015 -0.012647 0.014456 157 161 162
-0.040203 -0.013342 0.003656 141 142 141
-0.047138 0.002757 0.011556 150 152 151
-0.032626 -0.021716 0.001556 134 135 137
-0.032292 0.033198 0.006956 38 40 39
-0.031137 -0.002567 -0.019944 24 23 28
0.043831 -0.019880 0.026756 131 133 132
-0.056675 -0.021070 -0.003544 159 161 160
-0.053661 0.015101 0.007156 164 166 165
0.016065 0.018621 -0.012644 114 99 70
0.032255 0.007649 0.003056 55 82 43
-0.008378 0.025734 -0.004144 19 17 17
0.045550 0.015772 -0.010344 126 110 87
-0.051159 -0.020608 -0.001044 155 159 158
-0.016393 0.027242 -0.023444 17 16 21
0.004011 0.022223 -0.015244 74 74 72
-0.032998 -0.017102 0.003956 122 124 123
-0.040069 -0.015788 0.002356 137 141 143
0.002527 0.025949 -0.021244 112 112 110
-0.034936 0.038770 -0.002744 31 31 32
-0.055276 -0.002943 0.005256 158 160 159
0.062812 -0.007971 0.024456 91 91 91
-0.057261 -0.011274 0.000356 160 162 161
0.019939 0.007171 0.013856 155 154 149
0.022862 -0.011386 0.024556 164 166 165
-0.006629 0.011274 0.008456 122 125 124
-0.031859 -0.018439 -0.021744 21 22 24
0.013541 0.020969 -0.017144 123 106 80
-0.046648 0.037674 -0.010244 11 0 0
-0.001781 0.021664 -0.013244 44 46 43
-0.054500 -0.030491 -0.005444 157 159 158
0.038350 -0.009015 0.030356 157 159 158
0.017501 -0.031192 0.013756 168 170 169
-0.015261 0.024065 -0.000144 58 57 58
0.065932 -0.040233 0.022956 154 154 154
0.005319 0.021272 -0.016444 44 34 26
-0.021981 -0.012845 0.009356 153 157 158
-0.024678 -0.003132 0.013256 141 145 146
0.002983 0.027326 -0.024044 111 111 109
0.063116 -0.021603 0.010056 137 137 137
0.000073 0.021454 -0.012644 106 106 104
0.052454 0.014281 -0.011344 54 33 20
0.038928 0.021320 -0.020244 131 115 90
-0.065242 0.012790 0.003356 73 61 46
0.039187 0.015094 -0.012844 48 72 39
0.031121 0.022387 -0.021744 135 121 95
-0.017479 0.027605 -0.024144 16 15 20
-0.031629 0.009117 0.016556 120 122 122
0.014928 0.025224 -0.025444 111 100 75
0.009028 0.003734 0.012256 47 31 23
0.081840 -0.047211 0.017856 140 140 140
-0.033714 -0.021166 -0.021644 47 51 50
-0.030926 -0.010334 -0.020144 24 22 25
0.021294 0.023039 -0.022044 114 97 70
-0.055186 -0.010903 0.001356 160 162 161
-0.034987 0.010655 0.009856 14 15 17
0.063269 -0.028179 0.013656 141 141 141
-0.034442 -0.018054 -0.002844 19 20 21
-0.052209 -0.000787 0.007656 155 157 156
-0.009380 0.026189 -0.021944 18 18 20
-0.007445 0.004084 0.020956 159 163 162
0.032769 -0.024269 0.022756 163 165 164
0.090357 -0.035930 0.019256 140 140 140
0.071681 -0.007422 0.008656 80 80 80
-0.003124 -0.006027 0.018156 151 155 154
0.007366 -0.030564 0.009656 169 169 172
0.052071 0.006464 0.007256 137 129 108
0.019238 -0.036719 0.011656 168 170 169
-0.044075 0.016286 0.006656 11 11 11
-0.028168 -0.024235 0.001356 148 150 149
-0.042929 0.038298 -0.003144 25 25 27
0.008647 0.001245 0.011656 67 47 38
-0.029933 -0.006556 -0.018244 32 32 34
0.012968 0.018344 -0.011544 122 106 80
0.014011 0.011600 0.001156 143 129 100
0.004767 0.026718 -0.022944 106 106 104
0.009437 0.021058 -0.016744 110 96 70
-0.030857 -0.010440 -0.019544 35 35 37
-0.021741 0.007821 0.018956 168 174 172
-0.019228 0.027455 -0.023444 20 19 19
0.000389 0.015408 -0.000244 136 132 118
-0.060877 -0.009077 -0.000844 161 163 162
-0.004770 0.023556 -0.012644 89 89 87
-0.021172 0.022727 0.009856 5 6 8
-0.015863 0.007599 0.020156 167 172 175
0.026208 0.015686 -0.016544 39 52 35
0.060999 -0.030863 0.025056 107 107 107
0.035465 0.017519 -0.012944 93 98 66
0.006407 -0.034658 0.006856 170 171 173
0.005987 0.021349 -0.016844 99 88 66
-0.032038 0.037749 -0.000944 18 19 20
-0.073181 0.004284 -0.002644 148 145 147
0.003740 0.025096 -0.019544 118 118 116
0.036361 -0.006785 0.030556 160 162 161
-0.052538 0.022983 -0.011844 143 143 141
0.028059 0.021722 -0.022744 81 92 65
-0.030973 -0.007058 -0.020644 22 21 26
-0.001152 0.022487 -0.014844 44 46 43
-0.023177 0.028583 -0.009644 16 16 16
-0.003947 0.002126 -0.060644 145 146 148
-0.003767 0.002172 -0.060644 147 147 145
-0.003938 0.002127 -0.060644 156 154 155
0.064641 -0.015362 -0.001144 126 126 126
0.015869 -0.038971 0.008056 168 170 169
0.003056 -0.009684 0.018556 155 159 158
0.036050 0.004327 0.018556 163 161 156
0.025455 -0.037558 0.014556 166 168 167
0.004075 -0.025736 0.011356 169 171 170
-0.017233 -0.019598 0.007556 159 160 162
0.063482 -0.019940 0.001556 69 70 72
0.048320 0.008418 0.002256 87 86 89
-0.015368 0.017492 0.013056 4 5 11
-0.043649 0.039221 -0.005044 15 16 18
-0.011381 -0.032048 0.002056 171 172 174
0.012984 0.022730 -0.020644 120 104 79
-0.048773 0.006811 0.012656 150 151 153
0.065263 0.006048 0.011456 148 148 145
0.050559 0.017778 -0.014844 109 92 74
0.067654 0.006866 0.007456 149 149 149
0.016661 -0.004945 0.025056 156 158 157
-0.003944 0.002128 -0.060644 144 145 140
-0.010203 0.027643 -0.017344 43 43 41
0.040093 0.019889 -0.018144 126 108 84
0.028119 0.023327 -0.022844 133 118 96
-0.011362 -0.021330 0.008456 163 167 168
0.063780 -0.005065 0.022656 117 116 117
-0.054404 -0.011182 0.001556 159 161 160
0.015254 0.018734 -0.012844 118 103 74
-0.012379 0.020389 0.000656 99 99 33
0.027513 -0.029473 0.019456 165 167 166
0.035287 -0.014675 0.027356 159 161 160
0.001762 -0.036711 0.003656 172 173 175
-0.026739 -0.000895 0.013556 130 134 135
-0.025328 0.019263 0.011656 6 5 10
-0.052042 -0.024544 -0.002844 159 159 159
-0.037148 0.037298 -0.000744 14 14 16
0.051811 -0.038992 0.022056 162 162 162
-0.065526 0.009859 0.005356 136 132 112
-0.038468 0.040146 -0.005544 39 39 41
0.007716 0.011764 0.001456 132 115 84
-0.029625 0.037070 -0.000744 26 26 24
-0.049453 0.018334 0.006656 7 7 9
0.023104 0.011240 -0.005944 49 62 45
-0.071171 0.005341 0.000656 148 150 149
0.040855 -0.027649 0.024256 162 164 163
0.030925 0.014795 -0.012944 52 91 50
0.018034 0.015927 -0.007144 122 106 80
-0.003602 0.007272 0.009456 59 59 57
0.058362 0.012025 -0.005044 119 106 92
0.029560 -0.028903 0.020356 165 167 166
0.086389 -0.037444 0.021456 142 142 142
0.078718 -0.004221 0.008256 76 75 70
-0.056109 -0.005634 0.003656 160 162 161
-0.012918 0.027251 -0.023744 16 15 21
-0.040890 0.013295 0.007156 59 63 57
-0.032895 -0.007047 -0.021344 40 47 47
-0.053702 -0.029880 -0.005044 157 159 158
0.028636 0.021650 -0.022744 77 92 57
-0.051729 0.024318 -0.014844 133 135 132
-0.039440 -0.011033 0.004956 132 137 138
0.032753 0.018207 -0.017444 60 60 33
0.036817 -0.030929 0.021956 163 165 164
-0.036219 -0.022498 -0.006844 21 22 25
-0.031005 -0.004040 -0.014044 55 57 56
-0.067231 -0.011516 -0.006944 157 159 158
0.056953 0.031753 -0.005744 119 117 118
-0.003739 0.002173 -0.060644 145 144 149
-0.011235 0.021244 -0.001044 95 93 33
-0.070668 -0.000950 -0.001744 160 162 161
-0.023974 0.020273 0.010756 8 10 13
0.014394 0.017656 -0.010444 124 109 80
-0.015447 0.028912 -0.007244 20 20 18
-0.014005 0.026465 -0.003944 57 58 58
0.020621 0.009231 0.005356 119 112 84
-0.046984 0.033601 -0.013744 32 18 11
0.032195 -0.013397 0.026756 163 165 164
0.024580 0.003247 0.016856 69 50 40
-0.052680 -0.022053 -0.001944 159 159 159
-0.048762 0.025311 -0.017844 40 40 38
-0.043581 0.033640 0.006256 17 17 19
0.035387 0.001762 0.019356 167 165 136
-0.003755 0.002170 -0.060644 149 149 149
-0.040973 -0.000413 0.011856 127 131 133
-0.002721 0.025315 -0.021044 21 21 23
-0.001762 -0.005777 0.018656 151 155 154
0.046871 -0.014207 0.024056 57 57 55
-0.065026 -0.008905 -0.002944 161 163 162
-0.031016 0.035528 0.003056 38 41 38
0.063082 -0.018468 0.009456 136 136 136
-0.032298 -0.017531 -0.022644 29 30 35
-0.015121 0.027441 -0.007344 10 10 12
0.060296 -0.015939 0.020256 76 76 76
0.031078 0.018846 -0.014544 95 91 70
-0.001246 -0.027817 0.008256 171 172 177
-0.068497 0.008777 0.002256 139 143 131
-0.041752 0.039002 -0.004244 30 29 31
0.007674 -0.035245 0.006756 170 172 171
0.031788 0.008144 0.007256 131 124 95
-0.061258 -0.007891 -0.000444 162 164 163
0.064189 -0.008746 0.015156 125 125 125
0.012740 0.021577 -0.018344 122 106 80
-0.045833 -0.004170 0.009156 151 154 151
-0.047438 0.013520 0.012756 153 155 154
-0.018081 -0.021913 0.006056 159 160 162
0.088562 -0.045166 0.015756 135 135 135
-0.031369 -0.009134 -0.020844 26 25 30
-0.002101 0.019852 -0.009344 45 47 43
0.000340 0.025963 -0.021344 43 43 43
0.050292 0.017374 -0.013944 112 97 78
0.051833 0.002065 0.021856 147 147 150
0.001602 -0.024603 0.011256 169 170 172
0.035642 0.020293 -0.018144 124 109 79
0.040589 -0.042695 0.018056 163 163 163
0.019174 0.020303 -0.016344 125 108 83
0.044142 0.016885 -0.012344 129 113 90
0.078957 0.001795 0.011556 77 76 72
-0.037807 0.038343 -0.002544 42 42 44
-0.033997 -0.003484 0.004256 16 15 20
-0.003843 0.002156 -0.060644 11 11 11
0.047978 0.019197 -0.017644 128 111 93
0.063792 -0.009237 0.019656 116 116 116
-0.050868 0.021544 -0.006244 5 5 5
-0.003747 0.002167 -0.060644 147 147 147
-0.057706 -0.033475 -0.006344 158 158 158
0.012226 0.017485 -0.009744 129 115 88
0.045408 -0.023068 0.025156 112 112 112
-0.003861 0.002155 -0.060644 57 57 60
-0.034616 0.037074 -0.000344 17 17 19
-0.008915 0.001608 0.019656 157 161 160
-0.049763 0.007493 0.012456 152 153 155
-0.003945 0.002147 -0.060644 79 71 53
-0.039405 -0.010360 0.005356 133 137 137
-0.001479 0.023864 -0.017644 10 10 11
-0.028146 0.012533 0.009856 18 18 21
0.027256 0.022209 -0.021944 100 95 76
0.089943 -0.041752 0.016656 136 136 136
-0.067185 0.011401 -0.000144 152 152 149
0.003602 0.020054 -0.013444 87 84 76
-0.001797 0.023883 -0.017444 7 8 10
-0.003934 0.002127 -0.060644 157 159 158
-0.064019 -0.009293 -0.002644 161 163 162
-0.001533 0.017951 -0.005044 131 132 131
-0.019133 0.017891 0.012956 11 12 16
-0.033795 -0.006006 0.008956 116 117 119
0.059322 -0.012378 0.018456 66 66 66
-0.011423 -0.009045 0.014256 150 154 156
-0.005658 0.027605 -0.024144 99 103 102
-0.041754 0.015942 0.006856 11 10 15
0.043037 0.012198 -0.001544 123 120 89
-0.018724 -0.019244 0.007256 159 160 162
0.020453 0.002657 0.016856 60 38 27
-0.013595 -0.016030 0.010356 159 163 164
0.008438 0.013135 -0.001344 133 122 94
-0.030339 -0.011293 0.007556 142 143 145
-0.003757 0.002171 -0.060644 148 148 148
0.005667 0.023914 -0.017544 110 110 102
-0.047867 0.029822 -0.013944 2 2 4
-0.057914 -0.002132 0.004356 159 161 160
-0.000748 0.026251 -0.021844 42 42 42
0.020672 -0.026494 0.017556 167 169 168
0.005135 0.027599 -0.024644 103 103 101
-0.027450 0.038554 -0.006044 41 42 36
-0.040515 -0.026760 -0.005144 150 154 155
-0.027689 -0.023536 0.001956 148 150 149
-0.034938 -0.019429 -0.004144 16 14 19
-0.048784 -0.032544 -0.004844 157 159 158
-0.034885 -0.012570 -0.000044 16 17 21
-0.049147 0.029701 0.011256 7 7 7
0.063436 -0.017808 0.004256 134 134 134
-0.004059 0.019434 -0.008244 30 29 29
-0.041891 -0.021901 -0.002044 154 156 155
0.032744 0.019360 -0.015944 96 88 64
-0.016560 0.018524 0.012656 5 7 9
-0.031394 -0.029878 -0.002544 159 160 162
-0.003846 0.002160 -0.060644 23 23 25
0.083741 -0.048251 0.017156 138 138 138
0.019089 -0.032371 0.013856 168 170 169
-0.048283 0.028552 0.011856 7 7 9
0.003690 -0.029622 0.009056 170 171 173
-0.054282 0.011987 0.011756 150 152 151
-0.034537 -0.017151 -0.002244 21 18 21
0.003653 0.025873 -0.021244 112 112 110
0.063693 -0.014936 0.002756 132 132 132
0.011584 0.011788 0.000856 142 128 99
-0.065291 0.011844 0.006056 117 109 95
0.028989 0.014005 -0.007544 24 58 26
0.042697 0.020419 -0.019144 127 109 87
-0.005058 0.021066 -0.008144 5 6 5
-0.041045 -0.012207 0.004056 141 145 144
0.017104 0.007313 0.013856 146 146 146
-0.072747 -0.001462 -0.002544 158 160 159
0.037657 0.014120 -0.010044 37 77 41
-0.029694 0.034832 0.001056 49 49 47
-0.024846 0.004121 0.016456 155 158 160
-0.020273 -0.031202 -0.000344 166 167 169
0.015951 0.008721 0.006556 136 135 120
0.039785 -0.022722 0.025656 160 162 161
-0.011109 0.008455 0.013956 50 50 52
0.039064 0.014529 -0.011844 43 70 39
0.068206 -0.029448 0.016056 142 142 142
-0.064937 0.013512 -0.000544 157 157 155
-0.011233 0.027883 -0.006844 5 5 7
0.008280 -0.005197 0.022356 154 156 155
-0.055982 -0.023606 -0.003944 158 160 159
0.072701 -0.045235 0.020356 149 149 149
0.021141 -0.022797 0.019056 166 168 167
-0.008112 0.011354 0.009056 51 52 51
0.074399 0.049412 0.010656 141 141 143
-0.000740 0.003505 0.007856 28 29 30
0.087861 -0.046030 0.015056 134 134 134
0.071869 0.012963 0.003656 141 141 141
-0.035730 -0.021433 -0.005744 16 17 21
-0.050679 0.000612 0.009056 152 154 153
0.022586 0.022714 -0.021544 119 103 77
0.032163 -0.024490 0.022456 163 165 164
-0.003945 0.002163 -0.060644 130 130 128
0.006683 0.015363 -0.005244 121 106 80
0.015536 -0.019600 0.018456 167 169 168
0.011722 0.024016 -0.023144 99 84 63
-0.060891 -0.018313 -0.004844 160 162 161
0.043812 0.015644 -0.009744 123 107 82
-0.017955 0.018524 0.012656 6 7 11
-0.045183 0.037888 -0.002744 12 13 15
-0.048206 0.004832 0.011956 150 153 152
0.022524 -0.028357 0.017756 167 169 168
-0.005400 -0.016565 0.012456 163 167 168
-0.047436 0.032733 -0.016544 3 1 4
0.051207 0.013677 -0.009444 50 35 28
-0.007458 -0.030504 0.004456 168 172 171
0.077215 -0.041298 0.021656 147 147 147
-0.012430 -0.028514 0.003656 166 170 171
-0.003464 -0.022548 0.010456 166 170 171
0.063965 0.005049 0.013956 148 148 148
-0.015716 -0.011428 0.011756 156 157 159
0.063590 -0.015471 0.001656 131 131 131
-0.011342 -0.010900 0.013456 152 156 154
-0.017393 -0.011726 0.011156 157 158 160
-0.034681 -0.010458 0.006556 119 120 122
0.053440 0.030926 -0.008744 92 91 96
0.016611 -0.037958 0.009256 168 170 169
-0.059423 0.018047 -0.001544 53 45 26
-0.067284 -0.012660 -0.007244 156 158 157
0.013491 -0.038389 0.007956 169 171 170
-0.027810 -0.008896 0.009656 150 155 156
0.052416 -0.043091 0.020656 160 160 160
-0.050984 0.027237 -0.000544 1 1 3
-0.048107 0.036434 -0.005944 7 4 0
0.034514 0.008491 -0.000444 57 98 58
0.053905 -0.028974 0.026156 155 155 155
-0.026304 -0.026876 0.000456 159 160 162
0.018377 0.023886 -0.023244 117 101 75
0.000501 -0.024020 0.011156 169 171 170
-0.021984 -0.013928 0.008856 157 161 162
0.003525 0.022919 -0.015044 101 101 99
0.051167 -0.025126 0.027056 157 159 158
-0.000354 -0.029162 0.007756 169 169 173
-0.068023 -0.009220 -0.004644 158 160 159
-0.012411 -0.034541 0.000056 171 175 176
0.032794 -0.040172 0.016456 164 166 165
-0.063968 -0.011736 -0.003944 159 161 160
0.026661 0.019437 -0.022044 50 66 43
0.045587 -0.017657 0.025756 75 75 73
0.030403 -0.038360 0.016356 165 167 166
0.052181 0.012114 -0.008444 77 60 45
0.004173 0.006092 0.012256 52 28 22
-0.006818 0.019929 -0.005144 48 48 44
-0.003765 0.002173 -0.060644 148 148 148
0.053315 0.041593 -0.002644 103 102 108
0.001680 0.020757 -0.011344 103 102 101
0.034221 -0.019916 0.024956 161 163 162
-0.059772 -0.030751 -0.006744 156 157 159
-0.039909 0.032126 0.009256 18 18 20
-0.055305 0.021686 -0.007544 140 141 135
0.027569 -0.035132 0.016956 166 168 167
-0.001044 -0.017296 0.013656 166 170 169
0.009672 -0.001645 0.024156 149 151 150
-0.001939 -0.020550 0.011856 166 170 169
0.047771 0.010886 -0.002044 83 83 83
-0.050350 -0.009159 0.002156 159 166 163
-0.045882 0.038110 -0.003444 12 12 14
-0.068948 0.005512 0.001656 149 151 150
-0.063479 -0.031218 -0.009044 154 156 155
0.078384 0.000557 0.011656 70 68 66
-0.016638 -0.004673 0.014756 150 154 155
-0.035874 0.025356 0.014456 12 13 17
0.054020 -0.003522 0.020956 54 54 52
-0.057813 0.024929 -0.012444 74 63 46
0.011610 0.022365 -0.019844 114 98 73
-0.058976 0.007831 0.008156 145 147 146
0.063544 -0.008405 0.022756 110 110 110
-0.049179 0.024058 -0.012744 26 30 30
-0.000445 -0.022860 0.011356 166 170 171
-0.057312 0.022607 -0.008544 117 113 102
0.064529 -0.014765 -0.000444 126 126 126
-0.068860 -0.005570 -0.003244 160 162 161
0.064601 -0.002659 0.014656 131 131 131
0.001351 0.024869 -0.019244 41 40 40
-0.027777 -0.006352 0.010756 145 152 152
0.048004 0.014694 -0.008044 115 97 79
-0.049049 0.023443 0.010456 6 6 8
-0.003934 0.002124 -0.060644 151 153 152
-0.048097 0.036075 -0.006844 13 3 0
0.076050 0.002608 0.009956 86 86 85
0.022810 0.013671 -0.011144 41 55 38
-0.008499 0.025625 -0.020644 19 19 19
-0.062985 0.015554 0.004356 103 89 73
0.036906 0.022578 -0.020644 133 123 97
-0.049715 0.030164 -0.004744 13 9 7
0.008836 0.025276 -0.024844 87 74 57
0.029916 -0.033533 0.018656 166 168 167
0.000621 0.011434 0.006756 155 156 152
0.074069 0.011141 0.003756 140 140 140
-0.022365 0.027641 -0.004444 39 39 39
-0.048998 0.027995 0.011456 7 7 9
0.053483 0.033039 -0.008344 124 123 128
-0.004753 0.016438 -0.002144 46 48 47
-0.023259 -0.027602 0.000756 162 163 165
0.047750 -0.009933 0.022356 54 54 56
0.041096 0.016429 -0.012944 102 92 64
0.003539 -0.032105 0.007656 171 172 174
-0.008040 0.002837 0.020456 159 163 162
-0.052982 -0.027762 -0.004044 157 157 157
-0.059769 -0.009839 -0.000444 161 163 162
0.064380 0.000880 0.017356 134 134 134
-0.032652 -0.016924 -0.022844 32 34 38
0.078510 -0.004408 0.008856 69 68 63
-0.021652 -0.029806 0.000056 165 166 168
-0.032635 -0.004055 0.009356 108 109 111
-0.039589 -0.015788 0.002356 135 137 136
-0.051714 0.023937 0.006956 4 3 5
0.056281 -0.018951 0.028456 103 103 103
-0.012844 -0.023447 0.006756 167 168 170
0.021093 -0.037179 0.012256 167 169 168
0.087631 -0.043386 0.017956 138 138 138
-0.023222 -0.013728 0.008556 155 159 160
0.044962 0.016177 -0.010944 130 114 91
0.076399 0.047958 0.011356 141 142 144
0.000231 0.005509 0.008856 87 86 82
0.043772 -0.007470 0.032156 155 157 156
0.023200 0.017886 -0.013744 48 49 36
-0.042582 0.031611 0.010256 13 13 15
0.015889 0.009652 0.004656 133 116 85
-0.031854 -0.019066 -0.021544 26 27 32
0.013581 -0.022279 0.016456 168 170 169
-0.001370 -0.010742 0.016756 154 158 157
-0.012292 -0.015996 0.010756 160 164 165
-0.026138 0.021018 0.012056 6 5 10
0.021972 0.012992 -0.008044 41 56 39
0.000213 0.026615 -0.022544 103 105 104
0.070593 0.004801 0.007656 89 89 87
-0.034778 0.039480 -0.003844 25 25 25
-0.043099 -0.018239 0.000356 153 155 152
-0.003636 0.027159 -0.023144 68 68 70
0.019429 -0.019245 0.019956 167 169 168
-0.061680 -0.027794 -0.007444 155 156 158
-0.000838 -0.005371 0.019156 151 156 155
0.043234 0.018214 -0.014844 132 114 94
0.039148 0.019010 -0.015744 130 115 92
-0.060960 -0.015881 -0.004144 159 161 160
0.036979 -0.024258 0.024256 164 166 165
0.024088 0.018158 -0.016444 35 45 31
-0.048145 0.028925 -0.022144 33 34 33
0.008159 0.014530 -0.003744 123 109 82
-0.061058 0.017939 -0.001944 68 62 48
0.042228 0.039917 -0.002844 146 146 146
0.036828 -0.046542 0.014956 163 163 163
-0.049625 0.025965 -0.018844 137 137 135
0.064380 -0.005499 0.015856 126 126 126
-0.065960 -0.018787 -0.008444 156 158 157
0.027502 0.018692 -0.021544 55 63 41
-0.046718 0.034653 -0.013644 16 4 3
0.032310 0.020728 -0.018444 118 103 77
-0.068625 0.011378 0.004556 89 83 68
0.019450 0.002510 0.016956 61 39 28
0.053093 0.030904 -0.008244 92 92 97
-0.008414 -0.030869 0.003956 171 173 174
-0.000807 0.013452 0.003656 153 149 139
-0.003842 0.002154 -0.060644 8 8 7
0.065470 -0.015419 -0.003544 131 131 132
0.016063 -0.020717 0.018156 168 170 169
0.015586 0.010839 0.002456 145 130 98
-0.035611 0.031642 0.010656 22 23 25
0.034646 0.007358 0.001056 63 100 61
0.002441 0.023041 -0.015344 124 124 122
0.002032 -0.012694 0.016956 159 163 162
0.004838 -0.005403 0.021156 153 155 154
-0.048166 0.030911 -0.018944 4 4 5
0.083310 0.052471 0.010956 124 123 128
-0.049798 0.032699 -0.001044 1 1 3
0.063218 -0.006828 0.024356 107 107 107
-0.047741 0.027231 -0.018044 6 6 8
0.016595 0.023478 -0.022444 111 95 69
0.039707 -0.019145 0.027156 156 158 157
-0.032304 -0.019273 -0.022244 24 25 27
-0.053296 -0.028673 -0.004544 158 158 158
-0.010856 0.017551 0.004956 25 28 20
0.058169 0.011883 -0.004644 118 105 87
0.049027 -0.010226 0.021156 41 39 40
-0.013552 0.027074 -0.007044 14 14 16
-0.000716 0.027092 -0.023244 108 110 109
0.012359 0.025222 -0.025344 105 90 72
-0.028293 0.010207 0.017156 150 155 154
0.013176 0.014507 -0.004344 130 116 89
-0.024299 -0.018106 0.006056 157 158 160
0.008875 0.022756 -0.020144 109 94 72
0.042371 0.018953 -0.016344 122 107 83
0.064499 -0.010018 0.009956 132 132 132
-0.033640 -0.003758 0.004556 21 21 25
-0.003936 0.002122 -0.060644 148 150 149
0.046607 0.015703 -0.010244 125 107 89
-0.001627 0.005895 0.008656 115 116 111
0.064206 -0.006072 0.017156 122 122 122
-0.031408 -0.028927 -0.002044 159 160 162
-0.036242 0.010973 0.010256 31 32 34
0.076989 -0.036181 0.024556 148 148 148
-0.054145 0.012291 0.011956 137 139 138
-0.028613 0.039366 -0.004344 31 31 31
-0.011160 0.026336 -0.004244 9 9 6
-0.052116 0.019050 0.000456 3 3 5
0.026116 -0.012933 0.025056 164 166 165
-0.047677 0.005268 0.012456 152 154 153
-0.049721 -0.016637 0.000056 154 160 158
-0.042589 -0.028949 -0.003644 154 155 157
-0.038069 -0.032670 -0.003944 162 164 163
-0.013183 -0.022251 0.007356 162 166 167
0.053310 0.031815 -0.008044 111 110 115
-0.014062 0.014100 0.013756 13 14 18
0.044054 0.017874 -0.014044 129 112 92
-0.060705 -0.022701 -0.005944 158 159 161
-0.059843 0.012952 0.008256 93 77 54
0.024042 -0.028851 0.018256 167 169 168
-0.044026 0.037074 -0.000344 21 20 22
-0.067285 -0.002777 -0.001344 163 165 164
-0.021835 0.018084 0.012556 12 13 17
-0.003831 0.002153 -0.060644 37 36 34
0.056112 -0.003529 0.021056 61 61 59
0.038467 -0.017687 0.027356 157 159 158
0.072537 0.003660 0.008956 68 68 68
-0.055698 -0.029943 -0.005844 157 159 158
0.036444 0.006217 0.005356 94 95 67
0.048431 0.009954 -0.000644 84 84 86
0.016157 0.019928 -0.015144 118 102 76
-0.063034 -0.008366 -0.001644 162 164 163
-0.065174 0.003279 0.002656 154 156 155
-0.054106 -0.019968 -0.001844 161 160 161
-0.057509 0.004145 0.007456 146 148 147
0.053369 0.033341 -0.007144 144 144 146
0.046200 0.006938 0.006656 89 85 83
-0.050045 0.033101 0.002556 1 1 3
-0.033599 -0.025145 -0.000544 146 147 149
-0.065919 0.004118 0.002556 151 153 152
0.000643 0.025549 -0.020644 43 43 44
0.003758 -0.001362 0.021256 151 153 150
-0.034102 -0.009217 0.007556 121 122 126
-0.036864 -0.034997 -0.004344 165 167 166
0.065189 0.001103 0.011956 150 150 150
0.029184 0.022241 -0.022444 109 107 79
0.045629 0.017934 -0.014644 124 107 90
0.039504 -0.015392 0.028456 153 155 154
0.045745 0.018700 -0.016344 119 101 81
0.040274 -0.033286 0.021956 163 165 164
-0.032864 -0.019313 0.002856 127 128 130
0.073162 0.006553 0.004756 153 153 153
0.008357 -0.008773 0.020756 156 160 159
-0.031835 0.040408 -0.004544 39 38 38
-0.008038 0.017988 -0.001344 23 24 17
0.003593 -0.031046 0.008156 170 172 171
0.044164 -0.025083 0.025856 161 161 161
0.009171 0.022096 -0.018944 112 97 74
0.075509 0.051377 0.010556 140 140 142
0.002553 -0.022088 0.012756 169 171 170
0.090847 -0.035124 0.019156 140 140 140
0.074837 -0.038961 0.022956 150 150 150
0.038827 0.016577 -0.013644 39 66 36
-0.030623 -0.032454 -0.003944 165 166 168
0.027400 -0.028903 0.019556 167 169 168
-0.063643 -0.015184 -0.005344 158 160 159
0.061386 -0.023826 0.018956 138 138 138
-0.062341 -0.031425 -0.007944 155 156 159
-0.048077 0.025957 -0.019544 35 35 33
0.014943 0.021599 -0.018644 124 108 82
-0.003869 0.002164 -0.060644 87 88 83
0.084494 0.036794 0.013556 145 141 135
-0.044339 0.002487 0.012456 142 146 145
-0.020077 0.033932 -0.000644 13 13 15
0.082630 0.041982 0.012456 142 142 142
0.083058 0.039505 0.013056 142 142 140
-0.009423 -0.018248 0.010556 162 166 167
0.038120 0.015047 -0.011644 36 68 38
0.042900 -0.034474 0.022156 163 165 164
-0.019530 -0.028786 0.001256 167 168 170
0.083899 0.039084 0.013056 141 141 142
-0.023044 -0.032607 -0.002044 168 169 171
0.054410 0.040817 -0.003944 142 138 145
-0.025004 0.021512 -0.007744 78 76 79
0.000371 -0.023783 0.011256 169 171 170
-0.038265 0.021625 0.012256 10 11 13
-0.058596 -0.006052 0.002156 161 163 162
-0.028449 0.012413 0.009956 16 17 20
0.022649 0.015006 -0.011444 38 51 34
0.049212 0.009191 0.000656 85 82 83
-0.016299 -0.024048 0.005356 162 163 165
0.047403 0.010242 -0.001044 84 84 83
0.032312 0.007901 0.003156 46 73 34
0.009833 0.000290 0.024156 155 156 154
0.080478 -0.044289 0.019256 142 142 142
0.021606 -0.035014 0.013756 167 169 168
0.046493 0.032969 -0.006544 139 138 138
0.037557 -0.040117 0.018556 163 165 164
0.039431 -0.042283 0.017856 163 163 163
-0.048143 -0.028407 -0.004444 156 161 161
-0.034491 0.033344 0.007556 29 29 28
-0.011950 -0.003660 0.016556 151 155 154
0.020870 -0.021304 0.019656 167 169 168
-0.003944 0.002118 -0.060644 149 149 151
0.061527 -0.027634 0.020256 93 93 93
0.015637 0.001772 0.017056 65 45 36
-0.015875 -0.026846 0.003756 166 167 169
0.085739 -0.047587 0.015456 135 135 135
0.051366 -0.046478 0.019356 158 158 158
0.048714 0.019444 -0.018044 124 107 89
-0.011340 0.002828 0.019456 162 166 165
0.015273 0.012719 -0.001144 136 125 97
0.027886 -0.015600 0.024556 164 166 165
0.053720 0.010042 -0.000844 97 90 81
0.029184 0.022532 -0.022444 127 117 92
-0.022058 0.024217 0.002256 11 12 14
0.037137 -0.027459 0.023256 163 165 164
-0.046559 0.012382 0.014656 158 160 159
-0.074044 0.003988 -0.001544 154 156 155
-0.003867 0.002159 -0.060644 19 19 17
-0.014329 0.027692 -0.007244 6 6 8
-0.061839 -0.029419 -0.007944 155 156 158
0.005188 -0.010922 0.018756 159 163 162
-0.070158 0.006683 0.001456 145 147 146
-0.019185 -0.027250 0.002256 166 167 169
0.027759 -0.018546 0.023356 164 166 165
-0.003726 0.002154 -0.060644 139 136 128
-0.024679 0.035943 0.001156 32 32 34
-0.042531 -0.012760 0.003256 153 154 156
0.016189 -0.019655 0.018656 167 169 168
0.043445 0.018915 -0.016444 124 109 85
-0.014747 -0.034240 -0.000444 172 173 175
0.021444 -0.023252 0.019056 166 168 167
0.007249 0.022986 -0.020444 95 78 61
0.035458 0.021511 -0.020644 135 119 93
