ply
format ascii 1.0
element vertex 1211
property float x
property float y
property float z
property uchar red
property uchar green
property uchar blue
end_header
0.078486 0.006702 -0.070445 213 213 215
0.036695 0.028911 0.000155 77 88 28
0.064154 0.012586 -0.087045 213 214 216
-0.005463 0.041737 -0.000645 112 125 41
0.069919 0.011828 -0.084845 208 207 212
0.061226 0.032024 -0.084645 126 125 123
-0.132316 -0.005129 0.078455 72 81 26
-0.009772 -0.030608 0.112055 108 110 107
-0.009689 -0.061284 0.099155 88 90 90
0.061005 0.050644 -0.044645 37 39 18
0.103832 -0.017454 -0.052645 137 137 137
-0.014452 -0.006501 0.054455 81 93 29
0.091022 -0.006609 -0.024445 97 97 94
-0.082151 0.082739 0.002555 127 129 123
0.057992 0.013500 -0.089545 212 214 215
0.089764 0.006996 -0.070345 172 170 177
-0.026381 0.004674 0.066255 71 78 21
0.045716 -0.009597 0.037455 135 138 132
0.053911 -0.022514 0.022655 140 142 137
0.000675 0.058672 -0.040445 93 104 35
-0.035628 0.039667 0.001255 106 118 39
-0.156986 -0.062720 0.053855 107 107 109
0.037645 0.018920 0.000455 80 90 27
0.065088 0.022958 -0.093445 111 107 108
0.105810 -0.016608 -0.056245 134 134 134
0.072691 0.007556 -0.073145 217 218 220
0.041911 0.042379 -0.060845 47 51 15
-0.015304 0.061068 -0.020645 90 100 39
-0.045897 0.081731 0.008855 98 99 93
-0.051032 -0.104767 0.118155 106 107 111
-0.120807 0.051288 0.029255 60 66 22
-0.123432 -0.103344 0.091055 119 120 124
0.085450 -0.019303 -0.014245 151 151 149
0.060583 0.018166 -0.090045 129 128 126
-0.065375 0.083332 0.002355 139 140 135
-0.077619 -0.058530 0.133555 96 97 96
0.006270 0.050928 -0.026545 107 123 39
-0.018539 0.043056 -0.004845 110 123 44
0.087776 -0.015289 -0.015645 125 127 124
0.055193 0.022447 -0.081745 65 64 62
0.085630 0.008944 -0.076245 165 151 160
0.057777 0.022078 -0.084745 135 134 132
0.100398 -0.011220 -0.042545 136 136 136
-0.083643 0.086255 -0.008345 122 123 118
0.026907 0.033115 0.010355 77 88 28
0.090710 -0.000980 -0.018945 87 88 82
0.086266 0.008591 -0.075345 162 153 162
0.045706 0.038254 -0.010345 74 83 29
0.027776 0.039015 -0.069745 107 120 41
0.093112 0.001032 -0.070845 95 93 101
0.063230 0.013354 -0.089245 208 208 210
-0.024487 0.042919 -0.004545 98 111 29
-0.096766 0.078660 0.012555 122 124 113
0.060597 0.023823 -0.087345 129 128 126
0.062122 0.018098 -0.092245 122 118 117
-0.046650 -0.060691 0.149655 63 63 65
-0.162770 -0.007704 0.049455 73 82 30
-0.106836 0.019093 0.049755 94 105 37
-0.081679 0.065847 0.043955 87 89 78
0.090519 0.005417 -0.071945 116 115 129
-0.155241 -0.061764 0.060055 108 108 110
0.044086 0.046719 -0.057845 46 49 18
0.017631 -0.076343 0.052255 151 153 152
-0.136044 -0.070298 0.081155 115 116 118
0.102455 -0.026303 -0.055745 134 134 136
0.096647 -0.009374 -0.035345 138 138 136
0.076631 -0.055968 -0.015145 148 148 146
0.003462 0.050075 -0.024245 112 125 43
-0.031998 -0.059610 0.133955 103 105 102
0.059478 0.029909 -0.083245 117 116 114
0.063320 0.027871 -0.088445 123 119 119
0.053931 0.014449 -0.083545 139 138 137
0.073990 0.042468 -0.035645 43 47 24
0.006592 0.051434 -0.027845 110 123 40
0.060178 0.029441 -0.084245 130 129 127
-0.085311 -0.129266 0.116255 121 124 122
-0.051861 -0.119205 0.115255 117 120 125
-0.100233 0.025402 0.041055 75 86 21
0.058542 0.019741 -0.086745 134 133 131
0.065812 0.011022 -0.082745 218 218 220
-0.163710 -0.088512 0.048555 109 108 114
-0.144670 0.023640 0.029455 80 90 29
0.063726 0.039332 -0.044845 44 47 20
0.073415 0.027905 -0.038045 85 93 31
-0.094292 0.072320 0.028555 130 132 121
0.065324 0.025957 -0.092545 108 103 107
0.101515 -0.000031 -0.034445 132 132 130
0.106268 -0.017380 -0.057145 133 133 135
-0.124867 -0.087254 0.091355 118 119 124
0.094800 0.002526 -0.024645 137 139 135
0.053943 0.053815 -0.048645 39 44 18
0.053733 -0.021812 0.023255 140 142 137
0.032926 0.037406 -0.064945 99 109 33
0.040730 -0.023189 0.040155 138 140 135
-0.117616 0.080096 0.006355 99 100 92
0.028286 -0.044097 0.048855 146 145 144
0.065643 0.029053 -0.041145 103 115 38
0.071259 -0.031517 -0.000945 149 149 147
-0.127225 -0.118399 0.080755 124 123 129
0.061449 -0.001330 0.019355 135 137 132
-0.079159 0.061667 0.052055 78 79 63
0.057500 0.029731 -0.043245 111 119 41
-0.068280 0.078608 0.013955 135 136 128
0.060220 0.020184 -0.088445 128 129 127
0.037178 0.022422 0.000455 79 91 29
0.062372 0.019268 -0.091845 123 119 118
-0.165464 -0.052564 0.041055 104 104 106
0.057923 0.022904 -0.084645 134 133 131
-0.075663 0.087171 -0.011045 115 115 113
0.019127 0.044249 -0.003845 100 113 32
0.072630 0.011478 -0.083745 204 203 208
0.068975 0.010699 -0.081645 214 214 216
0.089935 0.002018 -0.073745 112 111 118
-0.136769 0.025790 0.028055 84 94 31
0.095938 -0.035788 -0.047445 139 139 139
0.010402 0.042542 0.001455 109 123 38
0.058073 -0.065744 0.003055 146 148 145
-0.011878 0.060442 -0.025445 92 102 39
0.074697 -0.019560 0.000255 145 147 147
0.037108 0.034087 -0.056545 107 120 38
0.002922 0.029330 0.035455 66 75 19
0.069088 0.011250 0.014955 121 123 120
0.056391 0.026450 -0.034945 122 137 51
0.045717 -0.076232 0.013755 146 146 144
0.056055 -0.053645 0.009755 148 148 146
0.060757 0.002635 0.021155 130 132 127
-0.126027 -0.111695 0.085855 118 118 127
0.063504 0.023948 -0.090945 122 118 117
0.070573 0.028176 -0.038945 92 100 35
0.040175 0.022293 -0.002745 82 92 31
0.058583 0.026075 -0.084145 133 132 130
0.061288 0.015836 -0.093945 117 115 116
-0.077555 0.073631 0.025655 131 133 122
0.025702 0.037986 -0.067545 114 128 43
0.033607 -0.006837 0.054455 123 125 120
-0.097847 -0.066137 0.115955 109 111 110
-0.113675 -0.036802 0.105155 113 115 114
0.090218 0.020864 -0.020445 107 105 102
0.038700 0.034486 -0.057745 103 116 37
0.062075 0.010539 -0.081745 222 223 225
0.010326 0.019009 0.029255 70 82 24
0.038730 -0.069756 0.027055 145 148 144
-0.142157 -0.110687 0.059055 118 117 123
-0.095782 0.023265 0.045055 84 95 29
-0.129390 -0.082979 0.087155 119 120 121
0.078145 -0.008651 -0.001045 143 145 140
0.062474 0.022941 -0.090245 126 122 121
-0.125836 0.035284 0.022155 58 66 19
0.041880 -0.043568 0.031055 146 148 145
0.043748 0.035256 -0.058845 93 104 35
0.057930 0.013205 -0.088945 197 198 200
0.094760 -0.026440 -0.041045 143 143 141
-0.123629 0.053197 0.026955 56 66 18
-0.085235 0.080094 0.009055 130 131 123
-0.151312 -0.000584 0.063855 69 78 23
0.049032 0.030080 -0.045245 115 127 42
0.060483 0.052158 -0.044845 36 38 16
0.076419 -0.051304 -0.013245 149 149 147
0.073169 0.012007 -0.085245 200 199 204
-0.019532 0.052771 -0.017845 92 100 34
-0.130380 -0.028195 0.085855 104 106 105
0.067213 0.011709 -0.084545 212 212 214
-0.020714 0.005153 0.060055 67 76 19
-0.152674 -0.053568 0.067855 108 109 111
-0.160499 -0.082628 0.050955 111 109 115
-0.043200 -0.014857 0.080055 73 84 24
-0.056418 0.059475 0.027055 81 88 44
-0.103138 -0.024123 0.101255 77 89 29
0.056678 -0.048377 0.010355 148 151 147
-0.125906 -0.085681 0.090555 118 119 123
0.066343 0.009436 0.017455 123 125 123
0.002527 -0.109171 0.067155 136 136 134
-0.066706 -0.117238 0.121955 113 118 122
0.080782 -0.044812 -0.015845 150 150 148
-0.007912 0.047701 -0.018645 107 122 39
-0.037582 0.022570 0.044355 108 120 44
0.028414 -0.083873 0.036155 145 146 144
-0.137228 -0.007838 0.074355 72 84 26
0.005121 0.046407 -0.014445 115 128 46
0.103379 -0.018858 -0.052445 137 137 137
0.020914 -0.060689 0.052955 144 146 143
-0.137823 -0.090819 0.075055 116 115 120
0.061437 0.024020 -0.088245 129 125 124
-0.077647 0.081508 0.006255 132 133 127
0.091011 -0.013854 -0.027645 101 102 97
0.007274 0.037692 0.017855 101 109 47
0.063304 -0.032139 0.007655 148 150 147
-0.152349 -0.023188 0.065655 106 108 107
0.084631 -0.045444 -0.020745 150 150 148
0.099952 -0.007656 -0.039845 134 134 134
0.026946 -0.093118 0.034155 145 145 143
0.054153 0.014892 -0.083545 139 140 135
-0.004838 0.001676 0.043855 77 89 26
-0.049686 0.086253 -0.004045 131 131 129
0.084479 -0.027904 -0.014945 150 150 148
-0.097472 -0.071336 0.115255 107 108 110
0.064922 0.032317 -0.088645 112 110 113
0.084477 -0.043727 -0.019945 151 151 149
0.056102 0.026962 -0.036445 119 133 44
0.073517 0.000026 0.007155 137 139 134
-0.077316 0.087028 -0.010645 118 118 116
0.100366 -0.017146 -0.045245 140 140 140
-0.170565 0.000989 0.045055 65 73 22
0.059356 0.022115 -0.086745 131 130 128
-0.142121 0.027536 0.023855 76 84 29
-0.092306 -0.071009 0.121155 92 94 93
0.071868 -0.004507 0.008155 141 143 138
0.060632 0.044275 -0.045945 41 43 19
-0.163073 -0.008623 0.048855 73 80 29
0.064263 -0.052995 0.000455 148 148 146
0.089357 -0.013095 -0.016445 131 131 130
0.072437 -0.049096 -0.007745 149 149 147
0.083626 -0.052302 -0.021545 149 149 147
-0.149829 -0.103672 0.055055 114 113 119
0.101727 -0.019145 -0.049245 138 138 138
-0.049868 -0.132630 0.112055 124 123 128
-0.016529 -0.101789 0.097655 127 127 125
-0.134533 0.058429 0.016955 57 62 22
0.047330 -0.061763 0.018455 148 148 146
0.101646 -0.008465 -0.043345 135 135 135
-0.160419 -0.000793 0.054555 68 77 24
0.038385 0.008146 0.008355 127 142 60
-0.111213 -0.114646 0.101255 120 121 124
0.101441 -0.029851 -0.055745 133 133 137
0.095339 -0.031971 -0.044945 141 141 141
0.023632 0.039223 -0.070245 111 125 40
0.100471 -0.004962 -0.039045 105 105 107
0.062202 0.012310 -0.086445 216 218 220
0.064945 0.013040 -0.088245 208 208 210
0.066547 0.010689 -0.081845 220 220 222
-0.114646 0.057320 0.035755 60 66 22
0.084450 0.008681 -0.075445 178 178 187
-0.052655 0.003424 0.087455 64 72 19
-0.123694 0.078128 0.010555 105 106 98
0.088077 -0.009074 -0.013945 144 146 143
-0.087119 -0.091290 0.120955 101 102 104
0.058705 0.022175 -0.085845 127 126 124
0.101987 -0.018200 -0.049545 139 139 139
0.056357 0.021684 -0.083345 136 136 134
0.072305 -0.023420 0.000755 149 149 147
-0.009143 0.022828 0.047455 64 74 21
0.047885 0.042606 -0.056045 45 48 17
0.061319 0.026510 -0.034645 118 132 43
-0.013861 0.034384 0.017255 105 118 38
-0.171083 0.019491 0.045755 62 70 23
-0.153769 -0.060304 0.064555 109 110 112
0.052113 0.056536 -0.050045 37 39 17
0.057238 -0.004329 0.022755 137 140 133
-0.052451 0.083631 0.003255 146 147 142
0.069116 -0.010948 0.009755 141 143 138
0.083520 -0.053903 -0.021745 150 150 147
0.040671 0.046694 -0.061245 47 51 18
0.087370 -0.016912 -0.015645 151 153 150
0.050186 0.025587 -0.013745 78 88 29
0.031776 0.038201 -0.066745 105 119 40
0.006438 0.052040 -0.030745 109 120 38
0.098685 -0.031370 -0.051245 137 137 137
0.001268 -0.008167 0.050855 106 119 54
0.053405 0.035475 -0.075745 137 140 136
0.027373 0.015556 0.012355 82 92 29
-0.054692 0.081287 0.008955 141 139 135
-0.006682 0.035020 0.019255 104 117 38
-0.112160 -0.086380 0.102755 124 125 129
-0.080045 -0.019108 0.112755 73 82 23
0.108249 -0.010835 -0.057045 132 132 132
0.064989 0.025844 -0.092345 110 106 107
0.109211 -0.005327 -0.054845 127 127 127
0.054688 0.017966 -0.083045 137 136 136
0.041965 -0.040124 0.032155 145 147 144
0.039024 0.041295 -0.063645 46 50 15
0.041535 -0.024690 0.038455 139 141 136
0.037749 0.036727 -0.063145 92 100 34
-0.064074 0.082036 0.006755 137 138 133
0.006491 0.063785 -0.044245 86 96 35
-0.146506 -0.009384 0.067055 74 83 27
-0.065120 -0.111080 0.122655 113 114 118
-0.116877 0.059048 0.033655 61 67 23
0.080137 -0.054374 -0.018445 149 149 147
-0.138410 -0.066916 0.079355 114 115 117
0.055773 0.035832 -0.077645 135 135 133
-0.021512 -0.062063 0.119055 118 120 117
0.062864 0.026369 -0.088845 106 102 101
0.066853 -0.015633 0.010655 141 143 137
0.004647 0.040378 0.008055 108 122 37
-0.155806 -0.006363 0.060955 70 82 26
0.059255 0.048885 -0.045745 40 42 18
0.096608 0.007354 -0.024445 136 137 132
-0.088216 0.054027 0.057255 52 59 22
0.035788 -0.014223 0.049355 132 137 130
0.040221 0.045056 -0.061845 47 52 18
-0.097101 -0.028365 0.106455 80 91 31
-0.044335 -0.001055 0.081055 70 79 24
0.062530 0.023567 -0.089945 126 122 121
0.006153 -0.103052 0.064155 135 135 133
0.063931 0.019062 -0.094445 112 107 111
-0.164582 -0.029474 0.053455 104 104 104
0.047872 0.030979 -0.047645 112 124 42
0.084512 -0.035715 -0.017245 150 152 149
0.074090 -0.001113 0.005955 139 141 136
-0.000838 0.054356 -0.034345 109 122 40
0.068150 -0.027164 0.004055 148 148 146
0.051517 0.029408 -0.015345 73 86 23
0.053675 0.026083 -0.079445 141 142 135
0.024009 0.044014 -0.002345 108 121 42
0.081957 -0.006244 -0.005445 142 144 139
-0.148270 -0.002855 0.066255 72 81 24
-0.030837 -0.070281 0.129155 112 111 110
-0.133411 0.052462 0.017355 56 61 21
-0.121952 -0.118264 0.089555 121 122 126
0.051111 0.017752 -0.011045 118 133 49
0.077313 0.009911 -0.079345 207 206 211
-0.140446 -0.080100 0.073755 114 115 117
0.061736 -0.032923 0.009355 147 149 146
0.087622 -0.031225 -0.019545 150 150 148
-0.019581 0.069884 -0.012445 86 95 35
-0.004021 0.005171 0.042955 75 87 25
-0.076802 0.085978 -0.005145 123 124 119
0.102833 -0.009983 -0.046345 135 135 135
0.092245 0.004426 -0.021245 136 139 132
-0.047734 0.080726 0.011155 93 94 86
0.105947 -0.020001 -0.057945 131 131 133
0.061500 0.018052 -0.091445 129 125 124
-0.161186 -0.026429 0.054955 105 105 105
0.063374 0.021048 -0.092045 86 80 79
-0.145543 -0.057972 0.074455 113 113 115
0.055994 0.033283 -0.078845 144 143 141
0.081118 -0.020468 -0.009745 150 150 148
0.103844 -0.019782 -0.053745 136 136 139
0.085645 -0.051534 -0.023745 149 149 150
0.056177 0.022117 -0.082945 136 136 134
0.042492 0.034087 -0.056545 101 113 37
-0.151121 -0.066424 0.064755 110 111 113
-0.075492 -0.021257 0.108655 66 77 20
0.059378 0.035614 -0.081945 138 138 137
0.063594 0.019505 -0.093545 117 113 114
0.045560 -0.074970 0.014655 146 146 144
0.007302 0.051102 -0.033445 111 124 42
0.011192 0.041810 0.004055 108 121 39
0.056423 0.035538 -0.078545 133 135 132
0.074355 -0.035762 -0.006145 149 151 148
0.012036 -0.000907 0.034455 111 125 47
-0.127919 0.012883 0.064655 89 100 32
-0.100714 -0.115881 0.107455 121 122 127
0.078155 -0.002301 0.000155 140 142 137
0.036525 0.038302 -0.065945 79 87 27
-0.127092 0.036252 0.020055 56 63 19
0.051094 -0.028964 0.024155 139 142 137
-0.160139 -0.010715 0.053055 74 83 28
-0.072951 0.077579 0.016055 134 135 129
0.105089 0.003526 -0.057945 104 103 109
0.054683 0.030271 -0.019945 73 83 25
0.102926 -0.024628 -0.055545 136 136 138
0.059775 0.026400 -0.084845 133 132 130
0.025839 -0.076061 0.042655 147 147 145
0.065229 0.022750 -0.093645 110 106 107
0.056754 0.012707 -0.087745 204 205 208
0.034440 -0.057658 0.036155 146 146 144
0.057839 0.030612 -0.081945 132 132 130
0.065083 -0.050699 0.000055 148 150 147
-0.157630 -0.035362 0.062755 107 107 107
-0.135807 0.014155 0.059655 90 100 38
0.059739 0.054427 -0.045245 37 39 18
-0.054691 -0.089605 0.088555 50 50 55
-0.056593 -0.067432 0.097455 147 149 149
0.037332 -0.034928 0.040155 140 140 135
0.065518 0.009821 -0.079645 221 222 224
0.039016 0.037230 -0.003045 70 80 26
0.038103 0.045860 -0.063845 50 54 21
-0.050223 0.063163 0.021055 87 92 44
0.099632 -0.026094 -0.049545 139 139 139
0.067873 0.028485 -0.039645 97 109 36
-0.105172 -0.089622 0.108355 124 125 129
-0.125677 -0.124903 0.081255 123 122 127
-0.105264 0.026857 0.037455 78 89 23
-0.129342 -0.114731 0.078555 122 121 128
-0.114289 0.058108 0.036355 60 66 22
0.103321 -0.004807 -0.043645 130 129 129
-0.164889 -0.059523 0.041355 106 104 109
0.093085 -0.009927 -0.030145 139 140 138
0.094550 0.007704 -0.022145 134 136 131
0.094573 -0.021071 -0.037845 143 143 141
0.074092 0.025103 -0.031345 113 125 49
-0.142155 -0.002391 0.070655 71 80 23
-0.132350 0.066282 0.021355 49 52 23
-0.082245 -0.068991 0.126555 99 100 102
-0.055383 -0.052982 0.126855 94 98 103
-0.088240 0.085908 -0.007245 118 120 116
0.092737 0.009639 -0.018845 135 135 130
0.022101 0.040758 -0.073645 97 109 34
0.084784 -0.028918 -0.015545 150 150 148
0.095802 -0.030304 -0.044745 141 141 141
-0.038158 0.040112 0.001155 100 113 35
-0.160238 -0.050527 0.053455 105 105 107
0.058792 0.012857 -0.088145 216 215 215
0.061080 0.025749 -0.086945 112 108 107
-0.090488 0.077563 0.014455 131 133 122
0.057416 0.036117 -0.049845 45 49 13
0.058124 0.028320 -0.082845 135 134 132
-0.150978 -0.098081 0.055855 113 112 118
0.059403 0.030747 -0.082945 117 116 114
-0.157630 -0.032900 0.062755 107 107 107
0.029971 0.034104 -0.055845 115 129 44
-0.057903 -0.062959 0.096555 159 161 154
0.084605 0.009608 -0.078145 145 128 136
0.054387 0.057932 -0.048145 37 39 17
0.065433 0.025616 -0.092645 108 103 107
0.071631 0.010133 -0.080045 213 213 215
-0.122943 -0.112454 0.089255 118 119 123
0.027673 -0.054796 0.046155 145 145 143
-0.117735 0.048028 0.031155 60 66 22
-0.047747 -0.018840 0.083955 78 91 28
-0.114443 0.053074 0.034555 62 68 24
0.060735 0.002367 0.021055 130 132 127
-0.153922 -0.074688 0.058755 109 108 113
0.065240 0.012384 0.018355 115 114 113
-0.151254 -0.095685 0.058155 114 113 119
-0.101702 0.062661 0.052055 46 46 44
-0.156774 -0.074348 0.053655 109 108 115
0.089575 -0.038768 -0.036945 111 112 118
0.090318 0.003791 -0.061245 211 209 212
0.067679 0.012643 -0.087145 205 204 209
-0.000791 0.051162 -0.027245 111 124 42
-0.112343 -0.025613 0.094555 83 95 31
0.081656 0.018328 0.001855 115 117 114
0.068216 0.022363 -0.022245 101 116 39
-0.101758 -0.049758 0.115655 114 116 115
-0.000228 0.057507 -0.039245 93 106 33
0.065866 0.011405 -0.083745 217 217 219
-0.014760 0.045345 -0.011445 112 125 44
-0.133802 -0.110675 0.070755 122 121 126
0.073215 -0.004804 0.006255 140 142 137
0.030764 0.041813 -0.070845 64 72 23
0.018955 0.023451 0.021955 83 93 37
0.076715 0.007747 -0.073345 213 213 215
-0.049508 -0.098665 0.126255 94 95 97
-0.112735 -0.125157 0.099655 121 122 126
0.072048 0.024687 -0.029745 114 125 47
0.103005 -0.006655 -0.044145 130 130 130
-0.125327 0.001181 0.083355 46 54 0
0.078081 0.010771 -0.081745 199 197 201
-0.131813 -0.093090 0.082655 117 119 122
0.099334 -0.027731 -0.050145 139 139 139
0.101565 -0.014326 -0.045845 138 138 138
-0.056078 0.081805 0.007655 139 138 134
-0.157379 -0.029754 0.062855 106 106 106
0.027915 -0.035288 0.052655 141 142 137
-0.059927 0.072362 0.028655 82 82 70
0.004401 -0.063309 0.077855 133 133 131
-0.098640 -0.000396 0.103055 64 75 19
0.059273 -0.012091 0.019255 139 141 136
-0.130801 0.069049 0.027555 19 18 17
0.090547 0.007233 -0.038745 155 157 154
0.070679 0.025193 -0.030845 110 123 44
0.100395 -0.008479 -0.041145 136 136 136
0.054797 0.016935 -0.010645 116 129 46
-0.064295 -0.027719 0.099855 79 89 28
0.065789 0.027445 -0.092345 95 91 92
-0.018796 0.030446 0.026655 109 122 40
-0.142196 0.027297 0.024155 78 88 27
-0.155873 0.006544 0.059655 66 74 23
0.048465 0.033715 -0.054845 95 105 34
0.054444 0.024089 -0.080645 143 141 138
0.073599 -0.053980 -0.011445 149 149 147
0.064197 0.030903 -0.045445 69 75 21
-0.039049 -0.017290 0.078055 90 101 37
0.049240 0.018829 -0.010845 94 108 28
0.059568 -0.050864 0.006455 148 149 148
0.026119 0.041691 -0.074045 76 84 26
0.089519 -0.039214 -0.035845 96 96 95
0.087517 -0.009985 -0.013445 145 147 146
0.079810 0.021232 0.002555 109 114 103
-0.162768 -0.098026 0.047155 108 107 115
0.100177 -0.014089 -0.043645 139 139 139
-0.126613 0.033956 0.020855 58 63 19
-0.143231 -0.097762 0.065455 118 117 123
0.046586 0.037258 -0.058145 55 57 20
0.030231 -0.053590 0.042955 144 146 143
0.105447 -0.002781 -0.048045 126 125 126
0.105324 -0.013253 -0.053345 135 135 135
0.018779 0.038820 -0.053145 116 130 45
0.065539 -0.066101 -0.005345 148 148 146
0.064530 0.059757 -0.042645 36 37 21
0.090764 -0.031271 -0.035945 145 145 145
0.045765 0.003754 0.037955 114 117 117
-0.157154 -0.005211 0.059555 70 79 24
0.064132 0.022481 -0.092445 119 113 115
-0.158397 -0.044738 0.058755 107 107 109
-0.106111 0.072384 0.027355 115 117 106
0.005572 0.007444 0.033855 73 84 24
0.090748 -0.004570 -0.018545 99 100 93
0.068713 0.021704 -0.021445 103 115 43
-0.065432 0.086253 -0.004045 131 131 129
0.058354 0.013255 -0.089045 212 213 213
0.089308 0.008020 -0.011645 135 136 131
0.067856 0.029514 -0.042345 83 92 30
0.027462 0.042821 -0.073345 63 71 19
-0.151756 -0.097768 0.053655 113 112 118
0.059337 0.058598 -0.045145 35 36 18
0.104972 -0.003190 -0.047245 124 125 125
-0.132936 -0.095570 0.080655 117 118 122
0.090693 0.011565 -0.012945 76 77 71
-0.004127 0.037580 0.012355 105 117 36
-0.007521 -0.095672 0.087055 130 130 128
0.062007 0.021006 -0.090345 127 123 122
0.006940 -0.013157 0.085855 97 99 94
-0.003853 0.048800 -0.021345 108 121 38
0.061021 0.031582 -0.084545 127 126 124
0.104975 -0.012492 -0.051945 136 136 136
0.086071 -0.028626 -0.016945 152 152 150
-0.067097 0.080018 0.011255 135 136 131
-0.164082 -0.063375 0.043055 107 107 109
-0.107287 -0.051136 0.110455 115 117 116
0.090816 -0.003857 -0.022645 91 94 87
-0.011336 -0.074260 0.098955 125 127 124
0.085060 0.016555 -0.003545 125 127 125
-0.089242 -0.111429 0.115955 110 114 117
0.109357 -0.007429 -0.056745 128 128 128
-0.100647 -0.012658 0.101355 74 84 23
0.076065 -0.031980 -0.006845 150 150 148
0.084111 -0.000378 -0.006545 141 143 138
0.067234 0.057239 -0.042045 38 39 26
0.093633 -0.037002 -0.044145 140 140 140
-0.147117 -0.018672 0.066555 83 92 35
0.028160 0.035231 -0.049245 115 128 44
-0.009558 0.021243 0.047855 68 77 23
0.045078 0.036845 -0.059345 62 66 21
-0.124014 -0.049417 0.094155 116 118 117
0.067395 -0.027363 0.004755 150 150 148
0.104292 -0.013452 -0.051445 137 137 137
0.101855 -0.010966 -0.044745 137 137 137
0.078274 -0.012554 -0.002445 142 144 139
-0.157637 -0.005462 0.058355 71 80 25
0.056309 0.037895 -0.077745 132 132 130
0.085473 -0.050262 -0.023045 149 149 147
-0.062437 -0.043520 0.138755 100 101 103
0.044548 -0.058396 0.022755 148 147 145
0.047788 0.022670 -0.010645 84 93 29
0.053549 -0.048194 0.014155 147 149 146
0.103914 -0.002827 -0.042845 97 92 96
0.101044 -0.011493 -0.043845 136 136 136
-0.165615 -0.027956 0.043555 101 103 102
0.066065 -0.037462 0.002655 148 151 147
0.059040 0.036725 -0.081445 127 127 127
0.098068 -0.002224 -0.030045 137 137 135
-0.113672 0.027503 0.032755 82 92 29
0.095074 0.000172 -0.025345 139 139 134
-0.112968 -0.064755 0.103355 117 118 120
-0.054147 0.072960 0.026055 86 89 74
0.031844 0.035781 -0.060945 107 120 40
0.056691 0.020254 -0.084145 135 135 133
-0.148762 -0.051186 0.071855 110 111 113
0.034452 0.034307 -0.056945 112 124 42
0.040166 0.039813 -0.062845 47 54 16
0.094445 -0.023260 -0.038845 143 143 141
0.072366 -0.024688 0.000255 148 148 149
0.042923 0.017377 -0.004645 88 99 35
0.057262 0.040559 -0.049145 44 47 16
-0.049289 -0.075338 0.128555 87 89 88
0.003803 0.058832 -0.041445 88 102 31
0.055359 0.027935 -0.080045 139 139 137
-0.094476 0.079445 0.010655 123 125 114
-0.137538 -0.099576 0.071255 119 118 123
-0.050123 0.018117 0.056055 103 115 44
-0.047386 0.024456 0.037755 109 121 45
0.097131 -0.031744 -0.047545 140 140 140
0.062727 0.001918 0.019055 132 134 129
-0.115155 -0.048730 0.102755 115 117 116
-0.141940 -0.084681 0.071655 114 115 119
0.067402 0.025108 -0.030345 121 134 52
-0.077313 0.027899 0.041155 80 89 25
-0.134734 -0.106741 0.074055 121 120 125
-0.149589 -0.051706 0.071155 110 111 113
0.107300 -0.005487 -0.052145 128 128 128
0.090554 -0.018322 -0.019545 148 144 146
0.059551 0.018862 -0.088545 131 127 127
0.009439 -0.097881 0.060155 134 136 131
0.014719 -0.048243 0.063455 89 89 88
0.090667 -0.006376 -0.018345 101 102 97
0.060543 0.020959 -0.088445 131 129 129
-0.109363 0.071122 0.031255 117 119 108
0.060675 0.016697 -0.091445 98 94 93
-0.140315 0.027335 0.024455 77 87 27
0.063083 0.017662 -0.095145 85 81 82
-0.066537 -0.023962 0.100155 71 83 25
-0.143237 -0.075007 0.071455 115 114 119
0.058805 0.021477 -0.086245 120 119 117
-0.084054 0.040613 0.052955 47 56 5
-0.008820 0.013790 0.047455 68 77 22
0.061912 0.019112 -0.091445 125 121 120
0.097624 -0.010553 -0.037445 138 138 136
-0.116904 0.011544 0.070255 89 100 35
-0.092284 -0.140961 0.113955 124 123 129
-0.164242 -0.030591 0.046755 103 105 102
-0.161636 -0.101897 0.048155 107 106 111
0.003131 0.048498 -0.020145 112 125 45
0.094588 -0.021410 -0.038245 143 143 140
0.085412 0.005800 -0.007045 139 141 136
0.044674 -0.028543 0.032855 140 142 137
0.062617 0.016486 -0.095445 107 106 109
-0.065463 0.087588 -0.009845 127 127 125
-0.102875 0.084349 -0.003145 101 101 99
0.090893 -0.021811 -0.025245 111 109 107
-0.137228 -0.094953 0.074355 116 115 120
0.056775 0.018400 -0.084845 144 143 141
0.061108 0.024844 -0.087445 125 124 122
0.002044 -0.051066 0.086955 126 131 125
-0.141894 -0.066735 0.075855 114 114 116
0.062378 0.029514 -0.042345 100 112 36
-0.080919 0.074426 0.023055 134 136 125
-0.010578 -0.028713 0.114155 102 104 101
-0.111674 -0.029814 0.097355 94 106 48
-0.113925 0.081266 -0.002245 107 108 102
-0.044828 -0.046781 0.152455 91 90 94
0.060852 0.017169 -0.091445 97 91 90
-0.041307 -0.005936 0.079055 69 78 27
-0.116917 0.080755 0.003655 107 108 100
0.061938 0.023617 -0.089145 126 125 123
-0.115497 -0.074473 0.100655 120 121 123
-0.028878 -0.062576 0.128955 109 111 108
0.057730 0.010730 -0.082545 226 227 229
0.075689 0.017643 0.009155 112 114 111
0.042782 0.012149 0.000455 128 141 53
-0.062227 0.085871 -0.003245 140 140 140
0.078776 -0.013281 -0.003445 144 146 141
0.074443 -0.028172 -0.003545 149 152 151
-0.041259 0.033251 0.016855 108 121 41
-0.155517 0.019375 0.039155 76 86 34
0.033748 0.031974 0.002855 76 86 26
0.102698 -0.022705 -0.053345 136 136 136
-0.043427 -0.019710 0.081755 92 104 40
0.022106 0.041280 -0.074245 92 105 32
0.048292 0.036838 -0.056845 52 58 17
0.086334 0.007562 -0.007845 136 138 133
0.055229 0.016855 -0.084045 138 138 133
-0.107026 0.061791 0.047155 19 18 16
0.037472 -0.045441 0.036555 144 146 143
0.090402 -0.012110 -0.024845 96 96 94
0.103795 -0.028238 -0.058745 131 131 133
0.004146 0.051253 -0.027445 110 125 38
0.022126 0.036650 -0.064245 118 132 46
0.072172 -0.053181 -0.009045 148 148 146
-0.136530 0.073703 0.020255 108 109 103
0.090677 -0.028702 -0.034645 130 127 129
0.054940 0.024924 -0.080745 48 48 46
0.086241 -0.025646 -0.016245 150 150 148
-0.036016 0.082385 0.005655 82 83 75
0.092813 0.009834 -0.019045 131 135 124
0.002674 0.031686 0.035155 75 86 25
0.033556 0.042612 -0.068645 62 67 26
0.056799 0.015798 -0.086445 133 135 130
0.088517 -0.040333 -0.023645 150 150 148
0.041492 0.017480 -0.003245 89 100 34
0.089655 -0.049791 -0.028645 146 146 144
0.075989 -0.043786 -0.010245 149 151 148
0.053532 -0.029344 0.020355 106 108 105
0.061058 0.014957 -0.093245 206 201 210
-0.062717 -0.115863 0.072555 98 102 104
0.065268 -0.018812 0.011355 142 143 138
0.109080 -0.007426 -0.056245 130 130 130
-0.149479 -0.031572 0.069855 108 110 109
0.070293 0.053546 -0.039845 50 52 38
0.061575 0.011004 -0.083045 221 222 226
-0.075682 -0.052288 0.135955 95 97 96
-0.129077 0.000894 0.080655 73 82 25
-0.141265 -0.036089 0.078655 110 112 111
0.010640 0.016117 0.029055 71 80 23
-0.031913 -0.115435 0.114955 120 120 120
-0.048234 0.035039 0.012455 102 116 36
-0.120659 -0.067501 0.096455 117 118 120
-0.002037 0.012972 0.040855 69 81 23
0.060771 0.022476 -0.088045 130 129 127
0.011100 0.000104 0.032355 108 122 47
0.092380 -0.020187 -0.033645 146 142 144
0.054172 0.011500 -0.084445 211 212 217
0.075451 -0.026323 -0.004445 150 150 148
-0.123013 0.076410 0.016355 110 111 103
0.045993 -0.049256 0.023355 145 148 145
0.059919 0.021278 -0.087745 131 130 128
0.037312 -0.016141 0.046855 134 139 133
0.025597 -0.045145 0.052255 144 144 142
-0.114710 0.058649 0.036155 61 67 23
0.026429 0.034231 -0.055845 118 128 50
-0.031439 -0.130803 0.109755 126 126 126
0.058625 0.014295 -0.091045 181 182 185
0.099160 0.003256 -0.057645 157 157 158
0.097904 -0.014035 -0.040045 140 140 138
-0.119194 0.053864 0.031155 59 65 21
-0.078480 0.011574 0.072255 86 97 29
-0.104149 -0.065518 0.111155 117 118 120
-0.128525 -0.074411 0.088655 117 118 120
-0.034888 0.086806 -0.003545 89 93 85
-0.095526 0.035965 0.046855 61 69 20
0.061796 0.015792 -0.094545 149 150 153
0.041754 0.029374 -0.005145 76 86 26
0.058982 -0.059126 0.004955 147 149 146
0.073984 -0.010745 0.003555 141 143 138
-0.135062 0.074742 0.017855 110 111 105
-0.151768 -0.090507 0.059355 114 113 119
-0.146679 -0.012602 0.066855 76 86 26
-0.086880 0.031198 0.049755 56 62 14
-0.088855 0.050917 0.055655 41 42 12
-0.145712 -0.008006 0.067755 74 83 26
-0.088327 0.073393 0.025755 133 135 124
0.038848 0.029429 -0.002245 76 87 29
0.091155 -0.015218 -0.029345 143 143 142
0.083401 -0.014105 -0.009445 143 145 143
-0.139955 0.026606 0.025355 82 92 31
0.087250 -0.020400 -0.016245 150 150 148
0.048399 -0.030587 0.027155 141 142 137
-0.137602 -0.093458 0.074355 116 115 120
0.027765 0.036650 -0.064245 116 130 45
0.061459 0.020901 -0.089645 129 125 124
0.105614 -0.022536 -0.059745 129 129 131
-0.000452 0.054943 -0.035445 111 118 41
-0.164469 -0.024164 0.053655 103 103 103
-0.068955 0.077464 0.016355 135 136 128
0.057278 0.031897 -0.048345 92 102 30
0.004898 0.012206 0.034355 71 82 25
0.002419 -0.062984 0.081255 132 132 130
0.071782 -0.052912 -0.008345 148 148 146
-0.131730 -0.029723 0.085555 107 109 108
-0.050778 -0.065715 0.116055 69 70 72
-0.002635 -0.034476 0.099855 118 120 115
0.102237 -0.030599 -0.057645 131 131 130
-0.079855 0.070860 0.032055 136 138 127
-0.164402 -0.052436 0.044955 105 105 107
-0.098372 -0.133661 0.107955 123 122 128
0.057414 0.023424 -0.083845 136 135 133
-0.064916 0.083681 0.001755 139 140 135
0.099546 -0.028805 -0.051745 138 138 138
0.057411 0.023536 -0.083745 136 135 133
0.078430 0.002790 0.000855 138 140 135
0.091640 -0.025214 -0.022845 141 140 138
0.051399 0.042721 -0.053245 45 48 17
-0.116685 -0.100386 0.097355 120 121 125
0.040503 0.045351 -0.061545 47 51 18
0.108272 -0.012347 -0.057745 132 132 132
0.101321 -0.024405 -0.052245 137 137 137
-0.092892 0.049115 0.052255 58 63 22
-0.109376 0.080507 0.006655 115 115 107
0.059725 0.019731 -0.088045 142 141 139
0.090020 -0.038102 -0.038145 118 117 121
-0.025041 -0.001729 0.065355 72 81 24
-0.064312 0.024741 0.037555 102 116 37
-0.146734 -0.025311 0.071655 109 109 108
-0.035597 0.027768 0.030155 110 123 43
-0.073322 -0.063450 0.133755 94 101 99
0.103141 -0.018097 -0.051645 138 138 138
-0.007716 0.048265 -0.020245 109 122 40
0.090429 -0.036447 -0.038245 129 136 139
-0.004353 0.065068 -0.034345 89 98 44
0.090761 -0.023277 -0.032545 130 131 129
0.095436 -0.029811 -0.043945 141 141 139
0.096432 -0.022036 -0.041645 142 142 142
-0.156896 -0.075256 0.053455 110 109 115
0.076655 0.048638 -0.031745 44 47 34
0.062453 0.029449 -0.086845 125 124 122
0.038351 0.039749 -0.064445 47 54 13
0.013089 0.002357 0.027755 94 108 32
-0.157624 -0.016657 0.057355 87 96 42
0.058053 0.037887 -0.079745 128 128 126
-0.085990 0.051446 0.056455 42 46 10
0.020848 0.040114 -0.071845 109 123 43
-0.054447 -0.044410 0.131155 70 73 73
0.105782 -0.002704 -0.048545 122 122 124
-0.116292 0.032282 0.029355 57 63 15
-0.087705 0.083084 0.001155 121 122 117
0.099256 -0.019787 -0.044845 141 141 141
-0.153261 -0.101946 0.052855 112 111 117
-0.159618 -0.099398 0.049855 110 109 117
0.075939 -0.042262 -0.009845 150 150 148
0.029683 0.012172 0.010255 88 99 32
0.056057 0.014754 -0.086145 107 106 102
0.109993 -0.006270 -0.057445 127 127 129
0.089074 -0.001098 -0.013245 143 145 142
-0.048856 -0.051464 0.143155 72 75 73
0.040573 0.035052 -0.059045 99 110 33
0.064300 -0.041942 0.003155 148 150 147
0.055431 0.034044 -0.077945 136 136 134
0.040718 -0.061520 0.027055 147 147 145
0.061798 0.024688 -0.088345 128 124 123
0.010982 -0.006653 0.052355 110 121 65
-0.122498 0.036246 0.025855 58 65 20
0.020323 -0.029355 0.064355 141 143 140
0.081371 0.007539 -0.072445 209 210 211
0.053473 0.034550 -0.052945 59 65 17
-0.152215 -0.064372 0.064055 109 110 112
0.036430 -0.012554 0.049055 130 137 130
0.074166 0.011537 -0.083945 202 201 206
0.073745 0.021717 -0.021345 117 133 53
-0.130756 -0.108612 0.079855 122 121 126
0.020601 0.037426 0.017855 69 78 21
0.109501 -0.004214 -0.057845 122 122 123
0.099820 -0.017529 -0.044545 141 141 141
-0.019363 0.020254 0.057655 61 70 18
0.073563 0.048937 -0.034845 41 42 27
0.012930 0.033845 0.026655 60 66 23
-0.048422 -0.094970 0.138355 73 78 77
0.004060 0.053012 -0.033345 109 121 38
0.042777 0.035822 -0.060045 93 101 35
0.084467 -0.013072 -0.010345 144 145 140
-0.044432 -0.126676 0.128255 117 117 119
-0.130390 -0.090877 0.085355 119 120 124
-0.034623 0.081334 0.007255 81 84 72
0.072902 0.030907 -0.041145 43 50 20
0.062167 -0.069059 -0.002145 146 148 145
0.104658 -0.025972 -0.059345 131 129 132
0.098855 -0.024698 -0.046745 140 140 142
-0.074344 0.080320 0.008555 131 132 126
0.026118 0.031282 0.011455 75 86 26
0.063898 0.019991 -0.093845 115 111 112
0.069288 0.021896 -0.021445 105 116 46
-0.166122 -0.024621 0.042655 100 102 101
0.106552 -0.009287 -0.052945 132 132 132
0.046316 -0.069584 0.016655 147 147 145
0.069794 0.020900 -0.020145 106 120 48
0.105628 -0.011795 -0.052945 135 135 135
-0.130492 -0.033683 0.087555 110 112 111
-0.081893 0.086127 -0.007245 122 123 117
-0.128802 0.060451 0.021855 59 64 23
0.066177 0.013368 -0.089145 205 204 209
-0.092863 0.076149 0.017455 131 133 122
-0.089164 -0.081264 0.121355 85 86 88
-0.125776 0.035871 0.022355 60 65 19
0.028526 0.038137 -0.067845 109 124 41
-0.022977 0.088575 -0.008745 88 89 83
-0.128074 -0.113952 0.082355 122 121 128
-0.124361 -0.012586 0.084155 72 85 22
-0.145719 -0.099159 0.063555 116 117 122
-0.104776 0.065388 0.046355 116 118 112
0.063789 0.021173 -0.092845 92 88 89
0.086391 0.001972 -0.009045 141 143 138
0.067819 -0.031379 0.002955 149 149 147
0.050702 -0.011279 0.029455 139 142 135
0.014081 -0.073610 0.058655 136 138 137
-0.056950 -0.119223 0.109555 81 82 87
-0.081905 0.063058 0.050155 85 87 75
0.084603 0.025625 -0.028445 78 82 66
-0.007843 0.048573 -0.020945 107 120 41
0.108145 -0.003582 -0.052345 122 122 122
0.103063 -0.011708 -0.047445 136 136 136
0.034120 0.039015 -0.067945 75 86 21
0.096922 -0.009435 -0.035845 138 138 136
0.084375 -0.027972 -0.014745 150 150 148
0.035460 -0.070929 0.030955 147 147 145
-0.045301 0.078126 0.015055 93 95 84
0.005988 0.040323 0.008855 109 122 40
-0.060361 0.024741 0.037555 103 118 38
-0.105292 0.062184 0.049455 20 22 15
0.017523 0.037078 -0.064945 118 132 45
-0.137801 -0.048975 0.082355 113 116 114
0.062982 0.019991 -0.092245 119 115 114
0.050610 0.040147 -0.054545 47 50 19
0.005604 0.042255 -0.000445 111 126 41
0.092132 -0.024418 -0.034945 144 144 144
0.064968 0.028140 -0.090145 115 111 111
0.017360 0.044854 -0.006245 110 123 43
-0.027962 0.084920 -0.000045 87 89 78
-0.129022 0.061620 0.022055 59 64 23
-0.127686 -0.118148 0.080355 124 123 129
-0.120776 -0.004873 0.086255 72 79 23
0.066201 0.030163 -0.091045 110 103 107
0.090745 -0.040300 -0.026645 144 144 142
0.065950 -0.050676 -0.000945 148 150 147
-0.083556 0.085064 -0.004145 125 126 121
-0.109521 -0.063280 0.106855 117 118 120
0.055227 0.026920 -0.036645 118 132 47
-0.104556 0.071834 0.029455 126 128 117
0.050999 -0.058462 0.014455 148 148 146
0.036835 0.046559 -0.065145 50 53 23
-0.046932 -0.056795 0.150655 65 62 63
0.097803 -0.036552 -0.052845 135 135 137
0.029912 -0.031375 0.051555 137 142 136
0.063517 -0.005112 0.016755 138 140 135
0.069809 0.013610 -0.089645 200 198 203
0.046256 -0.041763 0.025755 146 148 145
0.062843 0.032460 -0.046545 54 58 22
0.074355 -0.035982 -0.006145 149 151 148
0.038922 0.035279 -0.059645 99 109 37
0.102642 -0.018226 -0.050945 138 138 138
0.083733 0.022670 -0.001445 108 110 107
0.072602 -0.060478 -0.011845 149 150 146
-0.161579 -0.094630 0.042255 107 106 112
0.022994 0.040311 -0.072745 106 122 41
0.033561 -0.058422 0.037255 147 146 144
0.040520 0.045759 -0.061445 49 53 20
0.095955 -0.003715 -0.028045 138 140 137
0.063245 0.013794 -0.090445 205 204 209
-0.106014 -0.012305 0.097655 73 84 24
0.028582 0.037444 -0.065945 107 122 39
0.058225 0.039879 -0.048445 44 47 18
-0.057629 0.081614 0.007755 135 136 131
0.017148 -0.098615 0.045555 117 117 117
-0.115907 0.079308 0.009455 110 111 103
0.059367 0.023375 -0.086145 131 130 128
0.101014 -0.007872 -0.041845 133 133 133
0.060801 0.028827 -0.085245 128 127 125
-0.134150 0.048072 0.016855 56 61 20
0.056382 0.020374 -0.083745 135 135 133
-0.015753 0.036105 0.012655 106 119 37
0.012093 -0.023967 0.076955 126 128 123
0.096905 0.001946 -0.026945 139 139 134
-0.118514 0.050335 0.031055 59 65 21
0.093848 -0.007577 -0.029545 103 101 99
0.058551 0.023677 -0.085045 134 133 131
0.055439 0.027035 -0.080445 137 139 136
0.061226 0.022469 -0.088545 131 127 126
-0.118426 -0.128768 0.090855 127 125 131
0.107993 -0.001761 -0.051145 117 117 116
0.057469 0.018640 -0.085545 146 142 142
-0.043611 -0.020714 0.083355 98 110 49
-0.091048 -0.111878 0.115055 110 113 118
0.055953 0.023653 -0.082245 137 137 135
0.059850 0.011067 -0.083245 222 225 224
0.065618 0.014756 -0.093145 194 195 199
0.107665 -0.003335 -0.051445 121 121 121
-0.146959 -0.000388 0.067155 71 80 25
0.077728 -0.004407 0.000255 142 145 137
0.060561 0.031505 -0.083945 128 127 125
0.086795 -0.045163 -0.023045 150 150 148
-0.136732 -0.053826 0.082955 116 116 116
0.059327 -0.047421 0.007555 150 149 147
0.034400 0.035809 -0.061145 101 114 35
0.098724 -0.031448 -0.051345 137 137 137
0.093958 -0.031254 -0.042245 142 142 140
0.090755 -0.026439 -0.034045 145 143 146
0.075133 -0.054565 -0.013345 149 149 147
0.091889 -0.034568 -0.026845 138 136 137
-0.037138 0.083200 0.004555 85 86 78
-0.113209 0.034496 0.032255 58 66 18
0.090650 0.020435 -0.017345 104 103 102
-0.124043 -0.003957 0.084255 69 80 22
0.057162 -0.035186 0.014055 149 149 147
-0.050209 -0.073831 0.124055 97 99 103
0.109057 0.001335 -0.052245 109 109 111
-0.153940 -0.033035 0.066555 106 108 107
-0.016194 -0.099058 0.098055 127 127 125
0.091292 0.022427 -0.009145 58 58 56
0.033894 -0.012618 0.052255 134 133 129
0.088860 -0.052058 -0.027045 147 147 145
-0.079319 -0.011906 0.112155 62 77 17
0.106680 -0.007844 -0.052345 131 131 131
0.009843 0.057165 -0.046245 86 96 36
0.062038 0.031535 -0.046745 75 81 29
-0.159731 0.017043 0.054855 59 67 16
-0.099332 -0.137147 0.106555 122 123 128
0.057871 0.060262 -0.045945 35 36 18
-0.167745 0.009276 0.048955 63 71 20
-0.001843 0.044139 -0.007845 112 127 43
0.020437 -0.034518 0.062155 142 144 142
-0.015195 -0.014648 0.065955 105 117 54
0.101058 -0.022312 -0.049645 139 139 139
0.082269 0.008944 -0.076345 204 202 207
0.000346 -0.080423 0.079555 133 133 131
0.057938 -0.022036 0.017955 141 144 137
-0.082078 0.085128 -0.004045 125 126 121
0.056943 0.034906 -0.079445 132 134 131
0.043659 0.034565 -0.057545 98 107 31
0.076761 0.006146 -0.069145 216 217 219
0.086860 -0.000301 -0.010245 143 145 140
-0.111190 0.070991 0.031655 122 123 114
-0.034165 -0.107506 0.120055 117 117 117
-0.092276 0.022811 0.047255 78 88 22
0.090017 -0.044122 -0.026645 149 149 147
-0.063362 -0.023595 0.097655 74 84 23
-0.092846 -0.124839 0.112455 120 121 126
0.091636 -0.022850 -0.033745 144 144 144
0.065929 0.028312 -0.039045 106 119 40
-0.074630 0.086539 -0.008245 120 120 118
0.089769 0.001973 -0.057145 206 206 207
-0.088112 0.049879 0.055555 55 59 24
0.093038 -0.034954 -0.042445 141 141 139
0.073506 -0.053726 -0.011145 149 149 147
0.060805 0.030574 -0.084545 128 127 125
0.028099 0.039362 -0.070345 106 119 39
0.099582 -0.018530 -0.044645 141 141 141
-0.022359 -0.060279 0.120855 115 117 111
-0.132233 0.033587 0.017255 70 79 22
0.105721 -0.022050 -0.060245 129 129 131
0.092424 0.016884 -0.011345 65 67 62
-0.074204 -0.066932 0.119955 118 120 119
0.056990 0.029347 -0.081245 134 134 132
0.060368 0.015526 -0.092945 124 117 124
-0.168340 -0.011642 0.044255 76 84 37
0.059300 0.024712 -0.085445 121 120 118
0.098813 -0.032181 -0.051945 137 137 137
-0.025404 0.025956 0.037555 109 122 42
0.074041 0.042672 -0.035545 43 47 24
-0.134113 -0.107468 0.074655 121 120 125
0.108229 -0.002241 -0.051545 120 120 120
0.057636 0.023567 -0.084045 136 135 133
-0.150186 -0.072564 0.064155 110 111 113
-0.149218 -0.078993 0.064255 110 111 115
0.058530 0.043200 -0.047645 43 46 19
0.087944 -0.023232 -0.017545 149 149 147
0.065294 0.010409 -0.081145 220 221 225
0.076227 0.024083 -0.028045 116 126 57
0.040334 -0.040756 0.034155 145 147 144
0.065165 0.031905 -0.089145 114 108 113
0.056878 0.038006 -0.078345 132 132 130
0.067489 -0.042113 -0.000445 148 150 147
-0.157373 -0.052054 0.062155 106 107 109
0.072058 0.023247 -0.025245 121 135 56
0.102261 0.000157 -0.036345 131 131 129
-0.007030 0.044986 -0.009945 111 124 42
-0.025565 0.033745 0.016655 107 120 37
0.073244 0.010904 -0.082145 206 205 210
0.010779 0.038550 0.015655 108 121 41
-0.030554 -0.091966 0.120355 119 119 116
0.056086 0.014142 -0.087845 132 133 135
0.053798 0.011803 -0.085145 232 233 237
0.062408 0.029440 -0.086745 125 124 122
0.101869 -0.026570 -0.054745 135 135 135
0.105595 -0.000768 -0.044845 121 120 119
0.033271 -0.056888 0.037955 145 148 144
0.082746 -0.034971 -0.015145 150 150 148
-0.061491 0.011646 0.077155 83 94 28
0.032612 -0.008268 0.055355 123 128 122
-0.096072 0.069349 0.037355 126 127 119
0.007813 0.042653 0.000155 111 124 42
-0.071140 0.083449 0.002155 130 131 126
-0.081797 -0.112231 0.118455 112 113 117
0.063836 0.022434 -0.092045 120 114 116
0.013914 -0.068215 0.060555 135 137 134
0.065692 0.011154 -0.083045 218 218 220
-0.148795 -0.097072 0.060555 115 116 121
-0.066206 0.086064 -0.003645 127 127 125
0.030069 0.008714 -0.122345 100 104 100
-0.146844 -0.100847 0.061055 115 116 121
0.053698 0.024788 -0.079845 143 144 138
0.061546 0.034381 -0.084345 122 122 120
0.091456 0.007850 -0.016645 82 83 77
0.035465 -0.044065 0.039755 145 145 143
-0.050515 -0.113500 0.103855 57 58 61
0.058005 0.038419 -0.079445 126 126 126
-0.146649 -0.080554 0.066055 113 114 118
0.066184 -0.019551 0.010055 144 144 139
0.034833 -0.076844 0.029555 145 145 143
0.055404 0.053290 -0.047645 41 43 19
-0.138352 0.007128 0.073055 68 77 22
0.104411 -0.001556 -0.042145 127 127 123
0.058547 0.024693 -0.020745 75 87 24
0.038689 0.043976 -0.063645 48 52 19
0.060253 0.012519 -0.087045 216 214 217
-0.018045 0.044263 -0.008145 111 124 44
0.062738 -0.022882 0.012455 142 144 139
-0.132835 -0.019971 0.078155 79 88 31
0.072432 -0.032933 -0.002845 149 151 148
0.031948 -0.085920 0.029755 145 145 143
0.063505 0.024990 -0.090545 121 117 116
0.064465 0.024791 -0.091845 116 112 113
0.035176 0.033267 -0.053945 112 125 43
-0.151722 -0.087557 0.059655 115 114 120
-0.054453 -0.114699 0.076655 49 50 50
0.096895 0.004606 -0.062945 189 188 193
0.082360 -0.046524 -0.018345 150 150 148
0.046148 0.040655 -0.057945 50 51 16
0.005951 0.061647 -0.043445 86 99 36
0.054426 0.026245 -0.079845 144 145 140
0.090694 -0.031717 -0.036045 140 140 139
-0.142620 -0.004937 0.070355 72 81 24
-0.097484 0.086319 -0.012845 97 97 95
-0.157630 -0.033251 0.062755 107 107 107
0.083911 -0.028485 -0.014445 150 150 148
0.054115 0.037161 -0.075745 140 140 138
-0.000400 0.034188 0.025355 109 121 43
0.098340 -0.006188 -0.036545 104 103 101
0.095518 -0.035659 -0.046445 139 139 139
0.029918 -0.061658 0.041255 145 147 144
0.047337 0.009134 0.006555 122 131 86
0.095453 -0.024080 -0.041145 144 144 144
-0.082119 0.082798 0.002255 128 129 124
0.059092 0.032090 -0.082445 122 121 119
0.057959 -0.047154 0.009255 148 150 147
-0.130321 -0.104779 0.081255 118 119 123
0.081671 -0.000613 -0.003545 140 142 137
0.103649 -0.015306 -0.051545 137 137 137
0.061799 0.029985 -0.086045 126 125 123
-0.113778 -0.131759 0.094855 127 126 131
0.020147 0.047865 -0.017145 110 123 41
0.073744 -0.004254 0.005655 140 142 137
0.063253 0.015743 -0.095345 168 167 171
0.106264 -0.010599 -0.053445 133 133 133
-0.077672 -0.063905 0.130255 98 100 99
-0.009570 0.064248 -0.027445 92 101 44
-0.045903 -0.015490 0.082155 74 85 25
0.002856 0.047814 -0.018345 112 125 43
0.061890 0.015123 -0.093745 177 175 180
0.072258 0.042695 -0.037145 38 43 19
0.071651 -0.057524 -0.010445 148 148 146
-0.135396 0.015058 0.055855 91 101 38
0.069530 -0.003795 0.011155 139 141 136
0.062429 0.016567 -0.095345 108 108 106
-0.049523 0.085090 -0.000145 139 139 137
0.031808 -0.046878 0.043555 144 147 143
-0.134596 -0.020193 0.077055 77 88 27
-0.098866 -0.033003 0.108055 88 99 44
-0.103362 -0.080378 0.110555 121 122 124
-0.001867 -0.055722 0.091855 124 129 124
-0.035422 -0.013160 0.075155 58 70 13
0.061487 0.029615 -0.085845 127 126 124
0.055354 0.028929 -0.079645 137 137 135
-0.092654 0.058124 0.057255 13 14 9
0.048808 0.037681 -0.056345 50 52 15
0.082401 -0.000543 -0.004445 140 142 137
-0.141315 0.027322 0.024355 79 89 29
-0.090099 0.072243 0.029055 136 137 129
-0.083569 0.077830 0.013955 135 136 128
0.087354 0.009730 -0.008845 133 138 131
0.022166 -0.000913 0.034555 105 118 53
0.064680 0.006233 0.018255 128 130 125
0.058199 0.013066 -0.088545 216 217 219
0.066393 0.011820 -0.084945 212 212 214
-0.164623 -0.065883 0.041655 109 106 109
-0.097933 0.022302 0.044955 84 95 27
-0.164708 -0.073978 0.042255 107 106 111
0.006646 0.059391 -0.042745 86 98 36
-0.065748 0.028347 0.030155 101 115 37
0.057522 0.026740 -0.082845 134 134 132
-0.071729 0.072596 0.027855 131 134 123
0.041832 0.043662 -0.060645 48 52 19
0.072751 0.011097 -0.082745 206 205 210
-0.126877 0.043574 0.022355 57 62 21
0.055716 0.021248 -0.082845 136 136 136
-0.134719 0.072743 0.021755 106 105 104
0.061020 0.017087 -0.091745 97 90 88
-0.013775 -0.056222 0.109655 122 124 119
-0.066801 0.045692 0.036155 81 89 30
0.038605 0.032586 -0.002445 74 85 27
-0.165449 -0.020086 0.051255 100 100 102
0.061902 0.022622 -0.021745 123 137 51
-0.004691 0.023414 0.043155 66 75 20
-0.116668 -0.122677 0.094855 122 123 127
0.087892 0.024394 -0.007345 99 103 97
0.064857 0.021976 -0.093545 115 108 111
0.056493 0.029937 -0.080545 133 133 131
-0.131187 -0.101112 0.082355 117 118 122
-0.061099 0.023747 0.039955 102 114 39
0.081689 -0.010947 -0.006545 143 145 142
-0.053667 -0.083874 0.091055 36 37 39
0.001948 0.051653 -0.028545 112 124 42
0.062526 -0.052484 0.002755 148 150 147
0.066269 0.028985 -0.091745 103 101 104
0.065547 -0.051699 -0.000745 148 148 146
0.075246 0.008502 -0.075545 214 214 216
-0.125850 0.012565 0.066455 89 100 31
-0.105617 0.028339 0.037155 62 72 11
0.051096 0.033230 -0.052945 94 102 34
-0.133389 -0.056625 0.085655 115 117 119
0.090476 -0.017396 -0.019345 142 143 141
0.015322 0.039976 -0.067345 83 94 28
-0.149381 0.013933 0.064055 64 73 20
-0.103074 0.082146 0.002355 110 109 101
0.101104 -0.002334 -0.034745 134 134 132
0.053511 0.026780 -0.079145 144 145 138
-0.054156 0.082500 0.005855 139 137 133
-0.002542 -0.082837 0.083255 130 130 128
0.104057 -0.008764 -0.048445 131 131 131
0.076562 0.008227 -0.074745 215 215 217
0.062746 0.033512 -0.086145 120 118 121
0.088465 0.004775 -0.074645 139 137 142
0.026947 0.040248 -0.072545 101 114 34
0.089351 -0.041643 -0.024745 149 149 147
0.055726 -0.056461 0.009355 148 148 146
0.103167 0.002397 -0.053645 116 117 122
0.084883 -0.055175 -0.022745 148 148 147
0.019793 0.036426 -0.063545 118 132 47
0.055075 0.036464 -0.076745 137 137 136
-0.120420 0.012892 0.065055 92 103 36
0.057945 0.016180 -0.088145 130 126 125
-0.162172 -0.061342 0.048055 108 106 112
-0.080099 -0.094018 0.119755 101 103 102
-0.072659 -0.029636 0.106255 78 88 35
0.075163 -0.045353 -0.009645 149 151 148
0.061860 0.034684 -0.084745 124 121 122
0.022019 0.039648 -0.071345 111 124 43
0.106456 -0.019569 -0.058645 132 130 133
-0.165722 -0.028875 0.042055 101 103 102
0.007558 -0.103470 0.061355 136 136 134
0.099032 -0.030043 -0.051445 138 138 138
0.063306 0.031886 -0.086945 120 118 121
0.097452 -0.014673 -0.039445 140 140 138
0.062565 0.019142 -0.092045 120 116 115
-0.023485 -0.031787 0.130555 100 100 100
-0.072236 0.004418 0.097855 78 89 25
0.062097 0.022394 -0.089945 127 123 122
0.052576 0.022108 -0.015145 82 96 25
-0.026717 0.039592 0.002855 107 120 38
-0.098934 -0.108746 0.109755 122 123 128
-0.038185 -0.017252 0.077755 88 97 34
-0.164807 -0.026992 0.052755 105 105 105
0.043710 0.014517 -0.003645 124 138 53
0.094098 -0.040264 -0.046245 139 139 139
-0.054818 0.086736 -0.005345 141 141 139
-0.100468 -0.061764 0.114955 113 114 118
-0.012305 0.066196 -0.023145 90 99 42
-0.102899 0.085877 -0.009845 96 96 94
-0.086894 -0.034969 0.113955 82 92 44
-0.162748 -0.000487 0.048855 70 78 27
-0.103450 0.034562 0.040055 60 68 21
0.094859 -0.013027 -0.033945 141 141 141
0.070005 0.012552 -0.086745 202 201 206
0.032740 -0.045950 0.042655 144 146 143
0.061959 0.009813 -0.079945 225 226 228
-0.108215 0.080998 0.005355 117 117 109
0.102195 -0.023415 -0.052945 136 136 136
-0.061417 0.080670 0.009655 135 136 131
0.028006 0.042817 -0.072945 64 71 23
-0.035351 0.025997 0.035155 108 121 42
-0.120868 -0.062828 0.096155 117 118 120
0.100149 0.004339 -0.031445 131 134 131
