ply
format ascii 1.0
element vertex 1224
property float x
property float y
property float z
property uchar red
property uchar green
property uchar blue
end_header
0.088775 -0.023373 0.038932 46 53 111
-0.067344 0.005160 0.007232 134 155 167
0.042633 0.027414 0.054432 74 77 73
0.157923 -0.000113 0.088332 147 149 146
0.109727 0.033446 0.064032 70 68 69
0.016002 0.052160 0.027232 54 55 59
-0.037617 0.015759 -0.020868 157 188 17
-0.038793 -0.012939 -0.029268 122 174 64
0.018111 0.000850 0.011332 150 192 170
-0.038255 -0.011745 -0.028068 27 117 50
0.002629 -0.019057 -0.011368 169 154 105
0.000420 0.028265 0.008532 48 47 47
-0.026583 -0.012607 -0.021968 119 188 84
-0.032077 -0.016045 -0.026868 136 185 85
-0.013195 0.013723 -0.002268 17 32 58
0.008359 -0.050675 0.016232 85 86 66
0.011283 -0.050147 0.015832 101 94 69
-0.095201 0.018192 0.008332 92 102 115
-0.007484 0.001466 0.001632 0 25 77
-0.017950 0.040746 0.004032 36 29 80
-0.025883 -0.017144 -0.023668 144 194 81
-0.044892 0.016802 -0.024068 39 47 136
0.062036 -0.065163 0.032632 60 53 53
-0.009922 0.006840 -0.002768 118 150 199
-0.025638 -0.013801 -0.021568 49 145 77
-0.063619 0.006171 0.006332 122 143 150
0.058996 0.022149 0.046632 121 89 103
0.010874 0.003013 0.005532 41 67 71
0.033300 0.054453 0.024532 55 56 58
0.064956 0.051033 0.031132 68 68 70
0.006711 -0.027271 -0.011468 119 82 20
-0.088539 0.008912 0.006032 111 125 136
-0.008726 0.013153 -0.004368 120 149 199
-0.017162 -0.005156 -0.060668 147 169 183
-0.040473 -0.018166 -0.033268 112 156 65
0.039464 -0.058602 0.021932 62 58 55
-0.047004 -0.003839 -0.027668 57 142 70
0.116335 0.018165 0.066032 108 99 82
0.094604 -0.025112 0.042032 33 38 93
-0.017170 -0.005141 -0.060668 142 159 175
-0.022977 -0.020787 -0.022868 12 57 29
-0.017169 -0.005091 -0.060668 41 40 36
-0.004228 -0.022530 -0.015068 110 83 66
-0.038197 -0.021297 -0.033968 114 167 69
0.071118 0.046069 0.039532 64 64 66
0.110810 0.014226 0.063932 106 103 81
-0.032755 -0.021634 -0.031068 48 138 66
-0.026288 0.006757 -0.000968 12 64 33
-0.036014 0.024179 -0.015868 91 113 108
-0.037543 0.015305 -0.020568 100 130 161
0.046152 0.005723 0.021232 160 175 178
0.049980 -0.027585 0.014832 163 174 172
-0.029788 -0.004948 -0.023168 116 145 147
-0.020159 -0.007436 -0.018068 193 231 232
-0.012845 0.017878 -0.006368 105 128 138
-0.009215 -0.024161 -0.017668 170 153 89
0.039683 -0.035630 0.014132 74 83 97
0.079124 -0.029117 0.024932 205 176 157
0.023268 -0.025460 -0.001768 193 167 102
-0.037445 -0.013223 -0.028368 49 134 60
0.040091 0.026848 0.052432 78 84 85
-0.050977 0.002803 0.012932 90 109 123
-0.044981 -0.013247 -0.032568 77 149 57
0.004098 0.005544 0.004832 41 100 53
-0.050256 0.011336 -0.014568 44 54 121
-0.039202 -0.020772 -0.034168 112 163 65
0.000759 0.012903 -0.000168 41 61 158
0.078711 0.050105 0.034032 61 61 61
0.090277 -0.019202 0.035032 127 144 171
-0.044921 -0.004584 -0.027068 91 172 73
-0.028717 0.025582 -0.010968 34 37 50
0.074095 0.042145 0.046632 63 64 66
0.028528 -0.004077 0.022332 96 126 115
-0.048066 -0.002998 -0.028268 180 209 215
-0.029662 -0.010037 -0.022468 119 58 12
-0.028299 -0.017403 -0.025168 136 191 81
-0.007864 -0.025810 -0.020368 165 178 151
0.019109 -0.053402 0.017332 54 55 50
-0.045603 -0.012197 -0.032268 44 95 18
0.091177 0.046154 0.040832 59 59 59
0.000408 0.006099 0.001032 102 133 177
-0.006369 -0.013661 -0.012168 177 184 140
-0.079082 0.003599 -0.006468 121 135 148
-0.003179 0.004447 0.000232 69 127 191
-0.037406 -0.018844 -0.032068 114 162 60
0.023624 -0.022680 -0.003168 214 207 168
-0.003708 -0.024227 -0.015368 190 184 136
-0.024829 0.028538 -0.005668 17 7 72
-0.044783 0.014793 -0.020368 44 65 89
-0.027588 -0.015467 -0.023868 135 185 71
-0.023651 -0.021914 -0.025068 55 102 98
0.060778 0.052245 0.028932 68 68 70
-0.004037 0.014621 -0.002568 39 46 134
-0.009229 -0.029095 -0.019468 152 142 98
-0.002035 -0.027891 -0.017268 161 158 130
-0.027265 0.028130 -0.007168 33 36 44
-0.037848 0.019253 -0.019968 50 59 41
-0.012457 0.019190 -0.006668 73 90 106
-0.017110 -0.005135 -0.060668 98 123 133
0.035072 -0.029229 0.003832 158 180 192
0.034709 -0.031435 0.002932 157 175 190
-0.035305 -0.012388 -0.025868 0 23 10
0.036892 -0.056085 0.024832 70 65 64
-0.016068 -0.029363 -0.022968 91 154 78
0.035989 -0.036518 0.009432 117 133 126
-0.061047 0.006377 0.009132 113 136 147
-0.039739 -0.021605 -0.034768 94 157 59
0.003475 0.053214 0.022532 44 47 55
-0.017163 -0.005083 -0.060668 37 36 31
-0.047006 0.014380 -0.020268 28 38 126
-0.044017 0.006172 0.015832 83 105 115
0.034821 0.030801 0.029432 143 137 145
-0.040322 0.007078 -0.005668 11 18 72
0.003336 -0.051711 0.017732 102 103 92
0.094404 -0.060203 0.036732 151 124 104
-0.079726 0.018530 0.010132 99 111 126
0.067067 0.051788 0.029832 67 67 69
0.158556 0.019284 0.087432 75 73 71
-0.070486 0.005325 0.006632 134 154 165
0.109434 0.010922 0.067832 118 101 77
-0.017162 -0.005140 -0.060668 143 160 176
0.038937 0.023308 0.039232 56 46 29
-0.008279 -0.020246 -0.016668 193 193 162
0.024724 0.051099 0.029832 61 59 60
-0.040639 -0.014933 -0.031368 111 171 67
0.107479 -0.073095 0.042832 41 32 30
-0.029891 -0.020334 -0.028168 108 162 69
-0.026206 -0.005986 -0.021368 110 149 140
0.146739 0.023948 0.081332 69 68 64
-0.034281 0.012038 -0.014568 62 82 169
-0.038542 -0.012194 -0.028568 107 163 61
-0.032674 -0.013491 -0.025968 93 156 62
-0.020247 -0.007604 -0.017968 200 241 241
0.024243 -0.028410 -0.003068 188 185 134
-0.043947 0.002659 0.015632 79 103 113
-0.043486 -0.004308 -0.026268 41 144 73
-0.028502 0.022248 -0.012668 97 125 140
-0.045553 0.013183 -0.017068 18 32 126
-0.009353 -0.011218 -0.011768 208 186 132
-0.038126 -0.015601 -0.030568 86 157 60
-0.003702 -0.025227 -0.016768 196 189 140
-0.045048 -0.013509 -0.032768 76 151 60
-0.042114 -0.011712 -0.029968 113 164 61
0.039225 -0.018930 0.007532 154 167 173
-0.030542 -0.020807 -0.028968 126 173 71
-0.039334 0.021500 -0.019368 71 82 76
0.075878 -0.035750 0.023032 75 25 25
0.016874 -0.013604 0.000032 130 145 146
0.006397 0.034807 0.021132 124 134 133
0.026645 -0.027323 -0.000668 173 158 121
0.001974 0.038507 0.014132 62 59 67
0.037573 -0.022480 0.008232 179 196 200
-0.006401 0.016088 -0.003968 65 76 120
-0.020788 0.035554 0.000132 42 41 56
0.087844 0.048399 0.036832 61 61 61
-0.030432 -0.021803 -0.029368 132 177 76
-0.044429 0.019281 -0.023368 62 71 111
0.007892 0.032846 0.020932 61 76 78
-0.000243 0.037296 0.012532 50 49 68
-0.033034 0.010975 -0.011368 52 70 66
-0.030473 0.018536 -0.015568 55 66 43
0.092457 -0.009412 0.040232 152 170 185
-0.049375 0.002716 0.013432 86 105 119
0.025778 -0.015622 0.001732 153 163 166
0.011442 -0.013979 -0.005568 177 187 187
-0.042006 -0.013338 -0.030868 121 48 27
-0.045854 -0.014267 -0.033368 65 145 56
-0.017386 0.016034 -0.007368 50 122 76
-0.043913 -0.005160 -0.026968 130 187 71
0.047556 0.004704 0.021832 174 193 199
-0.042381 0.019341 -0.022268 62 72 89
0.097910 -0.022798 0.037832 29 35 101
-0.029806 0.003778 0.007532 13 52 37
0.017880 0.010337 0.008432 48 101 48
-0.021402 0.037055 0.000632 18 11 62
-0.027799 -0.015116 -0.023868 135 187 76
-0.018072 -0.004479 0.012832 15 22 61
-0.045320 -0.010650 -0.030968 80 141 53
-0.053082 0.009461 -0.010768 31 40 111
-0.095011 0.034200 0.012732 32 31 36
-0.020638 0.008618 -0.004068 39 152 82
-0.017167 -0.005171 -0.060668 150 169 184
-0.004472 -0.020504 -0.014368 185 191 162
-0.037426 -0.014012 -0.029068 115 175 63
-0.031131 -0.004107 -0.023768 126 153 156
0.058343 -0.004867 0.022132 141 162 182
-0.019861 -0.026041 -0.024968 77 157 75
-0.044204 0.021012 -0.022068 50 69 80
-0.019090 -0.022634 -0.021468 0 53 20
-0.044357 -0.013496 -0.032268 75 132 45
0.013050 -0.027298 -0.008768 216 204 159
-0.041831 0.015900 -0.021868 24 39 132
-0.038271 -0.004559 -0.025568 139 189 177
-0.051598 0.011789 -0.014768 1 10 75
0.044590 -0.000978 0.018232 152 172 186
-0.095088 0.018682 0.008232 88 96 107
0.103049 -0.021841 0.038832 187 207 227
0.010470 0.004781 0.003132 79 151 86
0.105991 -0.063369 0.040632 147 118 78
-0.044738 -0.002542 -0.027968 163 201 197
-0.080627 0.009744 0.006932 113 130 140
-0.038506 0.006874 -0.004668 19 28 68
-0.031969 -0.012678 -0.024468 6 60 27
-0.077105 0.031621 0.013732 68 80 91
-0.041076 -0.011620 -0.029568 105 161 59
-0.018385 0.016499 -0.007968 49 118 80
-0.007025 0.005906 -0.001268 103 144 194
-0.028799 -0.023591 -0.029268 128 177 78
-0.008201 -0.007330 0.014732 39 53 67
0.053460 -0.010808 0.023832 24 29 96
0.092271 -0.071012 0.041132 57 52 48
-0.017163 -0.005083 -0.060668 38 37 32
0.004257 -0.026686 -0.012568 93 59 5
-0.021073 -0.026100 -0.025668 65 133 68
-0.034436 -0.016451 -0.028468 96 143 94
0.048449 0.045148 0.041932 61 62 64
-0.033991 -0.023148 -0.032668 40 131 59
0.064901 0.051942 0.029532 67 67 69
-0.046785 0.016176 -0.021768 16 22 88
-0.043491 -0.014254 -0.032268 93 157 55
-0.047458 -0.005884 -0.028968 40 129 61
0.127407 0.036452 0.059032 62 62 60
0.041038 -0.058515 0.023532 65 64 60
-0.073849 0.007982 0.007132 129 147 159
0.028008 0.026477 0.028832 119 129 132
-0.014491 -0.017592 -0.016868 47 124 39
-0.042323 -0.009992 -0.028968 74 163 81
-0.030010 0.024224 -0.013168 55 58 85
0.069984 -0.015219 0.024432 25 45 130
0.078437 0.051894 0.030832 61 61 61
-0.056795 0.008366 -0.008768 16 24 82
-0.011618 -0.020784 -0.016568 55 146 61
0.118127 0.009401 0.065232 156 134 114
-0.046096 -0.006019 -0.028468 120 169 71
0.136680 0.029534 0.071732 66 66 64
-0.038911 -0.017818 -0.032168 73 140 45
-0.046307 -0.007080 -0.029168 73 155 61
0.048439 -0.060801 0.024832 62 56 56
-0.040439 -0.021198 -0.034868 95 150 59
0.135991 0.025999 0.078432 67 66 64
-0.024806 -0.005087 -0.020868 93 121 131
-0.040397 -0.007369 -0.026568 95 151 51
0.067162 -0.066441 0.036932 69 59 57
-0.018877 -0.013353 -0.017668 123 185 70
0.105337 -0.007033 0.046832 194 193 191
-0.047701 -0.013027 -0.032968 60 134 70
0.103202 -0.062299 0.039432 122 99 72
0.080529 -0.002619 0.035832 185 204 211
0.061563 -0.023576 0.063232 70 80 86
0.004041 -0.052478 0.017032 67 67 60
-0.013185 0.011831 -0.003768 64 84 115
-0.051860 0.012313 -0.014768 10 17 79
-0.034207 0.021203 -0.016568 88 115 137
-0.042147 -0.012853 -0.030768 84 92 28
0.063346 -0.048749 0.021132 44 25 27
-0.007160 0.002390 0.001432 10 45 94
0.017377 0.039766 0.024032 106 140 134
0.081236 -0.022195 0.036532 43 45 100
-0.045902 -0.014872 -0.033568 84 164 73
-0.017163 -0.005161 -0.060668 147 169 183
0.011981 0.033840 0.018532 89 128 122
0.034081 -0.030124 0.006232 96 116 114
-0.047299 -0.014998 -0.034068 126 181 120
-0.046164 -0.018571 -0.035368 67 133 92
0.032599 0.032731 0.029132 103 71 76
-0.037398 0.013057 -0.016568 33 58 131
0.005689 -0.012993 -0.007968 217 216 211
-0.009491 0.017078 -0.005268 78 93 124
-0.017154 -0.005135 -0.060668 135 152 168
0.035443 -0.057875 0.020332 67 61 57
0.103007 -0.067281 0.046032 130 103 80
-0.046972 -0.014852 -0.033768 87 169 73
-0.030849 -0.013618 -0.024868 67 146 57
-0.005188 0.002336 0.000032 87 142 198
0.085868 -0.023678 0.072432 61 66 68
0.013693 -0.010771 0.034032 43 56 56
-0.012642 -0.007046 0.014832 46 65 87
0.023525 0.038785 0.027232 68 98 98
0.027815 0.031341 0.025832 140 149 157
-0.032185 -0.022143 -0.030968 68 150 65
0.020389 -0.000198 0.012032 103 158 145
-0.003957 -0.015260 -0.012468 186 202 169
-0.002434 0.001274 0.000932 121 151 212
-0.028434 -0.008849 -0.021168 131 186 74
0.028811 -0.005023 0.023432 75 98 97
-0.028774 0.006184 -0.002168 14 93 48
-0.069851 0.004532 0.004732 136 158 169
-0.017169 -0.005174 -0.060668 149 171 184
-0.030787 0.012186 -0.008868 37 150 77
-0.022711 -0.015026 -0.019568 3 48 16
-0.037617 0.017881 -0.020868 133 141 103
-0.030979 -0.011628 -0.024168 133 194 84
-0.061648 -0.002194 -0.014768 140 165 177
0.010164 -0.025187 -0.009368 162 168 108
-0.037515 -0.009302 -0.026168 114 177 77
-0.074569 0.023353 0.012132 76 86 96
-0.086524 0.024560 0.011032 80 90 102
-0.017165 -0.005177 -0.060668 125 177 151
-0.011386 0.000414 -0.000768 24 75 127
-0.020597 -0.008276 -0.017668 190 242 243
0.086476 -0.069492 0.049832 87 63 52
-0.041415 -0.018802 -0.034068 103 149 51
0.089423 0.053530 0.027532 64 64 64
0.057708 0.000509 0.024832 144 168 180
-0.004455 -0.003911 0.005732 10 21 68
0.001528 -0.051887 0.017032 65 65 58
-0.008031 -0.012646 -0.012168 185 179 132
0.120620 -0.014805 0.051632 93 91 88
0.068330 0.051422 0.030632 68 68 70
0.070955 0.052950 0.029232 61 61 63
-0.017924 0.001519 0.002132 63 81 124
-0.043747 -0.013906 -0.032168 82 143 49
0.053889 0.046887 0.037832 66 67 68
-0.024770 -0.020140 -0.024268 105 194 108
-0.040471 -0.004754 -0.025068 44 138 60
-0.023585 0.026921 -0.005568 94 106 73
-0.005093 0.002900 -0.000068 119 169 225
-0.035028 -0.002645 -0.024968 90 109 123
0.108023 0.046061 0.041032 69 69 69
-0.026286 -0.000058 0.018532 32 49 75
-0.047952 0.006645 0.015132 65 83 99
-0.024978 -0.011926 -0.020768 134 191 89
0.003077 0.036880 0.014532 38 23 46
-0.009055 0.016062 -0.005168 58 58 126
-0.028660 0.022556 -0.012768 94 122 137
0.016870 -0.031695 -0.008668 194 180 138
0.098486 0.039927 0.052332 73 72 77
0.011832 0.009474 0.005132 68 133 82
-0.040704 -0.016405 -0.032168 45 103 55
0.081594 -0.033095 0.027732 84 27 27
-0.031514 -0.005091 -0.023868 155 196 186
-0.020611 -0.019745 -0.022768 68 166 67
-0.007300 0.006638 -0.001568 127 156 210
-0.019396 -0.008312 -0.017168 239 255 248
-0.041222 0.014814 -0.019368 72 93 30
-0.041242 -0.003731 -0.026568 183 225 218
-0.041018 0.006745 -0.005268 10 17 71
0.102540 0.015247 0.061532 86 100 97
-0.072006 0.013039 0.009732 114 130 140
-0.036963 -0.009271 -0.025868 81 170 68
0.068985 -0.019536 0.034832 62 69 82
0.010925 -0.016372 -0.006168 166 176 147
0.016240 -0.014599 -0.004368 163 170 174
-0.026876 0.003976 0.006132 12 53 37
0.110803 0.042980 0.047132 63 63 63
0.016189 -0.022796 -0.005868 232 212 156
-0.092313 0.019111 0.008332 87 97 109
-0.007595 -0.027281 -0.021168 173 164 110
-0.025943 -0.011076 -0.020868 141 192 83
-0.038321 0.007011 -0.005968 59 70 111
-0.038698 -0.003057 -0.026168 130 161 163
-0.026964 -0.014258 -0.022768 39 125 43
-0.028365 -0.004438 -0.022668 88 111 115
-0.019623 -0.006122 -0.005068 118 144 160
-0.010048 0.044401 0.010532 17 13 54
-0.045178 -0.016072 -0.033668 33 81 56
0.025011 0.011304 0.012132 125 137 133
-0.074001 0.001946 -0.007268 128 144 157
-0.077742 0.018462 0.010332 92 102 117
-0.003520 0.011332 -0.001268 97 148 193
0.001349 0.031431 0.011132 28 27 50
-0.014461 -0.021246 -0.019068 122 186 76
0.062259 -0.013928 0.027732 115 136 153
0.042073 0.022466 0.041032 93 70 51
0.081828 0.049795 0.034432 60 60 60
-0.036515 -0.013298 -0.028068 34 129 60
0.002191 -0.019224 -0.011768 196 194 141
-0.040101 -0.020346 -0.034468 114 148 60
-0.035534 0.018841 -0.019068 84 91 57
0.002426 0.011652 0.000732 79 103 177
0.163988 0.012445 0.089132 148 140 123
-0.050456 0.009852 -0.011968 31 39 126
0.012859 -0.009369 0.027332 56 71 68
-0.042985 -0.008545 -0.028368 109 175 66
-0.017381 0.018171 -0.008268 112 143 152
-0.024763 -0.021936 -0.025868 66 134 51
0.064820 -0.013711 0.027232 140 164 187
0.034421 -0.030133 0.003632 153 176 187
-0.018729 -0.007313 -0.017268 237 250 250
-0.096481 0.025369 0.008532 38 33 42
-0.057855 0.008228 0.011232 118 142 152
-0.012450 -0.029496 -0.020868 99 170 85
-0.043276 0.019304 -0.022668 32 45 89
-0.029968 -0.011075 -0.023268 127 183 72
-0.064787 0.030509 -0.007568 12 10 32
0.010372 0.012675 0.004932 88 122 101
-0.016143 -0.013402 -0.016068 140 192 76
-0.049698 0.006841 -0.006268 35 52 93
-0.037942 -0.013960 -0.029468 125 177 67
-0.036226 0.001761 0.020432 67 92 99
-0.026613 0.006964 -0.001068 10 65 35
0.103613 -0.072765 0.043232 45 38 34
-0.032430 0.020624 -0.015368 85 100 89
-0.052776 0.002706 0.012032 89 108 122
-0.016770 -0.021577 -0.020768 125 200 93
0.051632 0.026914 0.038632 119 77 45
0.082693 0.052672 0.029332 59 59 59
-0.005323 0.003362 -0.000068 112 158 211
0.048831 0.049700 0.033032 69 70 72
0.044179 -0.013015 0.028832 29 29 59
0.051768 -0.061822 0.027432 63 59 58
-0.017659 -0.024399 -0.022268 128 173 70
-0.025653 -0.026153 -0.028268 112 176 88
0.041936 0.051271 0.029832 59 61 63
-0.039302 0.017214 -0.021768 135 160 5
0.034134 -0.027981 0.004832 158 174 184
-0.036237 -0.008298 -0.024868 45 137 65
0.015008 -0.020166 -0.005568 171 160 104
-0.028696 -0.004657 -0.022768 127 154 154
-0.035759 0.022108 -0.016868 84 110 128
0.006155 -0.029964 -0.014968 198 189 130
-0.054583 0.001751 0.010732 86 108 122
0.104496 0.046154 0.040832 66 66 66
-0.016021 -0.024648 -0.021168 126 174 72
-0.031296 -0.012622 -0.024068 50 129 66
0.034176 -0.030378 0.003632 154 173 181
0.081477 0.055031 0.024432 61 61 61
0.150102 0.025006 0.078732 74 74 72
0.064880 0.003013 0.029132 141 139 141
-0.025119 -0.020773 -0.024568 0 65 27
0.009908 -0.025555 -0.009668 157 159 75
0.087748 -0.002506 0.040132 181 184 173
0.050502 0.049998 0.032632 71 72 74
-0.026886 0.022405 -0.012068 102 124 138
-0.009578 -0.018159 -0.014868 154 141 90
-0.032979 -0.015014 -0.026868 132 182 81
-0.040381 -0.021210 -0.034768 95 150 59
-0.037806 0.008448 -0.008068 12 23 84
-0.041673 -0.012551 -0.030368 118 167 67
0.104950 0.046656 0.039932 60 60 60
-0.024343 0.018627 -0.010468 101 168 129
0.071891 -0.066648 0.032732 65 56 55
-0.024084 0.005322 0.002732 8 54 33
0.004270 0.036242 0.015732 50 55 73
0.084579 0.052967 0.028732 59 59 59
-0.065236 0.004428 0.006632 130 153 161
0.003508 0.011989 0.001532 32 55 137
-0.029747 -0.016226 -0.025468 134 104 55
0.093229 0.051546 0.030832 61 61 61
-0.005107 0.022661 0.002932 106 120 103
-0.002842 0.018115 -0.001268 74 79 102
-0.045954 -0.014820 -0.033568 85 162 73
-0.031930 0.009986 -0.006868 12 106 48
0.046095 -0.012039 0.027232 26 28 79
-0.017164 -0.005089 -0.060668 44 43 39
0.044006 0.046624 0.039132 61 62 68
-0.041724 -0.021739 -0.035468 90 147 62
-0.002202 -0.013560 -0.010568 175 180 140
0.010051 -0.018284 -0.008068 187 198 162
-0.047109 -0.005098 -0.028368 70 147 63
-0.038494 -0.016743 -0.031168 83 178 101
0.067181 0.049319 0.034232 67 67 69
-0.001883 -0.027747 -0.017068 159 151 141
0.002718 -0.030925 -0.015268 178 160 128
0.006620 -0.024713 -0.011068 157 162 85
0.090091 0.044743 0.043532 62 62 62
-0.094759 0.028656 0.011332 45 46 51
-0.027344 -0.024066 -0.028768 126 177 81
-0.045250 -0.006212 -0.028168 126 179 66
-0.042378 0.010437 -0.012168 136 160 38
-0.040381 0.018586 -0.022068 121 138 98
-0.081261 0.014762 0.008732 100 116 127
0.111642 0.023843 0.066632 82 79 74
-0.036381 -0.021471 -0.033068 112 164 66
-0.035968 0.010682 -0.012268 56 77 147
-0.001325 0.007460 0.000232 129 185 231
-0.033783 -0.023320 -0.032568 35 126 56
-0.061701 0.008170 0.006132 116 139 148
0.064823 -0.035306 0.020132 62 42 42
0.054681 -0.034921 0.012732 165 182 204
-0.027771 -0.016752 -0.024668 79 134 51
-0.007758 -0.019357 -0.015768 174 157 100
-0.036770 -0.016458 -0.030268 62 163 63
0.023724 0.003250 0.008532 50 108 49
0.040401 0.029072 0.031232 149 132 139
0.001347 0.007508 0.001032 116 156 184
-0.077283 0.025195 0.012232 72 81 90
-0.032830 -0.007884 -0.023068 139 190 78
0.069888 0.046857 0.038132 65 65 67
-0.030896 -0.007809 -0.022068 143 192 78
-0.041985 -0.005621 -0.026168 119 181 67
-0.034373 0.003757 0.017632 35 58 52
0.001880 -0.021947 -0.010868 199 166 110
0.076262 0.021813 0.049432 140 129 156
0.045988 0.001082 0.019632 146 165 171
-0.015294 0.003333 -0.001868 14 35 101
0.083648 0.016003 0.059232 85 100 122
0.008771 -0.015633 -0.006768 165 172 143
0.105687 0.039774 0.053032 61 61 61
-0.037331 -0.009931 -0.026368 58 154 62
0.127366 0.033424 0.064732 68 68 66
-0.077080 0.003802 -0.003868 130 144 157
-0.021780 -0.025270 -0.025368 65 122 70
-0.033422 0.006690 -0.001868 6 69 34
-0.040841 -0.015496 -0.031668 106 172 67
-0.022403 0.008874 -0.004768 35 149 77
-0.016073 -0.028806 -0.023168 114 166 83
-0.053249 0.007947 -0.008468 91 120 94
-0.004038 0.012036 -0.001568 16 32 94
-0.040158 -0.016648 -0.031968 1 65 18
-0.017163 -0.005137 -0.060668 140 157 173
0.038802 -0.019537 0.007332 165 176 184
-0.039659 -0.018952 -0.033368 99 142 51
-0.024284 -0.020972 -0.024268 2 66 32
-0.031097 0.012425 -0.013768 26 39 127
-0.026532 -0.011865 -0.021568 132 188 83
0.026937 0.038344 0.028732 139 152 152
-0.088953 0.044063 0.011832 27 26 24
0.009616 0.042999 0.022932 107 131 131
-0.038282 0.010098 -0.011168 15 27 106
-0.017161 -0.005157 -0.060668 147 169 183
-0.024095 -0.016499 -0.022268 45 141 72
0.041446 -0.057429 0.026532 67 68 64
0.085072 -0.065874 0.050132 61 44 36
-0.037727 -0.020049 -0.033168 110 155 64
-0.034875 0.010287 -0.011468 64 79 154
0.072658 -0.016118 0.025132 44 55 125
0.037866 0.027727 0.029932 163 159 167
-0.091247 0.016068 0.007832 94 106 120
-0.063037 0.031276 -0.008068 7 7 34
0.065026 -0.026906 0.020332 203 197 188
-0.015084 -0.024457 -0.020468 102 165 64
-0.027854 -0.011616 -0.022168 130 189 78
-0.033943 -0.011362 -0.025668 129 208 101
0.045785 -0.022351 0.012132 178 196 205
0.072529 0.038654 0.052932 66 65 69
0.050238 0.003037 0.022432 156 178 190
-0.092695 0.038733 0.014032 32 30 37
0.005790 -0.013194 -0.007968 208 211 203
-0.059101 0.007250 0.010332 127 152 159
0.013838 -0.023285 -0.005968 206 164 72
0.021901 -0.027153 -0.003768 150 148 83
0.021644 -0.021660 -0.003668 200 196 158
0.054757 -0.008842 0.019532 24 28 101
-0.010054 -0.009219 -0.013368 148 172 175
-0.019604 0.011850 -0.005468 63 136 65
-0.001016 0.001563 0.001432 66 95 164
-0.039121 -0.012409 -0.028968 120 172 62
0.016826 0.009639 0.007632 51 120 57
-0.007963 -0.026907 -0.020468 177 195 179
0.020315 -0.034783 -0.007568 199 197 161
0.090499 -0.028433 0.049432 30 28 60
-0.042245 -0.018749 -0.034368 112 160 61
-0.086838 0.020844 0.009832 92 102 114
0.055725 0.042827 0.045432 67 67 70
0.057272 -0.010842 0.024332 19 26 100
0.000621 0.038123 0.013232 64 62 70
-0.030254 -0.011043 -0.023468 126 181 73
0.134673 0.030191 0.070432 67 67 65
-0.007014 0.007809 -0.001868 127 182 228
0.101328 -0.073199 0.048032 41 33 31
-0.094099 0.036210 0.013332 33 34 39
0.146962 0.014601 0.080132 152 140 129
0.068351 -0.018292 0.028832 28 35 100
-0.005921 0.022683 0.002432 95 107 90
-0.017167 -0.005167 -0.060668 149 168 183
-0.028502 -0.007753 -0.020668 104 177 71
-0.040055 -0.021724 -0.034968 94 154 61
-0.009450 -0.013884 -0.012968 179 177 129
-0.014733 -0.007944 -0.015068 150 183 194
-0.036756 -0.022158 -0.033568 82 154 62
0.067337 -0.015616 0.025032 35 46 124
0.116689 0.006574 0.071132 122 91 76
0.014471 0.005635 0.004632 51 115 56
0.048237 -0.030177 0.011932 142 163 167
-0.045276 -0.010109 -0.030468 30 102 46
-0.091635 0.045017 0.010832 30 29 27
-0.034307 -0.010325 -0.025468 86 160 71
0.072911 -0.067705 0.035732 50 45 39
0.032390 -0.003944 0.020632 109 134 137
0.037304 -0.035311 0.002432 38 39 100
-0.011618 -0.019752 -0.015868 30 125 55
-0.020556 0.010934 -0.005368 47 157 84
0.008952 -0.052539 0.017132 67 66 61
0.076003 -0.036637 0.022432 76 27 21
-0.069450 0.032727 -0.005968 4 4 7
-0.017161 -0.005157 -0.060668 147 169 183
-0.034150 0.013952 -0.017768 15 35 137
0.037548 0.031073 0.031432 96 86 94
0.014515 0.029750 0.022432 157 176 184
0.008558 0.013444 0.004132 83 119 98
-0.021334 0.038598 0.001332 23 17 61
-0.038634 0.018987 -0.020668 74 90 18
-0.021258 0.006301 0.000232 3 76 36
-0.039021 0.023740 -0.017668 91 116 79
-0.025151 0.022050 -0.011368 103 120 136
-0.017165 -0.005130 -0.060668 128 142 155
-0.085713 0.018097 0.009232 91 103 115
-0.016994 -0.005159 -0.060668 81 93 99
0.037173 -0.014813 0.051732 78 92 101
0.099593 0.046656 0.039932 71 71 71
0.046993 -0.060477 0.026632 69 65 64
0.002216 -0.028194 -0.013968 167 155 100
0.006920 -0.027603 -0.012368 159 141 78
0.043840 -0.005912 0.016332 36 52 139
-0.038888 0.020965 -0.019468 68 84 3
0.056211 0.009337 0.031332 121 123 119
-0.023265 0.028936 -0.004668 18 9 64
-0.082761 0.030527 0.012932 69 77 88
0.000184 0.011291 -0.000168 132 163 199
-0.016369 -0.019679 -0.019468 76 118 42
0.038048 -0.007679 0.016632 64 75 131
-0.037441 0.018015 -0.020768 133 148 84
0.043980 0.050676 0.030832 65 66 68
-0.034025 -0.022442 -0.032068 50 134 57
0.052789 0.026941 0.038132 135 95 61
-0.047132 -0.018035 -0.035568 144 169 181
-0.048614 0.002454 0.013632 88 107 121
-0.013655 -0.027049 -0.020768 137 184 82
-0.047776 0.014667 -0.020468 8 16 103
-0.003498 0.010794 -0.001168 80 130 181
0.024946 0.003178 0.009032 49 103 46
0.060838 0.000442 0.026332 132 154 167
0.086496 0.045538 0.041932 62 62 64
-0.023768 -0.021867 -0.025168 89 137 127
0.075692 0.001881 0.034632 156 148 140
0.028481 0.050116 0.032232 61 64 69
0.088300 -0.034435 0.030332 86 28 25
-0.017168 -0.005112 -0.060668 75 79 89
0.016749 0.034748 0.021332 93 116 121
-0.036155 -0.011304 -0.026368 6 82 35
0.109024 0.045144 0.043132 65 65 65
0.099374 -0.072350 0.048332 40 34 31
-0.042522 -0.014028 -0.031768 118 171 63
-0.006910 -0.055812 0.016932 64 60 50
-0.017163 -0.005083 -0.060668 39 38 33
-0.029841 -0.000986 0.021032 11 21 50
0.065423 -0.043253 0.015432 109 89 77
-0.004490 -0.005725 0.011332 22 34 50
0.041373 -0.022404 0.010632 193 219 228
-0.037524 -0.018095 -0.031668 79 141 63
-0.028913 -0.005018 -0.022768 110 142 139
0.027633 0.008562 0.013032 67 109 73
-0.035863 -0.003623 -0.025568 116 144 141
-0.003033 -0.054103 0.016332 61 62 52
0.036238 -0.007074 0.015932 24 33 97
-0.049422 0.008242 -0.008868 21 28 97
0.017001 -0.026484 -0.006568 203 196 140
-0.017158 -0.005163 -0.060668 137 178 174
-0.044867 -0.020702 -0.035668 52 127 53
0.016492 0.031489 0.020332 170 189 194
0.053287 -0.062391 0.033032 69 65 64
-0.006698 -0.018096 -0.014468 173 179 171
-0.039278 0.014743 -0.020468 79 99 174
-0.025524 0.025987 -0.007868 36 42 40
-0.017165 -0.005143 -0.060668 143 160 178
-0.035833 0.017858 -0.019968 132 147 84
0.073871 -0.017847 0.026932 32 39 94
-0.048160 0.012597 -0.016668 86 126 153
-0.030216 -0.015489 -0.025468 139 182 77
-0.045177 0.006436 0.000332 36 51 75
0.014585 0.013548 0.006732 121 135 137
-0.016637 0.027671 -0.001768 21 16 61
0.085378 -0.067888 0.035732 64 59 52
-0.043430 0.021194 -0.021468 50 65 69
-0.045253 -0.008586 -0.029668 86 163 66
-0.024357 0.033726 -0.002768 19 12 66
-0.012544 0.027436 0.000532 23 14 69
-0.013973 0.037324 0.004832 25 21 61
-0.001066 0.013801 -0.000968 126 91 152
-0.006524 0.018888 -0.003468 74 79 95
0.003935 -0.004717 0.020632 36 66 50
0.064366 -0.036725 0.019832 55 44 47
0.082138 -0.045063 0.021232 66 14 15
-0.017516 0.010396 -0.003868 44 159 84
0.013439 -0.030918 -0.010568 187 179 123
0.092854 0.015507 0.060332 137 155 153
0.096313 -0.023526 0.038732 23 31 84
-0.043641 -0.005736 -0.027068 127 179 69
0.113540 -0.016510 0.047532 133 138 135
-0.017170 -0.005150 -0.060668 145 167 181
0.085577 -0.035483 0.027832 118 65 61
-0.042746 -0.018699 -0.034368 113 159 60
-0.020068 0.016136 -0.008368 85 155 129
0.161932 0.008650 0.088132 164 164 150
-0.015413 -0.004758 0.012932 39 50 77
0.114999 -0.032269 0.053232 69 50 43
-0.031541 -0.009173 -0.023068 136 188 79
-0.017162 -0.005079 -0.060668 35 34 30
-0.042213 0.016827 -0.023068 13 31 108
-0.029210 0.019276 -0.013468 37 73 75
0.019252 0.029421 0.031232 68 101 86
-0.055850 0.006960 0.011832 110 133 145
-0.081305 0.012444 0.007932 101 120 133
0.118476 0.039052 0.054532 70 70 71
0.076096 0.040145 0.050232 61 62 67
0.077889 0.044561 0.042332 67 69 68
-0.032027 0.011461 -0.008668 35 143 77
-0.017164 -0.005080 -0.060668 39 38 33
-0.044964 -0.006340 -0.028068 129 181 70
-0.021441 0.021865 -0.009768 52 59 80
-0.041873 -0.016248 -0.032568 26 87 33
0.015556 -0.017881 -0.004068 175 157 105
-0.012012 -0.027519 -0.019768 136 186 85
-0.032576 -0.020139 -0.029968 95 144 61
0.020910 0.002242 0.007732 71 134 95
0.025582 0.032466 0.045232 73 66 64
0.056787 0.044660 0.042132 69 69 72
0.097211 0.050469 0.032232 64 64 64
-0.028279 -0.019005 -0.026068 130 197 95
-0.030659 -0.000925 0.022232 48 60 86
0.160442 -0.007188 0.087832 150 128 107
-0.045934 -0.012118 -0.032368 62 136 52
0.065365 0.000426 0.028732 166 179 187
-0.073928 0.016934 0.010632 83 95 110
0.007361 0.043895 0.022832 120 140 143
0.017545 -0.030097 -0.005868 99 58 1
-0.017162 -0.005172 -0.060668 99 179 123
-0.046184 -0.010180 -0.031068 44 110 36
-0.046631 -0.014130 -0.033468 75 155 64
-0.039298 -0.019875 -0.033868 49 86 39
-0.041840 -0.013957 -0.031268 84 124 24
0.030448 0.053716 0.025832 56 57 59
-0.089608 0.008975 0.005732 111 125 138
-0.081869 0.035056 0.014332 63 71 82
0.107642 -0.024293 0.041832 37 35 94
0.127259 0.033570 0.064432 70 70 68
0.071443 0.023985 0.046632 133 103 125
-0.007565 -0.012163 -0.011668 145 134 84
-0.022943 0.015797 -0.008468 17 112 56
0.063333 -0.008534 0.023232 130 153 187
0.100446 0.045246 0.042532 72 72 72
-0.036604 0.004583 0.005932 17 56 41
-0.005204 0.018149 -0.002868 63 71 91
-0.014984 0.005001 -0.002568 40 79 116
-0.037805 -0.018399 -0.031968 98 155 51
0.099182 0.038470 0.054732 66 66 68
0.058792 0.042145 0.046632 62 61 66
-0.024218 -0.023548 -0.026568 130 181 80
-0.045071 -0.012981 -0.032368 80 144 55
-0.020475 0.010308 -0.004968 132 190 186
-0.013498 0.013211 -0.001768 8 20 48
-0.006147 -0.018653 -0.014368 222 209 158
0.076267 -0.022876 0.039332 114 124 144
-0.032786 -0.015014 -0.026868 135 185 77
0.044926 0.051125 0.030432 61 62 64
0.022690 -0.022993 -0.003568 218 208 163
-0.012590 -0.027200 -0.020068 139 188 80
-0.034067 0.005039 0.001732 22 60 42
-0.045033 -0.017652 -0.034668 90 139 56
0.122518 0.016281 0.067732 119 107 80
0.011165 0.005056 0.003332 76 147 83
-0.044017 -0.011782 -0.030968 119 168 61
-0.050096 0.007301 -0.006968 18 28 97
-0.030067 0.017020 -0.016368 25 29 28
0.019185 0.001625 0.009432 66 136 75
0.062288 -0.013479 0.028332 112 130 152
-0.036590 -0.016594 -0.030368 71 175 75
0.023086 0.029498 0.035832 93 92 91
0.074812 -0.024519 0.067932 73 80 86
0.057723 0.049638 0.033232 67 67 69
-0.041354 0.014864 -0.020068 43 60 37
0.078044 -0.065995 0.048832 59 46 45
0.040498 0.051904 0.028932 62 63 65
-0.009536 -0.020502 -0.016168 160 195 180
-0.097061 0.032270 0.011432 34 33 38
0.050194 0.048433 0.035232 71 72 74
0.066118 0.050117 0.032832 73 73 75
0.009344 -0.019761 -0.008868 204 201 159
0.004144 -0.002396 0.016332 68 90 83
0.023562 0.004490 0.008932 53 104 64
-0.045331 0.016559 -0.023768 27 34 112
0.086937 -0.068647 0.036332 67 63 57
-0.014478 -0.007331 -0.015168 156 189 204
-0.024327 -0.023689 -0.026668 129 182 81
0.097649 0.040196 0.051932 72 71 76
0.038113 -0.038622 0.009932 13 14 57
-0.010334 -0.019792 -0.014668 86 110 68
-0.034348 -0.017303 -0.028968 105 171 90
-0.057063 0.008284 0.011532 119 141 152
-0.026866 -0.018764 -0.024968 122 182 80
-0.011598 -0.029074 -0.020168 113 179 91
-0.045147 -0.011099 -0.031268 112 163 62
0.003431 0.022796 0.008032 27 29 62
0.009480 -0.028255 -0.011368 183 172 111
0.037235 -0.030378 0.003632 149 172 203
-0.017508 -0.025429 -0.022668 133 177 80
-0.044898 -0.017548 -0.034468 66 102 28
0.001031 -0.025915 -0.012868 204 156 97
-0.005214 -0.024399 -0.016168 110 85 36
-0.009904 -0.014987 -0.011068 94 117 91
-0.030301 0.020398 -0.014368 78 101 49
-0.002221 -0.001367 0.001832 58 131 186
-0.035125 -0.019547 -0.031068 29 88 53
0.016233 -0.021515 -0.005968 206 193 157
-0.009014 0.004917 -0.001768 76 151 211
-0.028857 0.018107 -0.011568 64 143 100
-0.044560 0.014123 -0.018468 21 34 135
0.042817 0.051840 0.028832 59 60 62
-0.023238 -0.023659 -0.025868 53 148 76
-0.034078 0.013351 -0.016468 0 9 101
-0.019504 0.033512 -0.000168 30 26 66
-0.030287 -0.010189 -0.022968 134 184 74
0.075669 0.040989 0.048732 62 63 65
-0.009999 -0.006405 0.011032 23 30 53
0.147327 0.022062 0.084232 66 68 63
-0.045413 -0.004844 -0.027468 122 183 77
0.034943 -0.025988 0.006032 78 88 77
0.022640 -0.025425 -0.001868 167 138 70
0.079442 0.042983 0.045332 67 69 71
-0.043778 -0.001900 -0.027768 127 157 159
-0.092941 0.013916 0.007132 100 114 125
-0.000047 -0.023023 -0.012568 184 186 126
0.164628 0.003511 0.087332 172 172 165
-0.001473 -0.029835 -0.017768 195 182 137
0.094660 -0.019437 0.036632 153 175 192
-0.091195 0.026289 0.010932 71 75 86
-0.017156 -0.005140 -0.060668 146 163 179
0.016255 0.029918 0.022832 137 168 165
-0.045546 -0.010480 -0.030968 71 136 55
-0.032860 -0.014257 -0.026568 136 184 75
0.097135 0.037036 0.056232 72 74 73
-0.004403 -0.024962 -0.017168 197 183 136
0.015301 -0.028775 -0.007668 211 169 118
-0.017163 -0.005169 -0.060668 147 175 184
-0.051785 0.010218 -0.012568 25 31 108
0.006799 0.004719 0.002732 76 143 95
-0.024740 0.035104 -0.002368 29 26 67
-0.004485 -0.004656 0.007632 17 27 53
-0.031334 -0.022139 -0.030368 89 144 51
-0.021338 0.035287 -0.000268 97 101 91
0.000421 -0.005337 0.020832 61 77 75
-0.044096 0.021859 -0.021368 46 58 67
-0.020552 -0.016807 -0.020968 115 171 70
-0.079590 0.039003 0.015732 60 69 83
0.002775 0.035552 0.013932 29 33 63
-0.028272 -0.023829 -0.029068 127 175 78
0.076177 0.026181 0.049332 117 119 139
0.009046 0.039232 0.022132 99 126 121
-0.065248 0.028843 -0.007168 20 18 43
0.005919 -0.028952 -0.014568 202 198 153
0.049414 0.054663 0.024832 62 63 65
-0.042245 -0.016342 -0.032868 0 35 10
0.092625 -0.017957 0.036632 144 168 185
0.044228 -0.058470 0.027432 67 66 64
-0.004148 0.015727 -0.002568 74 88 131
-0.037258 -0.012307 -0.027768 64 111 92
0.005542 -0.024809 -0.011768 202 201 150
0.108653 -0.070038 0.047932 112 88 76
-0.081932 0.022203 0.010932 87 99 111
-0.040012 -0.002276 -0.026268 189 219 220
-0.036798 0.020572 -0.018568 82 100 74
-0.020784 -0.019206 -0.022468 56 157 67
-0.039347 -0.014657 -0.030468 124 178 67
0.069731 -0.027357 0.021432 197 183 173
-0.017162 -0.005163 -0.060668 148 170 184
0.086695 -0.055655 0.033432 55 36 34
-0.029525 0.008959 -0.005268 5 99 41
-0.032496 -0.021046 -0.030468 70 147 66
-0.002033 0.040700 0.012632 60 61 65
-0.043650 0.006201 0.016032 85 107 115
0.054848 0.020696 0.046532 99 81 73
-0.044230 -0.011906 -0.031168 119 168 61
0.043133 -0.007246 0.016932 23 32 112
-0.010472 0.002114 -0.001768 76 158 205
0.077245 -0.025140 0.044232 63 57 56
-0.036984 -0.021910 -0.033468 91 161 64
0.067935 -0.044978 0.016532 50 31 20
-0.091000 0.032055 0.012632 43 40 48
-0.038257 -0.004690 -0.025368 126 173 156
0.062024 -0.023607 0.020732 187 173 168
-0.031038 0.024542 -0.013668 52 58 76
0.091414 0.049795 0.034432 64 64 64
-0.032076 0.020734 -0.014868 63 85 113
-0.018658 -0.022812 -0.021068 0 54 25
-0.034983 -0.022490 -0.032868 58 138 52
0.086049 0.053007 0.028532 57 57 57
0.010507 -0.013082 -0.005968 159 173 179
0.091082 0.035348 0.059132 70 71 75
-0.017168 -0.005098 -0.060668 35 33 37
-0.028615 0.034549 -0.004568 11 12 67
0.019672 -0.018196 -0.002668 171 171 139
-0.091811 0.043588 0.011132 34 33 31
-0.001608 -0.018271 -0.012868 206 203 150
0.032076 0.005337 0.014032 80 138 88
-0.029707 -0.024716 -0.030668 111 175 84
-0.029104 0.027820 -0.008468 62 72 66
0.095276 0.045538 0.041932 59 59 59
-0.042829 -0.021258 -0.035468 82 144 59
-0.024881 0.032298 -0.003768 18 11 63
0.120758 0.006862 0.068832 130 144 118
-0.032383 0.010928 -0.008468 49 135 89
0.036266 -0.003055 0.013732 153 188 201
-0.017158 -0.005143 -0.060668 145 162 180
0.046534 -0.010053 0.021932 32 44 100
-0.036159 0.008643 -0.008468 33 46 99
0.005743 -0.001231 0.013432 22 34 44
-0.034729 0.011313 -0.013368 13 25 127
0.020700 -0.022345 -0.004268 148 140 104
-0.084007 0.041558 0.015632 45 50 56
0.119589 0.038909 0.054732 68 68 66
0.072008 -0.042067 0.019132 49 21 20
0.034172 -0.005765 0.016332 37 66 132
-0.042184 -0.016798 -0.033168 10 70 32
0.083666 -0.070159 0.048832 104 77 64
-0.049882 0.010313 -0.012268 18 28 93
-0.016965 -0.002215 0.004132 13 14 49
-0.054156 0.007723 -0.008168 29 45 81
-0.021477 0.013127 -0.006968 48 151 86
-0.029570 0.025273 -0.012068 42 51 60
0.061749 0.040529 0.049632 60 62 63
0.105493 -0.007841 0.046432 170 179 181
-0.042668 0.013744 -0.017868 27 42 138
-0.011263 0.013243 -0.005068 78 128 188
-0.053597 0.007177 0.013132 85 103 118
-0.043665 0.010225 -0.011668 65 83 124
0.002958 0.013465 0.000932 132 152 184
-0.034418 -0.001006 0.020632 62 82 92
0.000989 -0.031617 -0.015268 128 109 71
-0.044356 -0.012900 -0.031868 115 168 60
-0.031067 -0.022248 -0.030068 125 171 75
-0.040728 0.014784 -0.019268 61 78 37
-0.019023 -0.015386 -0.018068 34 116 47
-0.039995 -0.017765 -0.032768 83 150 53
-0.041611 0.016915 -0.022668 6 24 107
0.003247 0.002959 0.006132 89 141 167
-0.020994 0.017335 -0.009268 22 103 66
-0.017172 -0.005170 -0.060668 151 170 185
-0.001350 -0.016640 -0.012068 195 205 168
-0.038956 0.010659 -0.011768 16 25 98
-0.006409 -0.028246 -0.020668 208 203 159
-0.051456 0.014009 -0.017268 27 35 69
0.090962 0.047527 0.038332 59 59 59
-0.017164 -0.005152 -0.060668 145 167 181
-0.020410 -0.007604 -0.017968 190 233 232
-0.004899 0.034020 0.008232 24 17 65
-0.039035 -0.021207 -0.034368 109 167 67
0.015832 -0.021052 -0.005768 165 153 103
-0.038330 0.023893 -0.017068 98 125 97
0.007661 -0.055269 0.015432 64 60 50
0.005245 -0.027310 -0.013768 189 168 113
0.130418 0.028629 0.073132 73 73 73
0.025951 -0.000691 0.013032 146 175 188
0.082817 -0.022028 0.036632 27 37 112
0.059156 -0.011024 0.024632 19 30 90
-0.004912 -0.002689 0.004632 50 57 99
-0.022814 0.036299 -0.000468 30 25 54
-0.021605 -0.022941 -0.024068 60 131 74
0.000014 -0.026705 -0.014868 184 177 131
-0.044182 -0.010800 -0.030468 78 142 58
0.083143 -0.066858 0.049632 67 56 48
-0.067856 0.031729 -0.006668 1 1 10
0.048358 -0.020914 0.012532 172 171 174
0.107907 -0.012714 0.046232 133 147 149
0.004718 -0.000239 0.011432 74 119 118
0.042611 0.000666 0.020232 133 152 158
0.063865 0.044413 0.042432 64 65 69
-0.017168 -0.005201 -0.060668 110 157 146
-0.006808 -0.019297 -0.014568 147 114 52
-0.030124 0.020222 -0.014368 71 87 62
-0.009624 -0.006837 0.012032 18 35 58
0.037798 -0.031031 0.003432 172 190 211
-0.043701 -0.009229 -0.029268 106 186 84
-0.033297 0.023437 -0.014868 92 119 116
0.076973 0.020407 0.051532 125 140 164
-0.027752 -0.023004 -0.028268 71 112 57
-0.041589 0.010774 -0.012268 134 153 60
-0.030649 0.013603 -0.016668 13 34 128
0.008556 0.042440 0.023632 83 108 103
0.084691 0.046477 0.040332 70 70 70
0.084503 0.036698 0.056532 63 62 68
-0.038175 -0.006265 -0.024468 62 140 82
-0.089789 0.015838 0.007932 95 107 121
-0.017168 -0.005164 -0.060668 146 168 182
-0.039074 -0.014630 -0.030368 123 177 67
-0.010965 0.010072 -0.004268 122 166 210
-0.037293 -0.014525 -0.029368 125 175 67
-0.043665 -0.014626 -0.032768 94 162 62
0.037757 0.053164 0.026732 54 55 57
-0.029538 -0.019952 -0.026768 7 74 35
-0.028640 0.032967 -0.005468 70 72 121
-0.004956 -0.021036 -0.014868 170 180 99
-0.029686 0.022840 -0.013368 98 122 143
-0.034395 -0.019920 -0.030768 17 110 47
0.092371 0.038206 0.054032 70 72 73
0.035740 0.006364 0.017132 115 157 139
0.072695 -0.042995 0.018532 54 17 19
-0.020844 0.037330 0.001032 18 11 65
-0.042209 0.010917 -0.012668 117 140 27
0.095932 0.048268 0.036932 66 66 66
-0.040327 -0.015022 -0.031268 107 171 67
-0.044369 -0.013629 -0.032368 85 153 58
-0.086021 0.012835 0.007432 105 119 129
-0.012713 -0.026272 -0.019768 133 183 77
-0.009941 -0.014781 -0.010668 96 114 85
-0.016676 -0.017801 -0.018668 120 171 60
-0.001676 0.024768 0.005732 43 35 87
0.110108 -0.072353 0.046032 40 32 30
0.023285 0.000416 0.011032 18 47 53
0.059301 -0.064399 0.030632 62 52 55
0.047321 0.007014 0.021532 137 143 139
-0.046513 0.009549 -0.010468 93 117 16
-0.033648 -0.012653 -0.025868 20 102 40
0.039215 -0.037420 0.005532 29 22 63
-0.023482 -0.018915 -0.022868 55 150 69
0.008663 -0.026351 -0.010768 219 210 160
-0.078249 0.029688 0.013232 70 80 90
-0.019533 -0.007457 -0.017668 228 254 251
-0.017167 -0.005096 -0.060668 42 40 43
-0.000055 0.007309 0.000632 111 166 213
0.032733 0.025723 0.030632 181 193 198
-0.035384 -0.018091 -0.029968 5 63 30
0.043339 0.048070 0.036232 63 64 69
-0.008662 -0.029077 -0.019768 162 153 110
0.050024 0.035888 0.039332 133 135 130
0.019993 -0.027775 -0.005168 125 115 87
0.056463 0.054637 0.024332 63 62 68
-0.002070 0.006725 0.000032 117 167 215
0.074972 -0.037862 0.021932 66 22 22
0.025859 0.007270 0.011232 73 130 75
-0.009301 -0.009236 -0.013168 148 169 176
-0.030749 -0.020176 -0.028768 98 150 64
-0.026663 -0.023028 -0.027768 76 124 55
-0.087542 0.015084 0.008032 96 110 123
0.018583 -0.028500 -0.006668 208 205 152
-0.041696 0.022383 -0.020268 85 94 65
-0.039140 -0.007100 -0.025568 129 184 70
-0.017934 -0.018125 -0.019668 127 175 63
-0.032698 -0.021747 -0.031068 47 136 65
0.092665 0.035914 0.058132 71 71 73
-0.081898 0.027920 0.012432 71 80 89
-0.044489 -0.006344 -0.027968 128 178 68
-0.024531 0.016497 -0.009168 82 184 124
-0.017165 -0.005080 -0.060668 41 40 35
-0.002803 -0.011735 -0.010668 198 198 167
-0.017865 -0.025467 -0.022868 133 177 78
0.021779 -0.021282 -0.003468 194 196 159
-0.026528 -0.020586 -0.025468 10 76 32
-0.095082 0.025265 0.010132 49 52 59
-0.037319 0.014452 -0.019468 80 95 173
-0.003124 -0.014533 -0.011468 180 197 168
-0.003156 0.003650 0.000332 110 182 238
-0.010829 0.034263 0.005132 22 12 65
-0.008985 -0.016513 -0.014468 164 156 114
-0.017051 -0.005210 -0.060668 63 65 47
-0.003506 -0.020971 -0.013768 206 211 174
-0.039653 0.014864 -0.020068 37 53 131
0.055877 -0.004248 0.021132 123 149 166
-0.012621 -0.014866 -0.014768 123 201 98
-0.022184 -0.025676 -0.026268 66 144 76
-0.044956 0.016950 -0.024168 37 50 133
-0.015923 0.013809 -0.005268 44 141 85
-0.036967 0.006530 -0.000968 21 60 41
-0.089808 0.009166 0.006032 112 126 140
0.011456 -0.007292 0.024632 50 74 64
0.108889 0.030975 0.067032 73 73 72
0.048502 0.044705 0.042632 65 66 70
0.085889 -0.065983 0.050332 67 49 41
-0.093863 0.023446 0.009632 75 79 88
-0.009934 -0.020657 -0.015468 138 172 153
0.053126 -0.010622 0.023432 24 30 95
-0.025240 -0.004634 -0.020968 97 126 132
0.089973 -0.030990 0.027432 243 206 163
-0.040671 -0.017040 -0.032468 7 73 31
-0.014620 0.016888 -0.006768 134 173 190
-0.019607 -0.010226 -0.016368 140 197 81
-0.037341 -0.014761 -0.029568 120 176 70
0.040039 0.050737 0.030932 63 66 71
0.053886 -0.037111 0.012632 30 40 113
0.094307 -0.042611 0.030432 79 29 24
-0.026270 -0.010406 -0.020768 140 192 81
-0.034748 -0.020916 -0.031868 41 125 50
0.029517 0.005057 0.012032 29 86 41
-0.044411 -0.012790 -0.031868 118 168 62
-0.027975 -0.022047 -0.027968 125 171 78
-0.018993 -0.027039 -0.024668 97 159 76
0.004263 -0.014843 -0.008268 183 169 126
0.006949 -0.018926 -0.009768 188 191 167
0.095931 -0.023057 0.038232 27 28 91
-0.040480 -0.021161 -0.034768 97 152 61
-0.010013 -0.017004 -0.012468 93 110 91
-0.018405 -0.012803 -0.017068 146 191 82
0.055031 0.051834 0.029632 69 69 71
-0.029807 -0.009892 -0.022468 131 58 16
-0.001976 -0.019455 -0.013168 249 226 160
0.084677 -0.065344 0.049932 63 43 40
-0.017169 -0.005144 -0.060668 143 160 179
-0.044426 -0.014189 -0.032968 87 158 60
-0.041774 -0.021095 -0.035268 87 147 58
0.159606 -0.004930 0.087132 142 134 128
0.094224 0.044268 0.044632 66 66 66
0.109352 0.036732 0.058532 69 69 69
0.097764 -0.067426 0.046632 108 91 77
-0.034102 0.015708 -0.019468 119 154 52
-0.044964 -0.006154 -0.028068 127 180 66
-0.017164 -0.005159 -0.060668 146 168 182
0.024066 -0.033070 -0.004068 160 144 110
-0.017153 -0.005144 -0.060668 144 168 175
0.020211 -0.019347 -0.003368 181 189 157
0.106223 0.033639 0.063132 67 65 66
0.091504 0.044432 0.044132 61 61 61
-0.017165 -0.005083 -0.060668 46 45 40
-0.047210 -0.015288 -0.034368 149 173 186
0.100984 -0.011883 0.042832 146 164 178
0.061654 -0.017861 0.034532 62 71 76
0.037266 -0.004465 0.014332 26 56 150
-0.015885 -0.025665 -0.021668 124 166 76
-0.090309 0.026787 0.011132 73 77 89
-0.005456 -0.027938 -0.020268 201 185 133
-0.037383 -0.008322 -0.025368 65 148 50
0.087875 0.026786 0.055332 104 111 129
-0.042464 -0.010202 -0.029168 11 55 26
0.099071 -0.070041 0.048632 38 31 28
-0.033064 0.029821 -0.009468 22 14 71
0.043246 -0.030107 0.009032 140 155 147
-0.028209 -0.009000 -0.021168 137 189 79
0.005103 -0.012963 -0.008168 208 210 203
0.061372 -0.064674 0.040232 73 64 65
0.098592 0.037444 0.056132 65 67 66
-0.017171 -0.005136 -0.060668 136 153 169
-0.036660 -0.020372 -0.032668 115 163 63
-0.036095 -0.016326 -0.029668 40 143 62
0.016656 0.051917 0.027632 58 59 63
-0.030096 -0.016664 -0.025968 140 185 81
-0.040749 -0.013418 -0.030368 46 97 29
0.029506 0.001731 0.010532 68 139 72
0.022157 -0.030898 -0.003868 206 169 94
-0.038700 -0.006589 -0.024968 122 185 77
-0.021163 -0.025817 -0.025468 51 127 59
-0.022772 -0.025891 -0.026668 52 134 62
0.084260 0.050168 0.033832 61 61 61
0.048584 0.045625 0.040932 69 70 72
0.044209 -0.037363 0.006732 55 49 101
-0.042257 -0.012388 -0.030568 114 163 59
0.008602 -0.020890 -0.009368 230 223 167
0.053011 -0.050749 0.027732 28 16 16
-0.028819 -0.010634 -0.022368 132 188 79
0.007425 -0.025225 -0.010968 202 200 138
-0.039068 -0.020965 -0.034268 111 166 68
0.093179 -0.042923 0.029932 76 27 21
-0.061351 0.002976 0.005232 74 96 103
-0.049519 0.010368 -0.012668 37 56 84
-0.032706 0.012954 -0.015568 11 23 110
-0.017161 -0.005140 -0.060668 142 159 175
-0.036065 0.027040 -0.014068 46 53 59
0.040290 -0.022418 0.010132 188 211 222
-0.043609 0.014969 -0.020168 15 18 114
0.050426 0.020737 0.045032 80 61 50
-0.030573 0.013477 -0.016368 16 37 130
-0.069450 0.031790 -0.005968 2 3 9
0.026076 0.049015 0.034332 55 57 61
0.002578 -0.011590 -0.008768 169 191 195
0.114544 -0.031271 0.051732 56 35 40
-0.004746 -0.018740 -0.014068 233 220 161
-0.034427 -0.014592 -0.027668 46 129 76
0.019583 -0.025131 -0.003668 180 168 100
-0.016828 -0.015495 -0.017268 100 206 113
0.007286 -0.031269 -0.014968 216 211 157
0.054279 0.029837 0.039432 95 64 43
-0.056185 0.006345 0.011432 114 141 152
-0.034387 -0.018661 -0.029868 19 100 55
0.096990 0.036500 0.057232 74 74 74
0.000652 -0.027109 -0.014568 178 170 122
0.035119 -0.032926 0.005932 95 112 121
-0.011535 -0.029554 -0.020268 84 157 81
-0.017080 -0.005142 -0.060668 87 114 121
-0.017150 -0.005144 -0.060668 144 168 174
-0.029826 -0.004734 -0.023268 114 147 146
-0.029762 -0.013691 -0.024268 42 132 56
-0.028965 -0.010561 -0.022368 138 188 81
-0.042149 0.013433 -0.017068 32 43 137
0.122485 -0.032076 0.053332 75 41 39
-0.031029 -0.021087 -0.029368 131 176 75
-0.082706 0.013254 0.008032 100 116 129
-0.006199 -0.026452 -0.020168 201 192 145
-0.093405 0.040250 0.012132 32 32 30
-0.033474 0.015514 -0.019068 15 33 129
-0.045360 -0.018048 -0.034868 56 126 54
-0.031597 -0.023862 -0.031468 92 161 72
-0.009694 0.029250 0.003032 25 16 76
-0.044712 -0.015582 -0.033468 57 125 60
0.064613 -0.014500 0.031732 65 82 98
-0.081410 0.001170 -0.006068 128 146 154
0.062962 -0.044845 0.015432 39 20 22
0.073324 -0.009087 0.028532 156 173 189
-0.042790 -0.008079 -0.028068 121 179 67
-0.017169 -0.005085 -0.060668 40 39 34
-0.042943 -0.011454 -0.030368 116 162 62
-0.042308 -0.020088 -0.035168 104 151 68
-0.087776 0.015506 0.008132 97 109 123
-0.024652 -0.023002 -0.026368 130 176 77
-0.036040 -0.015369 -0.028968 53 145 56
0.074254 0.026369 0.048532 121 120 141
0.001887 -0.013961 -0.008768 184 171 117
-0.021576 0.027239 -0.004468 29 25 73
-0.044403 -0.010991 -0.030668 79 132 44
-0.015714 0.039954 0.005032 30 25 80
-0.044271 -0.019864 -0.035468 63 130 51
-0.029222 0.022473 -0.013068 91 120 144
-0.011426 -0.025799 -0.017668 77 121 110
-0.017167 -0.005084 -0.060668 46 45 40
-0.044193 0.004488 0.016332 78 97 111
-0.041961 -0.010415 -0.028968 0 55 15
-0.000016 0.002651 0.001632 94 173 233
-0.070390 0.013203 0.008332 106 124 144
0.061933 0.048891 0.034432 69 67 69
0.068135 0.039449 0.051132 68 68 70
0.047585 0.052915 0.028132 66 64 71
0.084276 -0.028846 0.067532 66 72 73
-0.033805 -0.019319 -0.029968 19 104 46
0.054204 0.049939 0.032832 65 67 69
0.147776 0.024114 0.080832 71 69 65
-0.032217 -0.003986 -0.024368 115 143 147
-0.032184 0.015329 -0.018468 16 31 134
-0.032340 -0.014906 -0.026568 142 190 78
-0.020482 -0.027430 -0.025568 95 161 81
-0.032022 -0.003840 -0.024168 120 141 146
0.019978 0.033954 0.022632 114 144 145
-0.021351 0.013635 -0.007268 51 154 83
-0.017163 -0.011262 -0.015568 142 191 78
-0.019787 -0.022689 -0.022168 0 77 32
-0.017170 -0.005142 -0.060668 144 161 178
-0.025209 -0.026096 -0.028068 106 171 82
0.081892 0.044605 0.042832 70 70 73
-0.045344 -0.020225 -0.035668 49 130 52
0.022019 0.030119 0.022932 176 195 209
-0.019872 -0.017866 -0.020968 127 179 68
-0.005757 -0.022188 -0.015968 136 143 76
-0.093933 0.019374 0.006532 66 71 80
0.072794 0.031520 0.049032 104 98 110
0.106621 0.018481 0.061432 110 118 102
0.048045 -0.059418 0.030432 69 63 65
-0.030705 -0.016565 -0.026268 142 191 82
0.056711 -0.048725 0.024432 18 6 9
