ply
format ascii 1.0
element vertex 1226
property float x
property float y
property float z
property uchar red
property uchar green
property uchar blue
end_header
-0.026281 -0.028923 0.040047 121 126 125
0.137612 -0.016597 0.079547 82 82 82
0.157604 -0.091281 0.006447 100 100 98
-0.063344 -0.018115 0.036147 112 114 113
-0.045962 -0.095760 0.006147 171 182 191
0.050770 0.017796 -0.060453 218 189 122
-0.117321 -0.070555 -0.001453 99 99 99
-0.011966 0.072387 -0.004553 168 169 174
-0.061341 0.062092 0.018147 141 145 148
-0.119870 -0.051469 0.007047 98 100 99
-0.126375 -0.016912 -0.030753 49 50 55
0.058345 -0.091962 0.029647 174 183 192
-0.119504 0.070793 -0.037753 39 40 45
0.152481 -0.093589 0.043247 93 92 90
-0.121713 0.078268 -0.025753 12 13 15
-0.132493 0.043075 0.023047 42 41 49
0.057422 0.018428 -0.061653 216 183 114
0.018873 -0.016759 0.056447 118 116 117
0.086776 0.023013 -0.014353 203 176 110
-0.123635 -0.065162 -0.000553 96 96 94
0.015436 -0.026810 0.051447 120 122 121
-0.127861 -0.016168 -0.026053 50 51 56
0.157464 -0.036555 0.037547 85 85 83
-0.126124 -0.018222 -0.037253 51 52 57
0.093048 -0.045640 0.045447 82 87 87
0.128218 0.004297 -0.006753 11 10 15
-0.133407 0.007899 0.012647 31 31 39
-0.093035 0.079008 -0.020553 97 101 102
0.021936 0.065692 0.012747 196 201 204
-0.134348 -0.061094 -0.003953 51 51 52
0.000339 0.047689 0.050147 154 159 153
0.167359 0.021122 0.082547 64 63 61
-0.132463 -0.034816 -0.000353 47 48 52
0.158112 -0.082184 0.014547 99 99 97
-0.113851 -0.045937 0.010847 101 103 102
-0.121539 0.029634 -0.039253 46 47 52
0.114117 -0.053353 0.057147 134 142 143
-0.014791 0.028857 0.066047 115 117 114
-0.108135 0.079957 -0.023353 82 83 85
0.144426 0.015803 -0.003053 11 11 13
-0.077495 0.063058 0.016447 112 117 120
0.056934 0.018428 -0.061653 215 182 113
-0.071306 0.036270 0.056347 91 93 92
-0.126293 0.011718 -0.021953 47 48 52
-0.128160 -0.066073 -0.037653 51 50 56
0.068258 0.027221 -0.080453 183 144 87
-0.114268 0.015703 0.015647 22 21 26
-0.008937 -0.082115 0.019747 170 182 195
-0.078642 -0.056365 0.016247 149 161 173
-0.006843 0.065792 0.010647 189 195 195
-0.065409 -0.053787 0.020447 154 168 179
0.157774 -0.048358 0.035847 92 92 90
0.139071 -0.102307 0.040747 109 108 104
0.162814 -0.052589 -0.005453 96 95 93
0.089732 -0.091393 0.036947 146 154 160
0.077910 0.086257 -0.028253 99 98 103
-0.131092 -0.026674 -0.011453 48 47 52
0.084885 -0.052722 0.052247 141 150 156
-0.124504 -0.000445 -0.032453 49 50 55
-0.066561 -0.086485 0.003347 159 171 183
-0.091087 -0.002443 0.036547 101 103 102
0.030740 -0.001695 0.009347 52 53 59
-0.128014 -0.022278 -0.026553 50 51 56
0.041269 0.026591 -0.079653 197 159 94
-0.094008 -0.073121 0.004647 148 160 172
-0.041284 0.039589 0.064747 50 51 48
0.002946 -0.031872 0.046247 124 126 125
0.140745 -0.069934 0.055747 101 102 99
0.002238 0.039154 0.067047 126 129 128
-0.131552 0.009427 0.003347 41 42 47
-0.124376 -0.084644 -0.010053 94 94 92
-0.006273 0.023578 0.065947 109 111 110
-0.002678 0.065085 0.011947 197 205 197
0.044240 -0.034011 0.055547 104 106 105
-0.120051 0.082192 -0.033553 14 12 17
0.163362 0.008856 -0.006153 23 17 21
0.050215 0.044153 0.053147 14 16 20
-0.122403 0.035923 -0.031153 48 49 54
-0.119077 0.062335 -0.044653 42 43 48
0.045854 0.030896 -0.088953 195 156 99
-0.127177 0.003850 -0.020853 48 49 53
-0.073281 0.074181 -0.008553 103 107 105
0.146735 0.002108 -0.003753 11 10 15
0.000701 0.081258 -0.023153 187 193 201
-0.122869 0.068761 -0.019853 44 46 50
0.035231 0.033388 -0.086253 27 19 17
-0.129290 -0.060039 -0.000153 92 92 90
0.068211 0.026864 0.001247 36 35 50
-0.124969 0.053882 -0.013553 48 49 53
0.085383 -0.099185 0.032847 160 167 173
0.047845 0.032714 -0.093153 193 156 101
0.056002 0.027904 -0.081753 192 152 91
0.092811 0.019950 -0.064853 180 142 91
-0.034682 0.077184 -0.015553 180 184 188
-0.122904 0.025199 -0.035453 48 49 54
-0.045656 -0.082659 0.010947 166 180 191
-0.008449 -0.077564 0.022147 168 180 192
-0.120835 0.073588 -0.008153 81 80 82
0.008181 -0.028279 0.048947 122 124 123
0.146525 -0.020884 -0.006353 13 12 17
0.087827 0.023097 -0.071853 179 146 95
-0.043866 0.078876 -0.019953 164 168 171
0.162901 -0.037860 -0.000453 91 90 88
-0.072177 0.080953 -0.025153 122 128 128
0.120434 -0.007609 -0.008053 14 13 18
0.031461 -0.034959 0.052547 116 117 116
-0.062607 -0.090304 0.002147 162 174 186
-0.103144 -0.032262 0.021147 106 108 107
0.157425 -0.052837 0.027247 91 91 89
0.032982 0.025175 -0.076553 207 179 128
0.039883 0.035936 -0.099553 188 150 106
-0.044790 0.060265 0.023147 159 166 172
0.165182 -0.003149 -0.007353 72 72 70
-0.095705 0.072653 -0.006253 84 88 88
0.162490 -0.063787 -0.010553 99 98 96
-0.130692 -0.000036 -0.004953 47 48 53
-0.117910 -0.078797 -0.005353 99 99 97
0.083377 -0.018871 0.017047 25 26 29
-0.119253 -0.030906 -0.009053 7 8 13
0.003397 0.043948 0.058047 140 146 144
-0.044667 0.044892 0.054947 101 103 102
0.083769 0.026330 -0.078853 169 133 83
-0.120884 -0.002473 0.006847 5 9 12
0.016937 -0.089467 0.021547 174 187 196
0.039564 0.024043 -0.074753 211 176 110
0.163751 -0.005045 0.071747 74 73 71
-0.035707 0.056317 0.030747 176 180 183
0.155348 -0.049172 0.053147 88 87 85
0.071044 0.075062 -0.007853 151 153 155
0.001572 0.067754 0.006647 201 207 208
0.132326 -0.041841 0.068647 96 96 96
-0.034951 0.084237 -0.030553 165 175 176
0.033498 0.023548 -0.073453 204 171 104
-0.116943 -0.007061 0.005547 8 7 15
-0.124111 -0.078892 -0.007453 95 95 93
-0.052965 0.078669 -0.019053 144 153 152
-0.005941 0.070381 -0.000553 176 180 183
-0.104890 0.017163 0.042447 98 100 99
0.046949 0.010105 0.024647 31 31 38
0.008279 0.010577 0.064747 109 115 109
-0.042520 -0.095015 0.006347 173 183 193
0.070173 -0.071655 0.040947 161 168 180
0.109450 -0.098473 0.038347 147 155 158
-0.077585 -0.092923 0.000947 157 171 178
-0.118724 0.006944 0.032947 72 75 73
0.062335 0.074350 -0.007153 157 157 162
-0.037462 0.014554 0.055447 117 119 118
0.065323 -0.006029 0.026647 9 10 14
0.161189 -0.049513 0.004847 94 94 92
-0.033199 0.081281 -0.024253 181 188 192
0.050935 -0.027300 0.054547 83 84 86
0.035373 0.031366 -0.088653 81 64 43
0.041515 0.036731 -0.101653 190 158 117
-0.068990 0.004178 0.043847 107 109 108
-0.122093 0.037929 -0.031853 45 46 51
0.029995 0.083195 -0.027053 202 208 210
0.028562 0.052989 0.040147 115 119 118
0.035546 0.073529 -0.005553 209 212 217
0.033478 0.070345 0.002547 198 202 202
0.039049 0.024713 0.002047 27 26 36
0.022163 0.075449 -0.008653 218 222 232
-0.124105 -0.004482 -0.036453 49 50 55
0.085282 -0.062584 0.047847 149 158 163
0.012907 -0.020272 0.053547 120 122 121
0.126356 -0.043488 0.066847 96 95 95
-0.111798 0.023000 0.043147 89 91 90
-0.128687 -0.035116 -0.028653 52 53 58
0.058334 0.018080 -0.060753 214 181 114
0.049297 0.077995 -0.013153 183 189 193
0.161043 -0.080353 -0.016653 99 98 96
-0.102971 0.072577 -0.005853 95 96 100
-0.079488 0.078093 -0.018353 105 109 110
-0.065742 0.081692 -0.025453 135 141 141
-0.098105 -0.051425 0.014547 146 158 170
-0.121617 0.032455 -0.040253 45 46 51
0.156200 -0.090035 0.020847 101 100 98
-0.129288 -0.025916 -0.022953 50 51 56
0.053003 -0.083436 0.032147 172 182 191
0.160845 -0.074790 -0.009953 99 98 96
-0.109455 -0.086911 -0.006153 76 78 85
-0.028394 -0.043913 0.033547 157 170 177
0.091698 -0.059001 0.050547 143 152 160
0.032196 -0.086478 0.026247 171 181 190
-0.128214 -0.023058 -0.026153 50 51 56
0.000068 0.052556 0.039847 158 162 161
-0.001238 0.055670 0.033247 162 171 170
-0.060799 0.072116 -0.004553 118 122 123
0.060798 0.020722 -0.067253 209 174 110
-0.107478 -0.021637 0.024947 97 99 98
0.035594 0.030117 -0.086853 187 158 99
-0.043215 0.026081 0.058847 109 111 108
-0.131461 -0.002891 -0.002053 45 46 51
-0.096114 0.079438 -0.021853 95 99 99
-0.048150 0.079855 -0.021953 154 159 162
0.063569 0.032711 -0.092353 174 141 90
-0.063078 0.034077 0.057247 100 102 101
0.021223 -0.103201 0.017047 179 189 198
0.057090 -0.099971 0.026747 175 184 193
0.001075 0.073935 -0.007453 177 179 182
0.060833 0.031627 -0.090453 181 144 92
-0.128562 0.055942 0.001247 47 48 53
-0.094532 0.083080 -0.030953 88 92 95
0.043992 -0.046270 0.050747 106 112 109
-0.011771 -0.034513 0.041247 126 128 127
-0.016986 0.061718 0.020747 194 201 203
-0.129163 -0.030048 -0.025053 49 50 55
0.021398 -0.048326 0.043247 151 162 168
-0.119266 0.073899 -0.040353 37 38 43
0.081614 -0.060763 0.047947 143 152 157
-0.119923 0.052121 -0.039953 39 40 45
-0.115698 0.058364 0.021247 62 65 75
0.157981 -0.087794 0.003147 102 102 100
-0.058384 0.031343 0.057147 103 105 104
0.087891 -0.104527 0.030947 164 171 177
0.038784 0.032489 -0.091753 204 165 108
0.012418 0.085984 -0.031853 195 202 208
-0.057698 0.012777 0.049747 112 114 113
-0.125126 0.072929 -0.008953 29 29 30
-0.035944 -0.027948 0.038547 122 124 123
0.049279 -0.008811 0.028447 11 12 17
-0.127270 -0.003177 -0.023753 45 46 51
-0.133171 -0.043912 -0.007153 52 51 56
-0.080824 -0.024355 0.029547 106 108 107
-0.126748 0.044586 0.031247 52 53 67
0.044337 0.033018 -0.093553 199 162 107
0.049326 0.032222 -0.091653 195 156 101
0.077437 0.029019 -0.084653 163 128 83
0.043282 -0.097877 0.024347 177 187 196
-0.101275 0.081601 -0.027753 82 87 89
-0.120501 0.026404 0.016947 27 30 37
-0.111545 0.015353 0.019847 133 143 143
-0.088247 -0.072139 0.006147 152 164 176
0.029967 0.073724 -0.005153 201 206 210
0.156008 -0.065719 0.036647 93 93 91
-0.004797 -0.099553 0.011947 179 188 197
-0.109998 -0.014037 0.027347 85 87 86
-0.025690 0.074002 -0.007853 181 187 192
-0.124236 -0.004680 -0.039053 48 49 54
0.031151 0.061866 0.020247 128 128 129
-0.080582 0.026744 0.050747 100 102 101
-0.120016 -0.041186 0.011047 94 96 95
0.019199 -0.055658 0.039047 147 156 164
-0.051401 0.065122 0.012847 154 158 161
-0.117989 -0.082001 -0.007153 97 97 95
0.076333 0.016315 0.011347 32 33 38
-0.087989 0.010315 0.042547 101 103 102
-0.120913 0.049739 -0.034153 42 43 48
0.086307 -0.067438 0.045947 148 159 162
-0.128198 -0.008995 -0.019853 49 50 54
0.043547 0.030219 -0.087153 202 163 104
-0.027661 -0.023164 0.042047 123 125 124
0.053500 0.006988 0.036347 6 7 14
-0.127589 -0.032864 -0.037253 50 51 56
0.036929 0.034797 -0.094553 76 61 48
-0.038062 -0.038461 0.033747 122 125 121
0.018442 0.086477 -0.031153 186 193 199
-0.132679 -0.034758 -0.006553 49 48 53
-0.117321 0.036848 0.022647 59 60 71
0.034181 0.027006 -0.079953 196 165 100
0.040991 -0.049382 0.047047 155 164 170
0.070346 0.031843 -0.090453 172 138 92
0.035657 0.035378 -0.087353 37 36 40
0.015362 -0.097511 0.017947 173 186 195
-0.121851 -0.065537 -0.000353 96 96 94
-0.029276 -0.097164 0.008747 174 183 193
0.018388 0.021503 0.070547 95 98 97
-0.111779 -0.038252 0.014747 100 102 101
0.059813 0.017308 -0.059253 218 185 118
0.034208 0.032279 -0.071453 54 53 51
-0.089368 -0.031416 0.024747 107 109 108
-0.132715 -0.045444 0.003047 83 83 83
-0.099394 -0.002389 0.035147 102 104 103
0.052436 0.025049 -0.076053 212 178 117
0.112132 0.018852 -0.005453 14 12 12
-0.127855 0.026986 -0.006853 48 50 53
-0.131950 -0.028752 0.001247 35 39 47
0.061620 0.028212 -0.082953 182 143 84
-0.121558 -0.005002 0.005147 5 7 12
0.046006 0.018525 -0.061053 217 185 115
0.154161 0.006737 0.085747 68 68 66
-0.081845 -0.068427 0.009447 152 166 177
-0.118639 -0.030957 -0.008853 7 9 14
-0.066772 0.060673 0.021447 125 132 132
0.037098 0.030875 -0.088753 197 160 101
0.131662 -0.044054 0.067547 95 95 95
0.069356 0.072049 -0.002953 161 160 165
-0.005319 -0.058271 0.032347 156 167 181
-0.032800 -0.024388 0.040647 124 126 125
-0.123689 -0.019836 -0.003053 71 74 80
0.118409 -0.104293 0.037447 149 159 160
0.159814 -0.059803 0.008047 97 97 95
0.026781 -0.097385 0.020847 176 186 195
-0.053427 -0.013643 0.040347 115 117 116
0.032376 -0.098252 0.021747 177 187 196
0.067913 -0.069066 0.041647 156 167 176
-0.030330 -0.094407 0.009547 168 180 192
0.067193 0.069886 0.002147 96 93 94
-0.133736 -0.047904 0.003547 86 86 83
-0.085979 -0.036935 0.023247 98 102 105
0.097763 0.018048 -0.060953 182 150 101
-0.128453 -0.055144 -0.037053 51 52 57
-0.121996 0.048626 -0.029653 44 45 49
0.035760 0.017456 0.010547 38 39 44
-0.053547 -0.063444 0.018347 160 174 185
-0.022876 -0.034659 0.038547 124 126 125
0.001304 0.070489 0.000947 187 190 193
-0.120829 0.045757 -0.040053 43 44 49
0.037774 0.027418 -0.081353 201 163 98
-0.120800 -0.053285 0.005647 95 98 96
-0.023037 0.066053 0.010547 198 207 212
-0.018468 0.077764 -0.016753 173 176 180
-0.047247 0.069379 0.002947 156 157 157
0.124158 -0.098401 0.041447 107 108 109
-0.132413 -0.023426 0.001447 37 38 43
-0.004697 0.085984 -0.031853 177 186 191
-0.134354 0.028533 0.020947 17 18 23
-0.042474 0.056317 0.030747 165 170 173
0.161521 -0.048658 0.001647 94 93 91
-0.111029 -0.050694 0.009847 98 101 101
0.083886 0.005930 -0.003453 21 21 25
0.113744 -0.100294 0.038447 149 154 156
0.032211 0.060996 -0.046353 30 31 35
0.133143 -0.109640 0.036447 114 107 107
0.034054 0.040426 0.067347 67 73 72
0.067112 -0.057780 0.046747 149 158 169
-0.127448 -0.067138 -0.038253 52 51 56
-0.125639 0.052230 0.030647 131 140 149
0.156966 -0.093685 0.009347 100 100 98
0.149727 -0.013614 -0.004553 11 10 15
-0.112387 -0.018122 0.000047 125 125 135
0.068653 -0.091908 0.032047 170 179 187
0.159034 -0.078683 0.005847 96 96 94
-0.121037 0.079993 -0.028853 13 13 18
-0.111518 -0.033551 0.017047 102 104 102
0.165402 -0.031222 -0.009853 87 86 84
-0.114902 0.020658 0.041147 87 89 88
-0.006001 0.080751 -0.021653 187 192 196
-0.095614 0.056929 0.027147 98 102 105
-0.119730 -0.067394 -0.000553 96 96 94
0.005976 0.071909 -0.003253 186 191 194
0.055499 0.024346 -0.074653 211 176 118
-0.124316 -0.007010 -0.036453 50 51 56
-0.012202 0.074943 -0.010153 179 183 186
-0.044816 0.084254 -0.030853 145 150 153
0.158104 -0.061320 0.020147 96 96 94
0.057755 0.026095 -0.078353 197 156 94
0.042727 0.034515 -0.097053 190 153 101
-0.078233 0.073604 -0.008653 104 109 113
0.023232 0.082234 -0.023853 202 209 217
-0.096889 0.054765 0.031247 93 97 100
-0.044465 -0.065882 0.019647 160 174 185
-0.113749 0.038206 0.049547 92 91 92
-0.010081 0.075518 -0.010553 179 183 185
0.162676 -0.032574 0.006547 88 88 86
-0.094632 0.078884 -0.020353 101 101 102
0.035864 0.046320 -0.052253 29 34 35
-0.053048 -0.030794 0.033247 118 120 119
0.085874 -0.108597 0.028847 168 175 181
0.117114 -0.087820 0.044047 146 154 156
-0.123294 0.057211 0.023747 142 145 155
0.012037 0.047217 0.051447 150 157 155
-0.127419 -0.002121 -0.021553 49 50 54
-0.122939 0.018260 -0.036553 48 49 54
-0.040162 -0.086996 0.010647 169 183 194
0.027154 -0.026149 0.054547 115 117 113
-0.115736 -0.028147 0.018147 93 95 94
-0.125029 -0.011580 -0.035453 49 50 55
0.018843 0.073799 -0.005553 219 220 229
0.066447 0.030504 -0.087553 175 137 88
0.119628 -0.061624 0.053947 14 12 18
-0.104647 -0.041359 0.017047 143 154 169
0.061523 0.034058 -0.095153 174 140 94
0.110251 0.012623 -0.010553 20 17 22
-0.021752 0.068787 0.004247 202 207 210
0.053184 0.028853 -0.084153 186 148 86
-0.122692 0.013913 -0.040553 46 47 52
0.121516 -0.113057 0.033647 146 152 157
-0.127170 -0.036047 -0.039353 50 51 56
-0.128001 -0.011487 -0.023053 48 49 54
-0.127760 -0.005291 -0.020753 49 50 54
0.038730 0.037062 -0.101553 174 147 118
0.061551 -0.085005 0.033247 171 181 190
-0.013332 -0.040639 0.038447 119 123 121
0.088669 0.010635 0.004947 9 9 11
-0.060847 -0.041981 0.026347 144 158 170
0.034197 0.040183 -0.055953 15 14 19
-0.075517 -0.049259 0.020247 147 159 171
0.044026 0.035444 -0.098753 187 151 103
-0.078100 0.082995 -0.029753 106 111 114
0.006062 0.053372 0.037547 160 164 163
0.101959 0.019448 -0.064153 168 134 88
-0.060180 -0.093226 0.003147 163 175 188
0.066906 0.023469 -0.072653 206 174 114
0.039815 0.032973 -0.092853 201 162 105
0.038642 -0.019350 0.058747 87 89 84
-0.020103 0.033371 0.066447 104 106 102
0.004244 0.074394 -0.008653 183 189 192
0.158553 -0.082361 0.003147 100 100 98
-0.029339 -0.087207 0.013647 170 182 194
0.082753 -0.021370 0.017047 36 37 42
-0.080194 -0.081218 0.003147 154 168 179
0.026611 0.014856 0.070047 101 103 102
-0.095659 0.065509 0.009147 88 89 93
0.081661 0.019004 -0.063053 205 169 106
-0.028818 -0.004434 0.049447 121 123 122
0.134851 -0.055423 0.061647 97 97 95
0.119306 -0.029510 0.071147 90 92 91
0.013677 -0.100254 0.016347 177 190 199
-0.002416 0.064432 0.013447 199 202 201
-0.037112 -0.034067 0.035747 123 124 126
0.055685 0.026263 -0.078653 194 154 93
0.165315 -0.025154 -0.005153 85 84 82
0.099492 0.014700 -0.053953 183 150 98
-0.114076 -0.033019 -0.007053 23 22 31
-0.132006 -0.011623 -0.002953 41 42 48
-0.017214 0.072447 -0.003853 178 182 185
-0.117371 0.035320 0.021347 10 11 19
-0.053177 -0.081127 0.009247 164 178 189
-0.087891 -0.074484 0.005047 152 164 176
-0.125997 0.068210 0.001547 66 66 68
0.129377 0.009108 -0.006653 11 10 15
-0.090738 -0.002792 0.036547 104 106 105
0.056234 0.026195 -0.078453 196 156 95
0.020417 -0.047175 0.044347 70 86 87
0.068095 -0.100504 0.028747 174 183 190
-0.122219 0.042365 -0.029653 45 46 50
-0.104306 0.071808 -0.004053 88 89 93
-0.130815 -0.067114 -0.003353 91 91 89
-0.000468 -0.070706 0.027147 164 177 186
-0.098029 -0.054526 0.012947 148 160 172
-0.049571 -0.082462 0.010047 165 179 190
-0.096413 0.047596 0.046347 80 81 81
-0.115907 -0.061883 0.002747 97 99 98
0.155167 -0.103424 0.018347 101 100 98
-0.122881 0.024066 -0.035853 47 48 53
0.161404 -0.029778 0.008447 92 92 93
-0.080127 -0.032984 0.025947 110 112 111
-0.132295 -0.070235 -0.022353 51 50 55
0.058643 0.018005 0.009947 32 33 38
-0.109439 -0.031912 0.019547 78 78 80
0.164618 -0.042978 -0.009853 89 88 86
0.051884 0.035600 -0.098653 176 142 97
0.047389 0.027708 -0.081953 196 156 94
-0.093376 0.081103 -0.025653 98 99 103
-0.125295 0.055022 -0.011853 48 49 53
0.151988 0.009018 -0.000753 11 12 12
-0.068565 0.068978 0.003347 115 116 119
-0.010302 0.070950 -0.001753 164 171 175
-0.113546 0.059384 0.020447 76 79 89
0.155366 -0.088822 0.027547 98 97 95
-0.124342 0.054363 0.027447 151 160 173
-0.030027 -0.061513 0.025647 160 174 185
0.079976 0.024016 0.003247 38 37 42
0.014150 -0.085717 0.022947 173 182 192
-0.004719 -0.003177 0.055647 119 121 120
0.121850 0.023157 0.015847 28 22 23
-0.036612 -0.079467 0.014647 169 181 192
-0.095446 0.006319 0.039547 102 104 103
-0.091485 -0.013848 0.031947 105 107 106
0.029511 -0.081425 0.028047 168 178 187
0.042953 -0.105576 0.021647 183 189 195
0.003460 -0.084333 0.021547 171 184 193
0.039547 0.025475 -0.077353 212 177 113
-0.058879 0.022867 0.053647 109 111 110
-0.120605 0.030607 -0.044353 43 44 49
-0.070091 -0.054457 0.018747 151 163 175
0.048100 -0.082171 0.031647 170 181 190
-0.113932 0.016971 0.016047 20 19 24
0.064194 -0.015580 0.023547 28 29 33
-0.095104 -0.058879 0.011647 147 159 171
0.064707 0.034324 -0.095553 170 136 91
0.037212 0.017506 0.059547 64 66 65
-0.047675 0.025977 0.057847 99 106 105
-0.120957 -0.067017 -0.000753 97 97 95
0.039830 -0.075861 0.032747 165 175 184
0.002906 0.053257 0.038447 155 159 157
0.002857 0.057469 0.028947 184 189 189
0.105326 -0.063445 0.051447 148 157 163
0.047013 -0.013300 0.061247 79 80 82
-0.002103 -0.040317 0.041547 125 127 126
0.031773 0.024504 -0.073553 89 67 45
0.024770 0.074068 -0.005553 217 219 224
0.032019 -0.098772 0.021547 178 188 197
0.154656 -0.098719 0.023047 98 97 95
-0.100594 -0.052465 0.013147 144 156 168
-0.125160 -0.061897 0.000247 93 93 91
0.067849 0.020461 -0.066253 207 169 104
0.034092 0.032625 -0.079053 41 39 42
-0.043200 0.012934 0.053547 116 118 117
0.152758 -0.108548 0.030347 97 96 94
0.161918 -0.075080 -0.017153 97 96 94
-0.039631 -0.024172 0.039247 122 124 123
-0.109654 0.059352 0.020347 81 81 89
0.055982 0.036615 -0.100553 174 141 100
0.075405 0.078097 -0.014353 138 138 140
-0.003802 0.076032 -0.011553 184 187 192
0.125459 0.036174 0.074747 70 67 55
-0.112175 -0.024597 0.021247 94 97 96
-0.037852 -0.075799 0.015947 166 181 192
-0.095347 -0.055053 0.013547 147 159 171
0.050307 0.049726 0.044447 32 34 33
-0.119809 0.082179 -0.028953 40 40 41
-0.126013 0.017288 -0.021053 48 49 53
0.037657 -0.079562 0.030447 168 177 186
0.004060 -0.029843 0.047247 123 125 124
0.114825 -0.110152 0.033947 154 159 165
0.039114 -0.082734 0.029347 165 175 186
0.134846 0.009131 -0.005953 11 10 15
-0.031731 0.085343 -0.032453 175 185 187
0.087056 0.006707 -0.006353 49 48 53
0.061891 0.031365 -0.089853 182 145 93
0.157809 -0.041997 0.039647 89 89 87
-0.130610 -0.083670 -0.011153 90 90 88
0.116083 0.013799 -0.052253 158 125 85
-0.123244 0.004374 -0.039553 49 50 55
0.067785 0.032313 -0.091253 171 137 89
0.047526 0.035832 -0.099153 182 150 105
-0.123714 0.002674 -0.036053 49 50 55
-0.119079 0.071830 -0.041053 36 36 44
0.156594 -0.055459 0.037347 92 92 90
0.009285 0.076370 -0.012853 184 188 193
-0.130021 -0.041734 -0.024253 50 51 56
0.165220 -0.038135 -0.011953 87 86 84
0.039736 0.028493 -0.084153 198 158 96
0.055802 0.083578 -0.023953 168 168 172
0.157653 -0.069364 0.020347 100 99 97
0.125016 0.012561 -0.007053 10 9 14
-0.038010 0.067717 0.005847 168 175 173
0.136536 -0.002142 -0.006153 11 10 15
0.157598 0.031906 0.088947 24 20 18
0.159066 -0.083706 -0.003953 100 99 97
-0.114146 -0.005109 0.006847 12 11 16
-0.049246 -0.037011 0.031947 117 123 122
-0.018784 -0.098077 0.010147 179 189 197
0.065593 0.029837 -0.085853 185 148 95
0.152592 0.034676 0.089547 62 61 60
0.163336 0.003669 0.078147 71 71 69
-0.094245 0.077404 -0.016953 98 102 104
-0.128830 -0.023538 -0.024053 51 52 57
0.102301 0.019673 -0.064653 164 132 85
-0.057307 0.084865 -0.034053 148 154 154
-0.126931 0.026078 -0.014153 49 47 52
0.164052 -0.041543 -0.006253 92 91 89
-0.117716 0.020912 0.039947 77 79 78
-0.049864 0.001216 0.047047 116 118 117
0.020138 -0.099142 0.018547 173 183 192
-0.112772 0.054341 0.028547 178 191 202
0.050893 -0.008462 0.028247 12 13 18
-0.066126 -0.060947 0.016047 154 166 178
0.084814 0.000062 0.000647 52 52 54
0.042171 0.035920 -0.099853 189 155 109
0.049869 0.076038 -0.010053 190 192 196
0.068612 0.030625 -0.088053 178 140 93
0.066207 0.030476 -0.087353 184 147 95
0.004600 -0.059757 0.033647 157 171 180
-0.133652 -0.068867 -0.005253 88 88 86
0.116482 -0.011016 -0.008353 12 11 16
0.006063 0.070560 -0.000153 182 184 188
-0.131158 0.023785 0.024247 21 26 35
-0.078267 0.077540 -0.017153 123 127 128
-0.129222 -0.053860 0.002647 92 92 90
-0.070029 -0.030049 0.029447 113 116 114
0.017633 0.068215 0.006347 219 224 226
0.078229 -0.077879 0.039647 160 169 176
-0.079791 -0.036599 0.024547 99 103 103
0.055148 0.027557 -0.080953 195 155 94
0.042284 0.032764 -0.092453 203 164 106
0.037093 0.037350 -0.094153 27 23 19
0.132444 -0.089375 0.045747 109 108 103
-0.125998 0.041175 -0.011653 47 48 53
0.154808 -0.088137 0.036047 95 94 92
-0.002063 0.070548 0.000447 179 183 187
0.014439 0.082938 -0.024953 199 206 212
0.088254 0.020403 -0.065753 186 151 97
-0.053976 0.082409 -0.026853 147 153 157
0.054689 0.036655 -0.100753 175 146 104
-0.083200 -0.055049 0.016047 149 162 172
0.154605 -0.062319 0.049247 92 91 89
-0.071910 -0.083856 0.003747 158 170 182
0.148899 -0.023493 -0.005353 19 19 21
0.060424 0.035478 -0.098553 166 135 91
0.101407 0.019237 -0.063553 165 133 86
0.019402 -0.059003 0.037447 156 162 174
0.145810 -0.047007 0.067947 93 93 94
-0.014541 0.045676 0.053147 140 146 145
-0.063181 0.065383 0.011147 131 135 136
-0.079440 -0.085498 0.001247 156 168 180
-0.131977 -0.073473 -0.025453 53 52 57
0.055594 -0.093923 0.028347 172 181 188
0.087699 0.025578 -0.077453 161 127 81
-0.018040 -0.017919 0.046447 123 125 124
-0.062983 0.082640 -0.027553 141 147 147
0.122539 -0.000751 -0.007453 11 10 15
0.106219 -0.097007 0.038247 158 166 169
-0.098409 0.078760 -0.020153 94 98 99
-0.054918 -0.009468 0.041747 115 116 118
0.079473 -0.098609 0.031847 167 174 180
-0.121669 0.040967 -0.032653 44 45 50
0.033796 0.050601 -0.050853 21 21 26
0.027572 0.078128 -0.014753 212 217 221
0.151165 -0.097798 0.044347 83 82 80
0.152676 -0.105339 0.036847 93 92 90
0.159598 -0.070967 0.005547 98 98 96
0.046251 -0.092199 0.027047 174 182 192
0.087544 -0.033865 0.013147 27 28 32
0.063509 0.063239 0.008647 58 58 59
-0.133014 0.003314 0.015847 29 28 31
0.057493 0.050073 0.030147 19 20 22
-0.020347 0.084293 -0.029153 182 190 193
0.022078 -0.015707 0.057547 114 116 115
0.057421 -0.093534 0.028847 174 183 192
-0.061216 0.007490 0.046747 112 114 113
0.019415 0.085035 -0.029053 192 201 208
0.077957 0.027246 -0.080753 173 136 85
0.035659 0.035399 -0.087753 39 32 37
-0.062609 0.069882 0.000847 126 131 131
0.148230 -0.041921 0.070947 92 92 90
0.046544 0.028445 0.000547 23 22 30
-0.120952 0.044453 -0.041353 42 43 48
0.078282 0.017540 -0.059953 205 168 100
-0.045654 0.065387 0.011947 166 170 173
-0.121386 0.055347 -0.030653 42 43 47
-0.125568 -0.020744 -0.035353 51 52 57
-0.118765 0.078961 -0.021853 73 74 76
0.002109 0.084653 -0.028953 181 188 194
-0.129271 -0.006149 -0.013053 49 50 54
-0.092896 0.000334 0.037347 104 106 105
0.002219 -0.015970 0.052547 121 120 120
-0.052923 -0.020734 0.037447 117 119 118
-0.004095 -0.049638 0.036647 160 170 179
-0.125705 0.051055 0.032647 90 96 113
-0.094623 -0.087531 -0.002653 146 159 168
-0.081695 -0.060024 0.013747 147 161 172
0.160309 -0.080039 -0.009053 99 98 96
0.063462 0.030897 -0.088453 178 141 90
-0.015103 -0.048386 0.034747 157 170 179
0.065395 0.074732 -0.007453 157 159 158
0.161292 -0.048583 0.003847 93 93 91
-0.071531 0.082280 -0.028453 120 126 125
0.035091 0.031526 -0.087553 83 63 48
-0.071043 0.076210 -0.013153 135 144 143
-0.103326 -0.054083 0.011747 143 155 167
-0.132837 -0.014142 0.006447 31 30 39
0.125864 -0.037913 0.069547 90 90 88
-0.048279 -0.084087 0.009747 166 180 191
0.129177 -0.026358 0.075347 85 84 84
-0.093497 -0.066594 0.008047 147 159 171
0.045333 -0.051850 0.046647 151 162 168
-0.106369 -0.083896 -0.002753 138 148 158
-0.070065 -0.024083 0.032047 107 109 108
-0.075271 -0.081500 0.004147 156 170 181
-0.089210 0.082655 -0.029253 97 101 104
-0.129149 -0.051917 0.003547 89 89 87
-0.031228 0.079726 -0.020153 177 182 186
-0.092538 0.079438 -0.021853 101 106 107
-0.122232 -0.071871 -0.003153 95 95 93
-0.130270 -0.033461 -0.020653 50 51 55
0.133317 0.003759 -0.006153 11 10 15
-0.021339 -0.051380 0.032147 154 165 178
0.044970 0.034881 -0.097553 186 149 97
-0.036740 0.019732 0.057747 115 117 114
-0.132653 -0.029404 -0.005453 43 45 49
-0.084491 -0.027332 0.027447 108 110 109
-0.107060 -0.071945 0.002347 136 147 157
0.039284 0.036010 -0.099853 187 153 106
-0.121574 0.063482 -0.028553 42 43 47
-0.067043 0.066986 0.007647 119 123 125
-0.095515 0.074204 -0.009553 93 97 98
-0.021319 -0.024050 0.043147 123 125 124
0.061050 0.034365 -0.095653 172 138 92
0.157854 -0.048880 0.026247 91 91 89
-0.011191 0.080086 -0.019953 186 193 198
0.064422 -0.067026 0.041947 155 167 171
0.047379 0.036574 -0.101253 183 151 110
0.015194 -0.066280 0.032747 160 167 178
-0.013782 0.083580 -0.027853 188 196 202
0.155110 -0.052229 0.051847 90 89 87
-0.023116 -0.094150 0.011047 175 186 198
0.056492 0.033648 -0.094453 176 140 90
-0.132372 -0.058791 -0.000453 89 89 87
-0.120624 0.042083 0.025947 97 102 113
0.123648 -0.060224 0.055547 53 52 59
-0.126468 -0.015327 -0.029653 50 51 56
0.042630 -0.097551 0.024347 177 189 196
0.001119 -0.037507 0.043447 128 130 129
0.045319 0.005655 0.048247 69 71 70
-0.130790 -0.057233 -0.025053 50 49 55
-0.110867 0.063210 0.013447 82 83 87
0.025626 -0.088254 0.024047 169 179 188
-0.070572 -0.001193 0.041347 110 112 111
-0.076291 -0.000452 0.040447 107 110 109
-0.122137 0.041982 -0.030153 44 45 50
0.155616 -0.018350 0.075647 79 78 76
0.129478 -0.077300 0.050247 105 105 103
-0.119763 0.058647 -0.039553 38 39 44
-0.033169 -0.091256 0.010247 173 185 199
0.157246 -0.092850 0.007547 102 102 100
-0.120144 0.070167 -0.032653 37 38 43
0.067316 0.065335 0.006447 59 59 57
0.030702 0.070994 0.001447 199 200 204
-0.080316 0.031923 0.052847 97 99 98
-0.064850 -0.055166 0.019847 154 168 179
0.162909 -0.004281 0.073447 73 73 71
0.163360 -0.060545 -0.011353 96 95 93
-0.064011 -0.053641 0.020947 154 168 179
0.099605 0.014833 -0.054353 182 149 97
-0.056778 -0.073428 0.011747 162 176 187
0.064359 -0.074568 0.038547 161 169 180
-0.122425 0.058684 0.021247 81 85 94
0.099763 0.018638 -0.062353 175 143 98
-0.087345 0.065907 0.008647 110 109 111
-0.016910 -0.072128 0.022947 161 175 187
0.159173 -0.077521 -0.002853 101 100 98
-0.089964 -0.010240 0.033647 105 107 106
-0.119296 0.068050 -0.042953 35 36 41
0.150778 -0.075336 0.055747 92 91 89
0.036667 0.031349 -0.089653 196 164 102
-0.075565 0.031228 0.053347 96 101 100
-0.132542 0.028168 0.027747 23 25 29
-0.017388 -0.087334 0.016047 174 186 198
-0.049412 0.082543 -0.027353 155 161 164
-0.062361 0.063190 0.015947 138 141 141
-0.050543 0.081587 -0.025253 162 167 170
-0.040782 0.083395 -0.029153 156 161 162
0.028327 -0.002693 0.063947 108 110 109
0.035210 -0.053487 0.043547 151 164 165
-0.005093 0.073676 -0.006353 171 175 179
-0.111181 0.013402 0.039147 89 91 90
-0.072552 0.078760 -0.020153 124 129 128
0.159167 -0.077309 0.006547 98 98 96
-0.118375 -0.004776 0.027947 77 79 76
-0.076100 0.000610 0.040847 107 107 107
0.046306 0.024096 -0.074553 210 175 110
0.047717 0.029487 -0.085853 200 160 102
0.136429 -0.043072 0.068647 94 94 92
-0.061761 -0.067325 0.013647 156 170 181
-0.116175 0.064329 0.011547 81 85 88
-0.065437 0.050843 0.043047 105 112 114
-0.116014 0.081502 -0.027553 70 71 73
-0.006142 -0.080870 0.021047 171 185 196
0.156805 -0.090534 0.016747 99 100 98
-0.126024 -0.025105 -0.034953 50 51 56
0.047325 0.035961 -0.099653 182 150 105
0.165072 -0.010375 -0.001753 75 75 73
-0.077531 -0.092576 0.000847 157 172 181
0.059771 0.033324 -0.093553 174 138 88
-0.131427 -0.071308 -0.025953 51 50 55
-0.130408 -0.055015 -0.026253 51 50 56
-0.110788 -0.013167 0.003147 151 158 163
-0.060835 -0.093929 0.003347 163 175 187
0.066149 0.030201 -0.086653 172 135 82
-0.128893 -0.020384 -0.021053 49 50 54
-0.133192 -0.069573 -0.005453 90 90 88
0.094587 -0.110107 0.030147 162 167 173
0.161256 -0.030631 0.010947 89 89 86
0.088868 0.000901 0.000847 54 54 56
-0.115291 0.033838 0.022047 14 12 19
-0.116620 0.035053 0.021647 16 11 23
0.160028 -0.061683 0.006247 98 98 96
0.162893 -0.065580 -0.015953 98 97 95
-0.008068 -0.079640 0.021147 170 182 194
0.036959 0.030374 -0.087853 205 165 103
0.059243 0.023469 -0.072653 207 171 111
0.041962 0.021738 -0.069553 213 178 110
-0.019883 0.050530 0.043247 142 150 147
0.161183 -0.079384 -0.014253 98 97 95
0.001989 0.004661 -0.147253 39 43 41
0.161357 -0.037353 0.011347 91 91 89
0.008361 0.055613 0.033047 159 163 162
0.086598 0.011764 0.004347 11 11 11
0.058487 0.039293 0.035547 12 16 14
0.062646 0.028891 -0.084053 193 156 101
-0.017393 0.078727 -0.018953 187 192 198
-0.047678 0.052654 0.038847 140 152 148
0.091981 -0.055177 0.052847 141 150 158
-0.071432 0.002737 0.042647 108 110 109
-0.123082 0.006459 -0.037353 47 48 53
-0.114179 0.038696 0.027147 137 144 150
-0.078885 0.005624 0.042347 106 108 107
-0.123678 -0.010674 0.001147 73 78 84
-0.120259 0.079776 -0.032953 29 30 35
0.055271 -0.085622 0.031747 172 182 191
0.037655 0.017979 0.009647 36 37 40
-0.127492 -0.051272 -0.033853 50 51 56
-0.065918 0.062648 0.017047 122 126 127
-0.120322 0.051758 -0.037953 42 43 48
-0.032723 -0.095064 0.008247 175 183 195
0.032123 0.072010 -0.001253 199 203 207
0.159417 -0.035403 0.022247 88 88 86
0.142643 -0.092993 0.045647 103 102 98
0.035330 0.013215 0.070347 71 73 72
0.147673 -0.081672 0.052547 100 99 95
-0.071618 -0.090605 0.000847 160 172 184
-0.118435 0.044756 0.046847 120 124 135
0.165355 -0.014051 -0.005353 79 78 76
-0.120237 0.057795 -0.035753 41 42 47
0.164685 -0.037121 -0.009353 80 79 77
-0.022926 0.025299 0.062847 111 113 112
-0.000947 0.054157 0.036547 158 165 166
-0.123179 0.021827 -0.033853 46 47 52
0.157601 0.000620 0.081047 74 73 71
-0.019274 -0.069563 0.023747 163 175 187
0.006778 -0.018640 0.052647 121 123 122
0.138232 -0.058723 0.060747 98 98 96
-0.129747 0.039752 0.003247 45 46 51
0.001210 0.084742 -0.029153 179 186 192
0.155600 -0.041041 0.061247 86 85 83
0.091228 -0.005609 0.030847 30 31 32
0.074024 0.075142 -0.009253 147 147 147
-0.093908 -0.072407 0.004947 148 160 172
-0.048315 -0.029704 0.034747 120 122 121
0.060572 0.025783 -0.077653 193 157 97
0.136373 -0.093166 0.044547 108 107 103
0.157222 -0.062557 0.026647 98 98 96
0.140708 0.000520 -0.005453 11 10 15
-0.120368 0.045796 -0.043053 41 42 47
-0.130511 0.038233 0.031747 38 41 48
-0.122083 0.023449 -0.040553 46 47 52
0.029889 -0.063456 0.037147 154 164 173
0.069595 0.032599 -0.091953 166 132 87
-0.074659 -0.017510 0.034047 108 110 109
-0.114150 -0.073613 -0.001953 100 102 101
0.030274 0.021024 -0.065753 88 72 50
-0.057077 0.073116 -0.006953 122 126 126
0.061790 -0.007372 0.026947 10 11 15
-0.014839 0.068787 0.004247 200 204 205
0.159996 -0.060226 0.007647 97 97 95
0.161029 -0.081033 -0.012453 98 97 95
-0.123217 0.016047 -0.035553 47 48 53
-0.132945 0.021482 0.014647 23 24 31
0.102680 -0.110249 0.031947 143 147 150
-0.129170 0.062073 0.014547 38 39 45
-0.132012 -0.062855 -0.021053 51 50 55
-0.118911 0.063474 -0.041553 40 41 46
0.042241 0.025885 -0.077753 212 175 117
0.042215 0.035649 -0.099153 186 150 102
-0.075992 0.079067 -0.020453 129 131 133
-0.131973 0.004847 0.004147 38 39 44
-0.132831 -0.001539 0.013047 31 32 37
-0.078603 0.001683 0.040847 107 109 108
0.059404 0.035478 -0.098553 173 140 97
-0.087330 0.078093 -0.018353 92 96 97
0.080681 -0.032229 0.015347 41 48 50
-0.045885 0.007545 0.050447 116 118 117
-0.111575 0.045650 0.045847 166 171 180
0.037795 -0.102944 0.021547 179 191 196
0.155801 -0.077447 0.034747 99 98 96
0.043746 0.083099 -0.022853 188 193 197
0.139845 -0.011683 -0.007153 12 11 16
-0.053808 0.074364 -0.009753 153 158 161
0.155459 -0.086604 0.030347 98 97 95
-0.128749 0.064269 0.003747 19 20 25
0.005343 -0.053833 0.036647 159 169 179
-0.124349 0.032024 -0.023853 48 49 53
-0.086288 -0.081326 0.001847 153 165 179
0.061457 -0.023306 0.023147 36 37 41
-0.120362 0.065591 -0.032653 41 42 44
0.059080 0.030687 -0.087653 182 143 88
0.073582 -0.009601 0.021947 23 24 26
0.055162 0.079218 -0.015053 167 168 170
0.070699 0.005923 0.033847 11 12 15
-0.125953 0.038300 -0.013853 46 47 51
-0.079600 -0.073083 0.007447 155 167 179
0.140343 -0.058173 0.061547 100 98 96
-0.116011 -0.082310 -0.006653 98 98 96
-0.070111 0.052277 0.040147 100 102 101
-0.038366 0.071986 -0.004253 172 183 180
-0.087618 0.025041 0.048847 98 100 99
-0.040897 -0.089277 0.008947 169 183 194
-0.075289 -0.043866 0.022547 147 161 170
-0.110859 -0.070871 0.000247 91 95 96
0.066582 -0.019278 0.022147 32 33 37
-0.121774 0.072055 -0.005253 76 77 82
-0.104297 0.051290 0.037647 104 109 116
-0.112012 0.000989 0.009147 158 162 167
-0.080179 0.072356 -0.005753 101 105 104
0.051507 0.028977 -0.084453 187 147 85
0.164894 -0.034349 -0.008953 84 83 81
0.005923 -0.029225 0.047947 122 124 123
-0.130780 0.048467 0.012047 48 49 54
0.159731 -0.048480 0.014947 94 94 92
0.164019 0.007601 -0.001953 67 65 66
0.089934 0.017495 -0.060253 194 159 103
0.110172 0.012798 -0.011953 27 25 26
-0.046385 -0.039952 0.031447 108 117 122
-0.033927 -0.089576 0.010947 168 183 193
0.164465 -0.000147 -0.001553 76 76 74
0.125945 -0.109065 0.036647 108 107 109
0.084518 -0.075974 0.041847 155 166 168
0.016202 -0.040378 0.046447 123 125 124
0.133854 0.008588 -0.006153 11 10 15
0.077755 0.022906 -0.071453 200 165 112
-0.126473 -0.024773 -0.038553 49 50 55
0.165468 -0.021427 -0.003353 86 85 83
0.062391 0.022563 -0.070453 204 169 105
-0.009773 0.001053 0.056347 117 119 118
0.138964 -0.090672 0.046147 107 106 102
0.035623 -0.017074 0.059447 109 109 109
0.086742 0.013570 0.005647 12 8 13
-0.121963 -0.003289 0.005647 7 11 17
-0.129924 0.007243 -0.006353 47 48 53
-0.132807 -0.008616 0.006747 33 34 39
-0.004092 -0.022903 0.047847 126 124 125
-0.089556 0.083268 -0.031653 94 98 101
0.029935 0.081338 -0.036353 36 36 44
0.164586 -0.048128 -0.012053 89 88 86
-0.071750 -0.032752 0.027947 110 112 111
0.104461 -0.075642 0.046247 151 160 161
-0.121529 0.035332 -0.040153 44 45 50
-0.047791 -0.009950 0.043347 119 121 120
0.057389 -0.093812 0.028747 172 181 190
-0.098238 0.071845 -0.004553 95 96 98
0.117164 0.013950 -0.052553 154 128 85
-0.054163 -0.074181 0.012047 163 177 192
0.165709 0.004040 -0.009153 70 70 68
-0.014115 -0.038020 0.039347 125 126 125
0.052849 0.027488 -0.081153 199 159 98
-0.120721 0.070645 -0.030653 41 42 47
0.046222 0.036171 -0.100153 182 149 106
-0.065870 0.081774 -0.026053 134 140 140
0.095064 0.019021 -0.062953 181 147 97
0.033674 0.063298 -0.045353 33 34 38
0.047621 0.027885 -0.082153 196 156 94
-0.109234 -0.076265 -0.001153 89 97 102
-0.116083 -0.079032 -0.004953 99 99 97
0.080463 -0.080447 0.039047 161 169 180
0.118173 -0.054216 0.057447 130 137 138
0.054270 0.034112 -0.095753 179 143 93
0.006947 0.073480 -0.006753 189 195 199
0.085985 -0.025336 0.014847 26 24 30
0.022526 0.085348 -0.029253 188 195 201
-0.128098 -0.041398 -0.037353 52 53 58
0.039185 -0.051838 0.045347 150 161 167
0.154285 -0.082311 0.039247 94 93 91
-0.077281 -0.055891 0.016647 151 163 175
0.157513 -0.043546 0.040147 89 89 87
-0.050012 -0.054818 0.024347 157 171 182
0.074452 -0.032056 0.017347 48 51 56
0.054338 -0.002610 0.032047 9 10 15
-0.086085 -0.013930 0.032747 107 109 108
0.042550 0.034647 -0.097153 191 153 105
-0.133873 -0.053726 -0.007253 51 50 55
0.160122 -0.083147 -0.010353 99 98 96
0.082246 -0.054351 0.051347 141 150 155
-0.035490 0.069007 0.002747 174 178 181
-0.123957 0.016655 -0.031753 47 48 53
0.114749 0.013656 -0.051853 158 127 83
-0.054449 -0.050771 0.024947 155 169 178
0.050849 0.049159 0.045147 38 40 39
0.078153 0.028514 -0.083453 172 136 88
-0.036316 -0.073672 0.017347 165 179 190
0.156547 -0.050060 0.044247 90 90 88
0.070002 -0.019763 0.021047 35 36 40
0.049511 0.034914 -0.097653 178 141 96
0.044323 0.025933 -0.078453 194 156 92
-0.088310 0.059617 0.022147 101 105 109
0.054627 0.017976 -0.060353 219 184 117
0.031039 -0.098390 0.021447 177 187 196
-0.074382 -0.079226 0.005247 156 168 180
0.013462 -0.044834 0.043747 113 117 122
0.000741 -0.031081 0.045947 124 125 124
0.145143 -0.008186 0.083347 79 79 80
0.039510 -0.102619 0.022047 179 188 200
0.039826 -0.059594 0.041247 151 161 170
-0.052104 -0.063609 0.018747 160 174 185
0.113898 0.013050 0.076947 65 67 66
0.044537 0.054727 0.024147 17 18 20
-0.038952 -0.048059 0.030147 155 167 179
-0.087306 -0.065162 0.010147 151 162 174
0.158000 -0.035001 0.060747 85 84 82
0.047338 0.022156 -0.070953 208 173 107
0.045885 0.032552 -0.092253 193 154 99
0.073489 0.025876 0.002247 39 39 44
0.157312 -0.090594 0.012147 99 99 97
-0.057707 0.073453 -0.007353 130 134 135
-0.134352 -0.050440 0.002647 84 84 82
0.071012 0.010691 0.022747 33 31 35
0.044105 0.019062 -0.055553 185 169 138
0.113255 0.014540 -0.019353 20 20 22
0.037319 0.029855 -0.086653 195 155 93
0.047852 -0.055708 0.044847 149 161 167
-0.118144 0.028997 0.019747 6 8 10
-0.090612 0.049687 0.042747 92 89 96
0.093519 0.019728 -0.064353 179 143 91
-0.082582 0.038458 0.055547 79 79 79
0.047501 0.031755 -0.089953 191 152 95
0.068683 -0.025679 0.020147 40 41 45
-0.104340 -0.064197 0.006647 142 154 167
-0.063658 0.084321 -0.032353 134 140 139
-0.104175 -0.033976 0.020247 104 106 105
0.158729 -0.071152 0.012047 96 96 94
-0.008401 0.085992 -0.032153 174 181 187
-0.117680 -0.044578 0.010347 100 102 101
-0.113938 0.080789 -0.026153 75 76 78
-0.105015 0.074793 -0.011453 88 89 93
-0.010777 0.079771 -0.019253 184 190 194
0.030705 0.039083 -0.053753 56 59 60
0.073823 -0.102907 0.028847 168 177 182
0.061269 0.019112 -0.063353 212 177 113
-0.001560 0.082833 -0.026553 191 195 201
0.059991 0.033073 -0.093253 176 140 90
-0.014735 -0.040261 0.038347 120 124 123
0.049530 0.028589 -0.083253 188 149 85
0.005710 -0.007860 0.056547 118 120 119
-0.130999 -0.023462 -0.010753 46 45 50
0.052813 0.076142 -0.009853 178 182 186
-0.111143 -0.004248 0.007147 146 157 163
0.067095 -0.009150 0.024347 11 12 17
0.062355 0.011557 0.020247 32 32 40
0.054107 -0.030720 0.024547 42 43 47
-0.070278 0.008934 0.045347 107 109 108
0.031997 0.000126 0.008147 56 57 61
0.145282 0.023493 0.096247 15 15 15
-0.133480 0.013325 0.017547 30 30 38
0.165231 -0.013053 -0.006853 78 77 75
-0.061761 -0.031657 0.030747 115 119 118
0.029402 0.066295 0.011947 135 141 140
-0.030554 0.085568 -0.032753 171 178 184
0.152433 -0.018281 0.079147 78 76 74
-0.124286 0.056782 -0.015853 45 46 50
0.165164 -0.000547 -0.005753 71 71 69
0.070695 0.026393 -0.078653 184 148 94
0.064639 0.025460 -0.076953 192 154 92
0.051186 0.032916 -0.093553 188 148 96
0.058348 0.032661 -0.092653 180 143 91
-0.131027 -0.057655 -0.023753 51 50 56
-0.048609 0.006408 0.049347 116 118 117
-0.121639 0.054118 -0.029353 46 47 51
-0.088755 0.082681 -0.029553 97 101 104
0.155005 -0.081519 0.037547 96 95 93
-0.067497 -0.079957 0.006047 156 168 180
-0.128686 0.051830 0.000747 50 51 56
-0.126089 0.044879 -0.010453 48 49 53
-0.126044 -0.078594 -0.007953 93 93 91
-0.037735 -0.071805 0.018047 162 176 187
0.168088 0.019719 0.081147 64 63 61
-0.027858 -0.068117 0.022647 162 176 187
0.096801 -0.091469 0.038447 156 163 169
-0.119690 0.001869 0.009847 5 4 9
0.038194 0.029100 -0.085353 197 157 95
0.059232 0.026026 -0.078153 196 158 99
0.049162 0.019634 0.008247 31 31 39
0.089486 0.023309 -0.072153 172 139 88
0.164873 -0.046746 -0.014953 89 88 86
0.000775 -0.044720 0.040547 105 109 113
0.026621 0.065692 0.013547 140 146 149
-0.050897 0.079796 -0.021653 154 160 160
-0.055988 -0.065422 0.016347 160 174 187
-0.105441 0.076364 -0.014753 86 87 91
0.025479 -0.028254 0.053347 116 118 117
-0.119992 0.051459 -0.042353 40 41 46
-0.110967 -0.066493 0.002247 98 98 101
-0.003137 0.083292 -0.027253 181 187 193
0.162401 -0.020903 0.061847 83 82 80
-0.048739 -0.082573 0.010247 165 179 190
0.037674 0.026263 -0.078653 210 176 111
-0.103568 -0.077881 0.000247 139 152 161
0.156506 -0.069524 0.033147 96 95 93
0.055071 0.025021 -0.076153 202 166 104
-0.082379 0.027097 0.050547 98 100 99
-0.119013 0.054883 0.026947 164 171 186
-0.105514 0.065789 0.008347 90 94 97
-0.093642 -0.041135 0.019647 142 154 166
0.034819 0.066575 0.010347 149 150 155
-0.123014 0.003777 -0.041653 48 49 54
0.069191 -0.010988 0.023047 25 26 31
-0.129201 0.030552 -0.000253 46 47 52
0.037498 0.033749 -0.094453 203 167 113
-0.072084 0.082375 -0.028653 116 121 124
0.021694 0.032004 0.075147 56 63 57
-0.132633 -0.063914 -0.018153 51 50 55
0.073558 0.028682 -0.083653 177 141 89
0.016643 -0.025070 0.052447 118 118 121
0.033314 -0.069449 0.034647 161 171 180
0.056298 0.033164 -0.093853 178 141 89
0.036558 0.031349 -0.089653 196 162 103
0.143459 -0.018291 0.079247 81 82 79
-0.073711 0.018310 0.048547 102 104 103
0.164631 0.015081 -0.001653 51 53 48
-0.115674 0.056420 0.025447 169 176 195
-0.107930 0.080721 -0.025153 79 80 82
-0.085397 0.055949 0.030647 150 154 158
-0.132995 -0.031201 -0.003653 46 47 51
-0.120028 0.054211 -0.038953 41 42 47
-0.002008 -0.049786 0.037147 160 170 180
-0.124829 -0.074218 -0.004853 92 92 90
0.055014 -0.012290 0.026447 23 24 28
0.016274 -0.011074 0.058047 113 115 114
-0.031260 -0.011275 0.046247 122 124 123
0.159868 -0.066180 0.005247 99 99 97
-0.123570 -0.075189 -0.005053 96 96 94
-0.126600 0.025858 -0.017053 47 48 52
0.120773 -0.109872 0.035147 150 154 157
0.047201 0.019794 -0.064853 217 181 116
0.165393 -0.025190 -0.008753 83 82 80
-0.018902 -0.087785 0.015747 173 185 197
0.135731 0.017440 -0.006153 11 9 10
0.035923 0.026972 -0.080053 198 160 97
-0.132256 0.049012 0.036947 55 54 65
-0.127355 0.041871 -0.005053 47 48 53
0.158717 -0.042638 0.023947 91 91 89
0.038104 0.073217 -0.003953 198 202 205
0.163766 -0.052435 -0.010353 94 93 91
0.018241 -0.011870 0.058247 111 113 112
0.066509 0.024429 -0.074853 193 157 97
-0.119509 0.055853 -0.043953 39 40 45
-0.071443 -0.060397 0.015447 155 167 179
0.078567 0.021826 -0.069153 193 157 99
-0.023676 0.082401 -0.026153 188 193 197
-0.031400 -0.019307 0.042847 123 125 124
-0.123888 0.070996 -0.003453 71 71 73
-0.058246 0.080558 -0.022753 147 151 152
-0.129452 0.055334 0.006247 44 45 50
-0.008949 0.035206 0.070847 34 34 33
0.040126 0.036905 -0.101653 189 158 114
0.033323 -0.104150 0.019947 180 189 199
-0.025425 -0.007039 0.049247 121 123 122
0.147625 -0.095822 0.045447 106 105 101
-0.121266 0.078410 -0.020753 49 50 52
-0.126018 0.014537 -0.022453 47 48 53
-0.133043 -0.045238 -0.008653 50 49 54
0.133274 -0.014500 0.080247 82 82 83
-0.015069 0.085606 -0.031453 170 177 183
0.160567 -0.082508 -0.011753 99 98 96
-0.067022 -0.058065 0.017447 154 166 178
0.148275 0.013408 0.098947 67 67 67
0.002353 0.081494 -0.023153 186 194 196
0.071285 0.031584 -0.089853 169 135 89
-0.017169 -0.047320 0.034647 157 170 178
0.031812 0.070246 -0.041653 35 36 41
-0.090215 0.083268 -0.031653 98 102 105
-0.058924 0.079794 -0.020853 147 151 152
-0.122695 0.009596 -0.041753 49 50 55
0.119853 -0.018506 -0.009353 13 12 17
-0.123699 0.059264 -0.018253 48 49 53
-0.109040 0.080613 -0.024953 78 79 81
0.012455 0.085826 -0.031453 197 204 210
0.076082 0.021721 -0.068953 195 159 98
-0.129963 -0.029960 -0.020253 48 49 53
-0.125370 -0.017165 -0.035153 49 50 54
-0.105123 -0.086912 -0.004053 142 152 162
-0.126968 0.002436 -0.022453 49 50 53
-0.120564 0.007290 0.012547 7 6 12
0.155718 -0.086471 0.023147 100 99 97
-0.130689 0.011832 -0.000153 43 44 47
-0.053426 -0.032986 0.032247 120 120 124
0.135178 -0.005127 0.083547 77 80 76
-0.128891 0.062599 0.013447 42 44 48
0.033009 0.061436 -0.046253 29 30 35
0.065371 0.086071 -0.028853 116 115 125
-0.113310 0.019314 0.025347 117 128 127
-0.009753 0.076137 -0.011353 181 187 189
-0.053748 -0.024643 0.035547 115 119 118
-0.131846 0.025842 0.010447 41 43 47
-0.095131 -0.073729 0.004147 147 159 171
0.162820 -0.056348 -0.009153 97 96 94
0.143420 -0.034849 0.073147 89 89 87
-0.128193 -0.054920 0.002447 91 91 89
-0.004027 0.049664 0.045747 159 165 160
0.164448 0.009335 0.000447 69 69 67
0.044754 -0.002298 0.052547 78 80 79
-0.109430 -0.056713 0.008447 115 124 127
0.069180 0.023097 -0.071853 206 170 110
0.154194 -0.081800 0.040447 95 94 92
0.025507 0.085692 -0.030053 193 200 206
0.140798 -0.026497 0.076347 86 86 84
-0.131552 -0.004516 -0.002553 45 46 51
0.032905 0.035181 0.076747 67 68 71
-0.119188 0.079888 -0.023853 69 70 72
0.157704 -0.090951 -0.000353 102 102 100
0.048301 0.018361 -0.061053 215 183 116
0.034268 0.035430 -0.058153 10 8 15
0.110275 0.013159 -0.014353 24 26 30
-0.089008 0.080469 -0.024053 99 103 104
-0.077389 0.084284 -0.033653 104 109 112
0.165348 -0.014414 -0.004653 79 78 76
-0.054045 -0.046719 0.026747 153 167 178
0.018598 0.066716 0.009947 207 218 215
0.065681 0.027006 -0.079953 187 148 91
0.156767 -0.050405 0.039247 93 93 91
0.143388 0.003750 -0.004653 11 10 15
0.161178 0.016475 0.085647 66 65 63
-0.123265 0.018935 -0.034553 50 51 56
-0.000051 -0.085769 0.020047 170 183 192
0.014602 0.082077 -0.023353 191 199 202
-0.029820 -0.022085 0.042047 122 124 123
-0.112449 0.048475 0.040647 172 181 190
0.104104 -0.089492 0.040847 155 162 168
-0.013340 0.082760 -0.025953 186 193 199
-0.124869 0.066472 0.005647 77 77 78
-0.127567 -0.035254 -0.038153 51 52 57
0.091149 0.024456 -0.074753 165 130 86
0.063417 0.028644 -0.083753 192 154 98
0.165504 -0.018464 -0.004753 82 81 79
-0.050397 0.081480 -0.025053 162 167 170
-0.066605 0.049436 0.046347 90 93 93
-0.069097 -0.038021 0.026347 102 109 108
0.066385 0.023740 -0.073253 205 174 115
-0.006274 -0.060793 0.030847 160 172 186
-0.116614 -0.081485 -0.006253 98 98 96
-0.129388 0.014743 -0.006353 46 47 52
-0.093792 -0.024243 0.026847 108 108 110
-0.063526 0.026325 0.053847 105 107 106
-0.122073 0.065512 -0.025853 42 43 47
0.044370 0.032660 -0.092453 194 155 100
0.121296 0.003501 -0.007353 11 10 15
0.069304 0.032198 -0.091053 167 133 87
0.026582 -0.059416 0.038647 149 159 168
0.154784 -0.101026 0.021047 99 98 96
-0.062312 -0.025304 0.033247 114 116 115
0.167615 0.007752 0.064447 63 64 64
-0.125931 0.006182 -0.026353 48 49 54
0.062866 0.034641 -0.096353 171 139 96
0.074466 0.029789 -0.086253 167 131 83
0.065178 0.018542 -0.061953 219 185 121
-0.039996 0.039926 0.064347 63 62 61
0.059594 0.075667 -0.009253 162 163 165
0.063246 0.033324 -0.093553 167 133 85
-0.122137 -0.083788 -0.009353 94 94 92
-0.130505 -0.056777 -0.025953 50 49 55
0.071171 0.023803 -0.073553 195 160 107
0.045299 0.022968 0.004047 33 33 41
0.095199 -0.052857 0.054047 134 146 151
-0.013363 -0.080425 0.019547 172 183 196
0.066285 0.024315 0.003347 32 33 38
0.148678 -0.006040 -0.004253 11 10 15
