ply
format ascii 1.0
element vertex 1204
property float x
property float y
property float z
property uchar red
property uchar green
property uchar blue
end_header
-0.037301 0.005787 -0.049181 111 62 34
-0.008959 -0.020549 -0.033181 6 31 26
0.126262 0.005311 0.134419 90 100 103
-0.028233 -0.013672 -0.037981 137 145 142
-0.014507 -0.006080 -0.033481 188 158 81
-0.023867 0.004752 -0.098181 215 215 211
-0.013235 0.008284 -0.032381 162 126 37
0.128285 0.037523 0.137019 53 61 62
0.090555 0.034946 0.147019 44 50 50
0.026335 0.064640 0.084519 143 142 142
-0.007008 0.008826 -0.033781 157 135 111
0.018401 0.002995 0.010619 38 37 44
0.121036 0.039471 0.152319 17 20 23
0.117143 0.013837 0.142519 95 107 111
0.115565 -0.010680 0.135419 108 120 122
-0.036922 0.014178 -0.068081 94 66 36
0.006025 -0.007166 -0.019681 20 45 40
-0.006943 0.023805 -0.013381 119 119 121
-0.033035 0.009308 -0.050881 91 41 7
-0.027544 0.006844 -0.030381 120 101 84
-0.019439 -0.007333 -0.035881 126 124 114
-0.030355 -0.001780 -0.043581 69 74 79
-0.013601 -0.010848 -0.033481 16 42 40
0.069115 0.052181 0.123019 109 113 108
-0.007108 -0.013744 -0.032681 13 42 39
0.003469 -0.015240 -0.021981 19 45 43
-0.035652 0.018537 -0.060081 99 61 25
-0.031030 0.011203 -0.060881 161 113 65
-0.029970 -0.015083 -0.035181 4 7 6
0.110934 0.060866 0.118819 112 121 114
-0.023830 0.004741 -0.098181 187 188 175
0.049209 0.056177 0.107719 112 113 109
-0.039691 -0.010806 -0.038081 130 147 163
0.123740 -0.019405 0.123919 104 118 120
-0.018193 0.027398 -0.025681 161 161 165
0.033090 0.037687 0.096119 141 138 135
-0.023830 0.004712 -0.098181 22 13 8
-0.033394 0.000822 -0.046081 162 172 179
-0.013014 -0.001723 -0.037681 198 179 125
0.102399 -0.033646 0.138119 118 129 127
-0.032797 -0.015630 -0.036481 1 9 6
-0.046848 -0.019167 -0.030581 17 49 42
-0.001545 0.006001 -0.020881 22 30 27
-0.043828 0.010782 -0.068281 74 84 89
0.005088 -0.006458 -0.020181 16 41 36
0.041669 0.015412 0.082319 181 188 192
-0.047332 0.007540 -0.061281 226 181 188
0.006018 0.015869 0.007319 149 152 153
0.086285 0.005939 0.158519 111 119 120
-0.022306 0.011169 -0.036781 152 132 112
-0.025373 0.016824 -0.047281 152 128 112
-0.043690 0.004581 -0.055881 205 141 150
0.123800 -0.022953 0.123519 108 118 123
-0.036798 -0.003420 -0.041981 75 75 79
-0.022530 -0.016516 -0.036681 16 29 26
-0.023806 0.004725 -0.098181 69 52 34
-0.030781 -0.010937 -0.040381 73 82 94
-0.014757 -0.000329 -0.036181 140 109 55
-0.005626 -0.018096 -0.032381 19 48 47
0.116849 0.009538 0.140219 95 112 115
0.075927 -0.093658 0.130819 84 113 110
0.119322 -0.026178 0.124419 106 118 120
0.107901 -0.088025 0.118819 127 140 139
-0.035276 -0.013154 -0.037781 150 160 165
-0.036946 -0.012135 -0.038081 148 157 150
-0.034938 0.016932 -0.060781 102 66 27
-0.023834 0.004686 -0.098181 141 145 138
0.106620 0.066237 0.113119 128 137 130
-0.049007 -0.001503 -0.042081 118 74 15
-0.001447 -0.015761 -0.026081 16 41 34
-0.044530 0.000323 -0.044681 145 91 13
-0.074571 -0.040839 0.010619 129 142 139
-0.003124 -0.009465 -0.027281 15 38 34
-0.048010 -0.009084 -0.039381 92 141 156
-0.030638 -0.008375 -0.042581 49 69 95
-0.040218 0.007981 -0.057081 222 170 177
-0.014471 -0.010026 -0.028581 20 16 7
0.002156 0.001296 -0.021381 16 38 37
-0.009467 -0.006517 -0.032881 10 34 32
-0.027498 0.013421 -0.042381 145 125 105
-0.020167 0.027057 -0.029681 162 162 166
-0.006528 0.021220 -0.013181 111 117 119
-0.032820 -0.019274 -0.039581 3 11 8
-0.037741 0.013972 -0.069681 151 147 138
0.097089 0.042517 0.149319 121 123 114
-0.085330 -0.035467 -0.001881 136 150 141
-0.023841 0.004741 -0.098181 204 205 201
-0.049209 0.007414 -0.062581 223 179 188
-0.014740 -0.004976 -0.034781 202 183 138
-0.050247 -0.002263 -0.041281 114 63 6
-0.012189 0.009864 -0.031381 133 113 91
0.075891 0.066135 0.100219 127 133 131
-0.010334 0.007467 -0.034481 154 117 44
-0.023836 0.004743 -0.098181 180 171 150
-0.045359 0.002250 -0.043681 93 54 7
-0.083050 -0.031350 0.005019 128 141 136
-0.042107 0.010139 -0.066481 224 232 233
0.104985 0.021949 0.147019 100 110 113
0.117141 -0.016538 0.131819 101 115 117
-0.039676 0.010290 -0.068781 233 239 239
-0.001705 -0.011290 -0.025881 11 34 28
-0.023845 0.004746 -0.098181 176 171 142
-0.043562 0.006559 -0.057681 241 184 191
-0.031058 0.011120 -0.060881 158 110 64
0.047740 0.065929 0.093619 146 146 146
-0.006138 0.005422 -0.032481 164 135 84
-0.000770 0.001100 -0.023181 16 39 35
-0.023832 0.004711 -0.098181 19 9 7
-0.023325 0.012706 -0.039781 167 147 127
-0.016667 -0.008775 -0.029981 58 45 21
0.118545 -0.075509 0.107219 121 134 133
0.083308 -0.077438 0.129319 114 127 126
0.005018 -0.014667 -0.020681 13 42 41
-0.023813 0.004737 -0.098181 98 48 14
-0.023854 0.004753 -0.098181 158 152 128
-0.047924 0.006894 -0.059681 219 180 189
-0.023858 0.004739 -0.098181 199 150 163
-0.037761 0.013042 -0.069981 152 150 138
-0.027136 0.004316 -0.025081 55 41 26
-0.005826 -0.012322 -0.032581 17 48 46
-0.075769 -0.037747 0.011119 133 142 133
0.101675 -0.076523 0.118819 125 137 139
0.044210 0.031349 0.087819 146 147 143
0.099363 -0.082082 0.114819 114 129 128
0.121178 0.001063 0.132319 94 106 108
0.094069 0.073014 0.089419 139 145 143
-0.009217 -0.012328 -0.032181 16 45 42
-0.068008 -0.012102 -0.026281 117 166 179
-0.028987 -0.016719 -0.039481 1 16 13
-0.031099 0.016975 -0.050081 169 142 120
-0.029096 0.008088 -0.054081 120 68 18
0.103532 0.053550 0.126319 58 57 59
-0.028393 0.008307 -0.054581 170 117 59
0.034864 0.050820 0.106819 140 140 136
0.121582 -0.014928 0.130819 104 119 118
-0.017447 0.007796 -0.029181 92 69 48
0.127158 -0.004416 0.129319 93 107 111
0.109360 -0.069571 0.114019 119 133 139
-0.026307 0.020541 -0.045781 158 158 162
-0.047638 -0.006759 -0.040181 75 115 126
-0.031204 0.013049 -0.058781 114 67 25
-0.008408 -0.007022 -0.033281 14 43 42
-0.022752 0.028073 -0.033581 162 161 168
0.033055 0.066557 0.085819 145 145 147
0.107247 0.002081 0.148219 106 118 120
-0.078897 -0.032242 0.012719 126 135 126
-0.077265 -0.030413 0.013919 97 111 102
0.069629 -0.086080 0.139219 116 127 127
-0.017747 -0.008449 -0.034481 49 49 45
-0.038305 0.013586 -0.071181 146 144 134
0.098558 -0.063810 0.122119 110 127 130
0.034404 0.046667 0.102119 139 139 135
-0.033778 0.002282 -0.046081 114 106 92
-0.035960 0.008716 -0.052081 144 85 90
0.110112 -0.069221 0.115719 115 129 135
-0.037104 0.008934 -0.053381 136 68 76
-0.012327 -0.009414 -0.033281 13 39 37
-0.021260 -0.000768 -0.039781 201 211 218
-0.037488 0.014251 -0.068681 112 95 79
-0.023836 0.004694 -0.098181 145 186 194
-0.052000 -0.004431 -0.041881 61 47 39
-0.029946 0.013681 -0.055181 133 86 44
-0.006442 -0.021503 -0.031981 7 34 29
0.121352 -0.022239 0.123019 106 120 124
-0.045186 0.008721 -0.061181 102 108 119
-0.037965 0.009321 -0.060281 220 216 217
-0.012044 -0.002809 -0.036081 185 163 79
0.080379 -0.046157 0.146419 117 130 129
0.011839 0.006801 0.004619 123 96 45
-0.009265 -0.020719 -0.033481 8 35 30
0.109976 0.063411 0.117019 126 130 125
-0.016744 0.011572 -0.035581 190 172 152
-0.018484 -0.005707 -0.034881 166 154 134
-0.076287 -0.035435 0.013419 129 141 133
-0.039805 0.005330 -0.053581 222 170 177
-0.053037 -0.005104 -0.044981 199 121 53
-0.018622 -0.006088 -0.034281 151 131 91
-0.030715 0.015633 -0.046881 195 175 153
-0.038726 0.009991 -0.068381 226 234 235
0.108120 0.033595 0.159119 24 25 21
-0.036427 0.007603 -0.052481 203 150 162
-0.029164 0.013594 -0.042581 141 122 105
-0.066913 -0.016546 -0.014881 143 184 192
-0.042916 -0.009058 -0.036381 38 44 55
0.104324 -0.026051 0.135919 114 127 126
-0.051805 -0.004211 -0.043481 175 94 25
-0.039195 0.004491 -0.029181 178 137 90
-0.025419 0.008988 -0.033481 134 114 92
-0.054193 0.000795 -0.051681 145 63 15
-0.023849 0.004744 -0.098181 214 215 211
-0.023839 0.004743 -0.098181 179 172 151
0.107643 -0.071133 0.114019 117 134 139
-0.025628 -0.013794 -0.036081 29 39 46
0.106775 0.065770 0.113119 127 136 127
-0.031907 0.014356 -0.058181 112 71 34
-0.053573 -0.002473 -0.048781 172 83 23
-0.084438 -0.033608 -0.001381 137 148 146
-0.044093 0.010804 -0.068281 80 90 95
-0.044509 0.004520 -0.056181 206 135 144
-0.046082 0.000910 -0.043481 100 59 10
0.099574 -0.073202 0.121619 114 128 132
-0.035139 0.013477 -0.066081 162 122 80
-0.035560 0.017601 -0.061081 107 73 38
-0.006704 -0.010536 -0.032981 14 48 45
0.123693 -0.037011 0.120219 104 117 116
0.108200 -0.039349 0.129819 116 128 130
0.086515 -0.020829 0.150519 114 122 123
-0.019335 0.022758 -0.031581 161 160 167
-0.016556 -0.022520 -0.031281 4 10 8
-0.043238 -0.004108 -0.040181 168 180 186
-0.024720 0.002134 -0.043781 145 151 151
-0.034213 -0.002372 -0.042081 14 19 24
-0.037446 -0.016019 -0.035581 1 9 8
-0.023865 0.004752 -0.098181 211 221 226
-0.038218 -0.013541 -0.037381 35 51 61
-0.034635 -0.006182 -0.045081 53 68 92
0.044882 0.053306 0.105219 140 143 142
-0.044796 0.009905 -0.066481 155 154 163
-0.018147 -0.008098 -0.035281 80 85 75
-0.036073 0.009886 -0.062381 227 229 235
-0.043478 -0.016237 -0.033481 11 30 32
-0.034760 0.019155 -0.057881 108 66 34
0.085628 0.052233 0.130319 122 128 126
-0.032227 0.002785 -0.046181 55 33 23
-0.041815 0.001570 -0.035781 123 116 106
-0.012010 0.007887 -0.032581 154 119 44
-0.005356 -0.011962 -0.032281 11 40 39
0.091811 0.063329 0.110519 125 131 129
-0.008265 -0.020828 -0.033081 9 34 29
0.085893 0.004805 0.159819 108 118 121
-0.026121 0.024704 -0.041881 156 158 164
-0.008223 -0.016510 -0.031881 11 34 30
-0.013791 -0.021835 -0.033781 33 69 65
-0.023829 0.004682 -0.098181 140 144 137
-0.048751 -0.002248 -0.027881 57 54 40
-0.043202 0.009132 -0.059981 231 230 237
-0.017943 0.015672 -0.035081 162 165 166
-0.024359 0.009743 -0.034781 139 118 101
0.107384 -0.015534 0.144119 111 123 125
0.093523 -0.033109 0.140219 114 124 129
-0.016070 0.012290 -0.034581 151 132 115
-0.026189 0.014066 -0.043181 148 127 110
0.064168 -0.077475 0.154119 117 129 131
-0.020873 -0.000295 -0.039781 82 80 87
-0.038542 0.002900 -0.048281 167 119 57
-0.021162 0.001640 -0.018581 38 25 14
-0.023849 0.004718 -0.098181 136 144 72
-0.074789 -0.012837 -0.024981 99 145 151
-0.022155 -0.001229 -0.039481 203 211 212
-0.023854 0.004755 -0.098181 165 160 140
-0.043395 -0.015053 -0.034981 65 77 83
0.118274 -0.013470 0.135919 108 120 122
-0.040725 -0.009719 -0.038181 116 119 122
-0.053975 -0.001888 -0.051381 162 82 33
0.073089 -0.086797 0.137019 102 115 114
-0.023821 0.004735 -0.098181 84 39 28
0.121790 0.019010 0.118819 67 79 85
-0.018986 0.012145 -0.037681 203 186 168
0.011440 -0.004626 -0.016081 67 84 85
-0.018416 -0.015269 -0.035181 14 34 31
-0.010108 0.019992 -0.017681 155 158 161
-0.037161 -0.006005 -0.043381 29 38 59
-0.076472 -0.039431 0.009919 133 144 140
0.038379 0.020008 0.080119 172 175 176
0.060683 -0.097942 0.144119 120 138 136
0.085329 -0.040464 0.145819 114 126 130
0.073926 -0.079427 0.106819 98 105 99
-0.023865 0.004755 -0.098181 213 219 221
0.065425 0.055503 0.113119 109 112 111
-0.004235 0.000661 -0.026181 20 21 10
-0.029951 -0.018345 -0.040181 4 12 9
0.035813 0.046416 0.100919 137 138 134
-0.045054 -0.007253 -0.035581 72 85 96
-0.034200 0.001821 -0.046081 138 129 122
-0.023839 0.004751 -0.098181 167 161 148
-0.023212 0.001284 -0.018481 42 26 19
-0.031177 0.012234 -0.059681 114 66 22
-0.080968 -0.032943 0.006919 132 141 134
-0.046691 -0.000408 -0.043181 114 67 0
-0.034924 0.010169 -0.062081 214 220 220
0.110399 -0.083657 0.112219 125 137 141
-0.019897 -0.013491 -0.033581 10 22 26
-0.035544 -0.018019 -0.038681 9 29 24
0.018680 0.003074 0.010719 43 49 49
0.106018 -0.067769 0.117019 112 126 130
0.027146 0.066142 0.078019 144 147 148
-0.023865 0.004748 -0.098181 116 106 116
-0.047496 -0.008735 -0.039581 98 143 154
-0.067150 -0.042175 0.019619 141 148 140
-0.088371 -0.029224 -0.001681 138 146 145
-0.021773 0.018196 -0.039681 162 162 166
-0.045509 -0.020684 -0.031181 27 65 59
-0.023823 0.004718 -0.098181 31 20 11
-0.030937 0.017001 -0.049981 177 153 130
-0.050041 -0.006981 -0.041181 63 102 111
0.060207 -0.077245 0.151719 116 128 130
-0.033365 0.018941 -0.055481 112 71 32
-0.038836 0.009674 -0.067481 217 224 230
-0.047487 -0.005606 -0.038181 45 64 66
-0.036393 0.009475 -0.061681 219 222 225
-0.024722 0.022641 -0.041181 157 159 165
-0.014743 -0.009025 -0.029481 34 27 10
0.113969 0.021342 0.135919 90 105 104
0.096632 -0.040594 0.140819 115 125 128
-0.042551 -0.014068 -0.036081 146 164 173
0.116092 -0.060560 0.115719 111 125 129
-0.085704 -0.035483 -0.002181 138 150 142
-0.032596 0.014691 -0.059181 108 67 28
0.111383 -0.075163 0.113519 123 140 143
0.093061 -0.032765 0.142519 111 123 127
-0.035829 0.012840 -0.065881 184 181 167
-0.054010 -0.001156 -0.053281 171 84 33
0.053403 -0.084023 0.151119 118 133 130
-0.072710 -0.041260 0.015219 135 144 137
-0.025271 0.009070 -0.033681 133 115 93
-0.023851 0.004702 -0.098181 99 143 150
-0.063056 -0.023707 -0.002781 145 186 194
0.035130 0.060565 0.099119 143 143 143
-0.023838 0.004742 -0.098181 165 146 129
-0.021938 0.017054 -0.040781 161 160 164
0.087271 -0.036572 0.143019 116 126 129
-0.006072 0.013257 -0.016281 152 155 156
-0.025635 0.000705 -0.043981 63 62 64
-0.035731 -0.016233 -0.036581 1 9 6
-0.026824 -0.014979 -0.037781 5 16 14
-0.023847 0.004749 -0.098181 165 157 143
0.103138 0.068303 0.102919 133 141 142
0.005889 -0.001969 -0.019581 17 42 35
0.122596 -0.019732 0.123919 105 122 123
-0.073131 -0.012926 -0.025281 111 160 175
-0.023862 0.004746 -0.098181 183 189 191
0.043387 0.040617 0.095719 145 145 145
-0.013379 -0.017413 -0.032681 12 27 24
-0.036211 -0.014356 -0.037781 118 131 142
0.120304 0.030718 0.138119 88 98 103
0.007223 -0.001013 -0.018381 10 33 29
0.105169 0.007261 0.158519 104 115 115
0.078457 0.071370 0.092219 135 143 142
-0.081542 -0.036337 0.002519 134 147 142
-0.037553 0.014556 -0.068681 88 55 26
-0.035119 0.016966 -0.061181 101 60 23
-0.007602 0.017073 -0.015781 155 158 159
-0.023865 0.004754 -0.098181 212 218 220
-0.024317 0.006043 -0.027781 89 72 54
-0.025974 0.022444 -0.043481 156 159 162
0.094049 -0.049958 0.140219 115 127 129
-0.030465 0.012536 -0.057981 124 77 35
-0.012252 0.006872 -0.032581 140 123 98
-0.014675 0.004371 -0.034981 122 103 60
-0.048547 -0.001440 -0.042281 124 76 14
-0.025097 -0.017306 -0.037381 12 25 22
-0.025930 -0.015880 -0.037881 2 13 11
-0.084172 -0.031817 0.001719 126 141 136
-0.039130 0.008634 -0.056581 203 151 158
-0.047288 0.006606 -0.059181 127 134 140
0.109426 -0.075142 0.111419 124 137 136
-0.019478 -0.004823 -0.035781 171 136 53
-0.087455 -0.031924 -0.003881 140 148 145
0.091627 -0.027565 0.144719 113 125 127
-0.031685 -0.000723 -0.043281 27 40 51
-0.054323 0.004050 -0.051481 167 166 109
-0.086678 -0.029899 -0.000781 135 146 142
0.010662 -0.008748 -0.017481 16 45 42
-0.024137 0.013162 -0.040781 166 146 126
-0.029236 -0.007738 -0.042681 80 90 104
-0.044754 0.007932 -0.060181 222 178 187
0.112162 0.066041 0.113519 125 132 126
-0.007539 -0.017897 -0.031681 12 32 27
-0.034482 0.015589 -0.061681 102 66 29
0.113856 0.070530 0.099819 133 138 128
-0.009439 0.020757 -0.015881 157 163 165
-0.036773 0.017210 -0.063681 106 65 28
-0.042449 0.009738 -0.064281 223 234 232
0.115114 -0.068232 0.109319 120 137 140
0.106337 -0.067216 0.122119 113 127 129
-0.049163 0.006254 -0.060081 219 182 191
-0.014272 0.001174 -0.036881 176 139 55
-0.039640 0.010715 -0.071181 213 224 224
0.106055 0.072954 0.094719 135 142 136
0.119245 0.039154 0.137519 13 14 10
-0.013491 -0.013104 -0.033081 15 37 36
-0.032162 0.010445 -0.051281 88 40 7
-0.053367 -0.005555 -0.044881 205 132 60
0.121937 -0.025826 0.120719 106 119 118
-0.044358 0.003554 -0.055981 230 170 178
0.126155 0.033653 0.125819 35 43 42
-0.011962 0.022488 -0.018981 155 161 163
-0.016852 -0.014991 -0.034881 10 33 29
0.091363 -0.017987 0.153519 111 123 127
-0.037787 0.005831 -0.051881 230 175 183
-0.030848 0.017915 -0.051281 153 125 108
-0.051567 -0.006565 -0.041581 85 125 138
-0.009928 0.016894 -0.019681 157 160 163
-0.040416 0.009099 -0.059781 231 231 235
-0.086118 -0.028630 -0.000081 134 142 139
0.107208 -0.074831 0.111819 120 137 140
0.118464 0.007681 0.132319 89 101 107
-0.020435 -0.019842 -0.040381 0 19 9
-0.015407 0.002018 -0.037581 182 144 65
-0.045760 0.002732 -0.043681 97 64 24
-0.008622 -0.002683 -0.033581 186 167 111
0.071947 -0.094641 0.135919 121 136 135
-0.085213 -0.030595 0.002219 130 143 138
-0.004272 -0.002098 -0.027281 12 30 28
-0.012960 0.032624 -0.012581 162 165 168
0.107915 -0.052146 0.127319 113 127 129
-0.013223 0.020373 -0.022981 156 162 164
-0.052039 0.001735 -0.047881 175 171 105
-0.090234 -0.023609 -0.003581 136 139 138
-0.009206 0.007247 -0.035281 164 129 58
-0.047596 0.007363 -0.061081 231 186 193
-0.033090 0.001296 -0.046281 194 202 203
0.112725 -0.032225 0.127319 109 123 127
-0.019974 -0.000998 -0.039181 169 144 67
-0.023804 0.004721 -0.098181 47 36 29
-0.007740 0.036753 -0.000781 158 158 162
-0.044477 -0.006055 -0.036881 107 118 129
-0.023788 0.004718 -0.098181 33 23 11
-0.040775 -0.004627 -0.038781 52 69 85
-0.032959 -0.014604 -0.035681 11 21 26
-0.001132 0.004635 -0.021981 10 28 24
-0.045586 0.008156 -0.061381 122 124 132
0.077683 0.067717 0.098319 130 138 137
-0.024159 -0.017459 -0.037081 12 25 22
-0.085912 -0.036056 -0.003481 132 150 144
-0.009481 -0.011865 -0.032281 17 46 43
-0.009199 -0.014604 -0.031881 14 39 32
0.043297 0.026671 0.084219 148 151 152
0.059072 -0.077035 0.150519 116 130 132
-0.023851 0.004744 -0.098181 209 219 224
-0.023862 0.004758 -0.098181 168 166 158
-0.037679 0.008872 -0.054381 179 119 129
-0.017516 0.005130 -0.023981 58 41 23
0.094994 -0.016189 0.147619 114 124 127
-0.045170 0.008305 -0.060681 156 168 172
-0.044421 0.010718 -0.068381 82 99 104
-0.040471 -0.007859 -0.037981 120 125 130
0.050845 0.036274 0.093619 148 151 150
-0.045608 -0.017912 -0.031781 13 38 33
-0.012138 0.000203 -0.036581 138 99 36
0.093699 -0.035566 0.140219 114 126 128
0.095847 -0.032695 0.136519 114 126 128
-0.018244 0.025163 -0.027681 164 163 170
-0.075978 -0.039317 0.011219 131 143 135
-0.033311 -0.000336 -0.044381 141 147 149
-0.026110 0.016678 -0.047581 198 179 162
-0.011360 0.017420 -0.022081 153 156 159
-0.046533 -0.020450 -0.030481 28 64 58
-0.045602 -0.009514 -0.036381 21 33 47
0.083041 0.061242 0.105219 125 136 134
0.002432 0.004402 -0.019881 43 48 38
-0.053353 -0.002645 -0.047081 156 71 26
-0.047374 0.006577 -0.059181 133 138 143
-0.023849 0.004739 -0.098181 213 220 224
0.100201 -0.063300 0.117919 110 129 129
-0.032129 0.013701 -0.059481 114 76 36
0.123370 -0.040162 0.115319 107 119 121
0.059584 0.011557 0.101719 179 191 193
-0.033304 0.016628 -0.057881 107 65 23
-0.022948 0.005172 -0.025981 85 69 48
-0.035473 -0.016458 -0.036981 3 16 11
-0.066351 -0.017910 -0.013681 143 184 190
0.120829 -0.016548 0.128319 108 122 126
-0.086325 -0.027988 0.000819 131 142 140
0.081403 0.050919 0.128819 122 125 124
-0.037051 0.014632 -0.068781 112 79 39
-0.015522 0.015805 -0.030881 163 166 167
-0.026047 -0.017411 -0.039481 8 23 20
-0.046051 -0.018063 -0.031481 13 38 33
-0.023487 -0.004072 -0.037781 19 28 40
0.055217 0.056353 0.106019 109 113 108
-0.029890 -0.015520 -0.038681 3 14 10
-0.082223 -0.029176 0.008219 131 137 135
-0.020972 -0.018707 -0.036281 12 23 19
0.108773 0.018700 0.147019 94 104 107
-0.039890 -0.001537 -0.042881 163 160 157
-0.069844 -0.040886 0.018319 136 143 137
0.100858 -0.041218 0.133319 118 128 133
-0.035780 0.014772 -0.064681 105 65 23
0.116576 0.060792 0.117919 116 125 118
-0.040737 -0.011764 -0.037981 43 61 84
-0.028714 -0.006873 -0.043481 162 181 185
-0.013492 0.009054 -0.032481 159 132 95
-0.029828 0.015510 -0.046381 187 168 151
-0.041232 0.010862 -0.071581 216 228 232
0.120374 -0.035014 0.122519 107 121 123
-0.007808 -0.016380 -0.031981 16 39 35
0.095064 -0.040171 0.132319 116 126 129
0.059949 0.014477 0.095419 180 190 195
-0.013000 0.012633 -0.028681 137 140 139
0.036226 0.024576 0.089819 145 145 141
-0.021870 -0.010025 -0.037281 31 42 65
-0.032907 -0.004905 -0.046881 25 43 68
-0.038203 0.011279 -0.071481 209 211 202
-0.038440 0.013251 -0.071481 154 155 149
0.080479 0.068152 0.091819 125 136 134
-0.023865 0.004748 -0.098181 119 118 122
-0.025089 -0.004028 -0.037781 71 85 89
-0.023841 0.004746 -0.098181 182 177 155
-0.023834 0.004747 -0.098181 178 174 163
-0.007069 0.000296 -0.033281 159 126 57
-0.001198 -0.003707 -0.023681 14 37 31
-0.016374 0.005398 -0.024581 55 36 19
0.113153 -0.077872 0.110519 123 136 135
-0.033836 0.009603 -0.050381 90 45 11
-0.023855 0.004725 -0.098181 189 150 130
-0.023838 0.004742 -0.098181 195 196 187
-0.044434 0.004520 -0.056081 205 137 145
0.125500 0.052003 0.126819 69 84 79
-0.034125 -0.001857 -0.041881 66 74 75
-0.042552 0.009914 -0.066281 215 218 219
-0.038613 0.012551 -0.071381 143 138 120
-0.088856 -0.024623 -0.001381 131 143 135
0.038654 0.063317 0.094319 140 141 137
0.081344 0.042464 0.136519 117 123 123
0.125028 -0.022157 0.118419 97 108 108
-0.041040 0.006047 -0.055881 244 182 190
-0.020027 0.011564 -0.036481 157 136 119
-0.022323 0.022191 -0.037481 155 157 163
-0.072969 -0.035394 0.018819 134 138 133
-0.023857 0.004744 -0.098181 228 234 236
-0.054749 0.000963 -0.052481 134 34 10
-0.016257 -0.010871 -0.033781 111 122 122
-0.079298 -0.031100 0.012219 126 135 128
-0.040409 0.002111 -0.025181 43 33 19
0.096390 0.030821 0.157919 30 30 24
-0.039252 -0.003242 -0.041481 177 185 182
-0.022547 0.000778 -0.041581 156 164 161
-0.020389 -0.003741 -0.037281 176 141 66
-0.027466 0.002380 -0.047381 159 169 176
-0.031413 0.015270 -0.056181 107 67 25
0.048130 0.067527 0.089119 140 143 142
-0.033375 -0.018421 -0.039881 12 32 27
-0.008648 -0.021548 -0.033081 10 46 42
0.081433 0.061628 0.101319 123 131 130
-0.029831 0.001588 -0.046681 185 192 196
-0.030589 -0.002258 -0.042981 26 33 39
0.111232 -0.032017 0.121119 108 122 126
-0.023274 0.009329 -0.033381 137 119 99
-0.019856 0.022915 -0.032081 159 162 165
0.103529 -0.014007 0.152319 110 121 121
-0.056667 -0.005621 -0.050881 148 40 0
-0.029688 0.010289 -0.059581 162 117 65
-0.029615 -0.018954 -0.042181 6 21 16
0.108953 0.057868 0.121619 117 125 124
-0.005705 -0.004847 -0.031781 10 35 30
-0.036260 -0.003708 -0.043081 114 114 114
-0.008249 0.008622 -0.034781 169 138 70
0.137466 0.041869 0.132819 37 48 46
0.057109 0.050949 0.110119 108 112 105
-0.012060 -0.020248 -0.034681 6 35 32
-0.044486 0.003111 -0.044281 93 53 11
-0.037986 0.014566 -0.069481 98 71 49
-0.021681 -0.007311 -0.038281 133 144 142
-0.043861 0.002464 -0.055381 177 147 129
-0.071986 -0.015670 -0.017381 148 187 196
0.006191 0.000303 -0.018781 12 35 29
-0.044060 0.001243 -0.044881 108 60 12
0.086863 -0.040269 0.151719 117 129 131
-0.023834 0.004743 -0.098181 170 164 149
-0.005048 0.036007 0.003319 157 159 165
-0.035098 0.017087 -0.060981 107 69 31
-0.041991 0.009135 -0.060681 234 242 243
-0.038309 0.009251 -0.055381 158 102 106
-0.037682 -0.003144 -0.041581 132 140 139
-0.052725 0.005360 -0.053781 106 112 114
-0.008622 -0.008676 -0.033381 19 50 46
-0.038444 0.011275 -0.071581 200 204 199
-0.026058 0.012005 -0.039181 163 143 123
-0.001458 -0.006158 -0.024181 16 39 35
0.106385 -0.071408 0.124419 113 130 133
-0.030871 0.012073 -0.059181 115 68 26
0.001574 0.005327 -0.019681 102 104 88
-0.007832 -0.011089 -0.032881 25 54 53
0.103939 -0.082229 0.117519 115 127 129
-0.044494 -0.011808 -0.038781 14 26 42
-0.022853 0.011228 -0.037081 155 135 115
-0.045145 0.008268 -0.060481 88 102 108
-0.023848 0.004725 -0.098181 201 126 134
0.126659 0.043064 0.128819 14 22 11
-0.024662 -0.001737 -0.039581 43 53 67
-0.033700 0.000289 -0.045681 159 160 156
-0.054348 0.001976 -0.048881 94 26 0
0.002825 0.043169 0.022819 153 156 157
0.067768 0.071450 0.085119 129 140 140
-0.070040 -0.014805 -0.018481 140 183 193
-0.032277 0.011854 -0.062581 179 139 97
0.045812 0.068903 0.081019 145 145 149
-0.056145 0.003520 -0.050981 87 22 0
0.070553 -0.061131 0.149919 68 90 91
0.119883 0.050906 0.126319 18 19 15
0.112096 0.067320 0.111019 127 134 128
0.097947 -0.026777 0.134919 115 125 128
0.049826 0.068964 0.086119 133 133 133
0.113377 -0.023542 0.132319 108 122 124
-0.015382 0.025106 -0.022481 160 163 166
0.030264 0.052502 0.103719 111 104 98
-0.035580 -0.015957 -0.036181 0 8 5
-0.019025 -0.002422 -0.038181 166 126 43
0.038030 0.061781 0.096819 146 147 143
0.076845 -0.080230 0.123919 113 127 118
-0.023852 0.004703 -0.098181 208 148 88
-0.034622 0.018688 -0.058281 95 54 19
0.113768 -0.077843 0.103319 126 140 144
-0.000069 0.001807 -0.022881 14 37 33
-0.017538 -0.008854 -0.032281 46 43 40
-0.037127 -0.015999 -0.035781 2 8 8
0.116802 -0.036801 0.122519 107 121 125
-0.023833 0.004710 -0.098181 8 5 2
-0.039195 -0.001463 -0.043181 123 125 133
0.113429 0.048804 0.134419 12 21 12
-0.042930 0.004985 -0.056181 205 131 139
-0.019811 0.010330 -0.034481 141 123 101
0.110371 -0.045418 0.119719 116 130 136
-0.005806 -0.014565 -0.032681 17 46 43
-0.027596 -0.000224 -0.045581 102 102 104
0.101698 0.005180 0.157219 108 119 119
-0.045223 0.009763 -0.066781 207 219 225
-0.053919 -0.003058 -0.050981 174 90 22
-0.033176 0.008681 -0.059981 62 24 13
-0.023807 0.004726 -0.098181 81 65 44
-0.033514 0.013685 -0.062081 101 60 21
-0.053455 -0.005288 -0.048181 202 120 56
-0.054011 -0.000384 -0.053081 153 69 19
0.100661 -0.054347 0.138119 116 130 134
-0.018714 -0.020438 -0.039181 0 6 0
-0.000037 0.000581 -0.022781 17 39 38
0.002055 -0.003313 -0.021681 15 40 33
-0.081824 -0.030566 0.007919 128 139 137
0.113327 -0.023863 0.130819 103 120 123
-0.012401 -0.014313 -0.032881 11 34 30
-0.007975 0.015286 -0.017381 155 158 161
-0.008094 0.000896 -0.035281 164 132 60
-0.036342 -0.004523 -0.043781 126 122 123
-0.041716 0.001185 -0.036281 84 75 70
0.001707 -0.005976 -0.022381 14 37 33
-0.020996 -0.007278 -0.037781 115 126 126
-0.023857 0.004748 -0.098181 211 217 217
-0.045156 0.008901 -0.061281 67 69 77
-0.044394 -0.009012 -0.034481 47 55 56
-0.032218 0.016571 -0.056181 102 62 20
-0.069055 -0.014208 -0.019981 137 180 190
0.047974 -0.090790 0.148219 112 123 121
-0.010697 0.014803 -0.022781 157 160 163
-0.028128 0.022485 -0.047081 155 155 159
0.004007 -0.009362 -0.021581 13 40 35
-0.023811 0.004695 -0.098181 174 182 183
0.095243 -0.023304 0.141919 115 125 128
0.111711 -0.081842 0.109719 128 140 146
-0.029434 0.019532 -0.052381 141 122 105
-0.035269 0.001599 -0.045581 136 127 118
0.099051 -0.062383 0.117019 111 130 130
0.072811 -0.061836 0.141919 121 131 136
-0.037836 0.012659 -0.070081 168 164 155
0.111695 0.065574 0.113519 122 134 126
0.080308 0.048291 0.130819 119 125 123
-0.084198 -0.026574 0.005819 99 107 104
-0.010127 -0.014311 -0.031881 16 39 35
0.033351 0.036464 0.096519 142 139 134
-0.037500 0.014608 -0.068981 88 56 22
-0.030966 -0.015455 -0.038481 6 14 11
-0.014195 0.003882 -0.036681 83 52 2
0.079814 -0.089786 0.126819 118 133 132
-0.040310 0.006069 -0.055181 215 167 173
-0.042682 0.010277 -0.067781 221 226 231
0.096743 -0.021525 0.138619 114 124 127
0.045999 0.068755 0.083219 140 140 142
-0.016969 0.010534 -0.033781 156 133 112
-0.023851 0.004757 -0.098181 166 162 153
-0.049859 -0.003741 -0.028381 7 7 3
0.004543 0.024016 0.011219 151 154 155
-0.029596 -0.011158 -0.039881 41 51 77
-0.053236 -0.007592 -0.040681 44 64 75
0.093627 -0.034606 0.139719 111 123 125
-0.051782 -0.003125 -0.040181 76 38 2
-0.035906 -0.016255 -0.036381 4 12 9
-0.036655 0.014333 -0.068081 127 95 61
0.064262 0.060745 0.108919 126 125 125
-0.024063 -0.009098 -0.038381 127 139 145
0.096295 -0.080285 0.116619 123 136 135
0.075220 -0.076029 0.135919 120 132 134
-0.023788 0.004717 -0.098181 34 24 12
-0.073218 -0.015704 -0.018181 144 185 193
-0.038833 0.009053 -0.056381 180 120 128
0.056840 -0.080244 0.147619 122 135 134
-0.032842 0.005605 -0.029581 64 47 31
0.003765 -0.008650 -0.021781 13 38 33
-0.002221 0.001475 -0.024181 17 37 32
-0.045451 0.008482 -0.061381 94 93 100
-0.024700 0.012563 -0.039881 164 144 124
-0.000948 -0.003443 -0.023581 16 39 35
-0.024294 -0.016694 -0.037081 0 14 11
-0.017348 -0.000511 -0.037781 196 162 59
-0.048991 0.006843 -0.061081 223 179 190
-0.026380 0.020472 -0.045881 157 157 161
-0.053471 -0.001257 -0.049781 159 78 25
0.087369 -0.035400 0.141319 117 127 132
-0.006752 -0.010008 -0.032981 14 48 47
-0.023099 0.017616 -0.042381 165 164 166
-0.037235 0.005919 -0.049681 164 119 124
-0.036319 -0.007108 -0.043881 183 186 187
-0.015820 0.031033 -0.019081 158 161 164
-0.014188 0.025473 -0.020481 156 161 166
0.046410 0.047789 0.099819 143 146 147
-0.032725 -0.014928 -0.035381 8 15 19
-0.023798 -0.007164 -0.040081 29 47 70
-0.017606 0.015589 -0.034481 162 165 166
-0.037404 0.000481 -0.044181 147 136 127
0.008076 -0.012772 -0.019181 23 52 49
0.066821 0.061766 0.104419 141 145 140
-0.039007 0.004337 -0.028881 88 68 46
-0.023833 0.004688 -0.098181 114 127 114
-0.019649 0.000355 -0.016481 34 24 12
-0.034395 0.015153 -0.061981 99 61 25
-0.023846 0.004754 -0.098181 160 160 154
-0.022431 0.023859 -0.036281 157 160 163
-0.036371 -0.017983 -0.038081 7 30 24
-0.053496 -0.003970 -0.047481 101 20 0
-0.012211 -0.004552 -0.034481 197 163 60
-0.054068 -0.000565 -0.052081 146 70 20
0.002201 -0.000138 -0.021081 15 40 35
-0.049360 0.005489 -0.055681 136 120 76
-0.038801 0.002436 -0.047781 162 126 78
-0.009208 -0.010775 -0.032581 19 48 45
-0.015892 0.008899 -0.031081 99 76 55
-0.005360 -0.018465 -0.032981 16 45 44
-0.030130 -0.001716 -0.043781 119 122 121
-0.045440 0.001298 -0.043881 100 59 12
0.088027 -0.041437 0.139719 116 128 132
0.090525 0.000405 0.161719 112 120 121
0.117857 -0.032976 0.123919 107 121 127
-0.023146 -0.013871 -0.034881 118 127 120
0.040513 0.040478 0.096519 146 146 146
-0.088150 -0.031781 -0.005481 143 154 152
-0.045334 0.010200 -0.067581 217 225 226
-0.041047 0.005564 -0.055081 234 174 184
-0.035182 -0.017466 -0.038281 6 24 22
-0.032390 0.019399 -0.054681 143 119 94
-0.023836 0.004739 -0.098181 213 216 219
-0.047657 -0.000241 -0.026181 20 18 10
0.038078 0.062553 0.096519 143 144 140
-0.023859 0.004754 -0.098181 201 192 171
-0.034319 -0.010987 -0.041281 180 193 192
-0.074901 -0.016622 -0.017381 142 185 195
-0.040636 0.005541 -0.054581 210 160 168
-0.047028 -0.010023 -0.039781 14 30 51
0.066735 -0.095950 0.143619 119 136 137
0.085593 -0.076325 0.108919 121 136 135
0.074715 0.045691 0.132319 116 129 128
-0.027539 -0.006002 -0.042981 28 43 67
-0.041861 -0.010394 -0.037781 52 63 72
0.106780 0.042982 0.145319 69 69 63
-0.023834 0.004745 -0.098181 179 175 164
-0.036558 0.016946 -0.063781 104 66 26
-0.020607 -0.018342 -0.036281 12 27 24
0.054203 0.056271 0.109319 112 112 112
-0.013712 -0.005729 -0.033881 194 188 164
-0.007372 -0.021846 -0.032581 20 56 52
-0.023823 0.004734 -0.098181 55 19 21
-0.027159 0.007366 -0.031081 128 111 93
-0.009177 -0.015612 -0.031781 12 35 31
-0.055041 0.003399 -0.050381 124 110 66
0.104939 0.004801 0.147619 104 117 116
-0.038321 0.013902 -0.071481 169 168 153
0.097858 -0.004535 0.150519 147 154 158
-0.037972 0.005360 -0.051381 216 168 174
-0.022761 0.012617 -0.039481 171 151 131
-0.090372 -0.024314 -0.003781 139 147 144
0.102381 0.064788 0.109719 130 134 129
-0.081217 -0.037868 0.003519 135 148 143
-0.023237 0.002892 -0.021881 57 43 28
-0.042716 0.006186 -0.056381 252 189 195
-0.011458 0.007339 -0.032981 138 105 36
-0.032264 0.019949 -0.055481 143 118 98
0.006368 0.047632 0.033219 148 151 150
-0.023847 0.004724 -0.098181 205 128 134
-0.038347 0.005985 -0.052481 237 175 185
-0.018582 0.028294 -0.025881 164 164 168
0.084517 -0.048498 0.146419 118 128 131
-0.043272 0.011114 -0.069081 101 111 114
-0.038487 0.011583 -0.071681 158 149 140
-0.023825 0.004743 -0.098181 177 173 162
0.041964 0.061177 0.098719 135 138 139
-0.023824 0.004716 -0.098181 87 73 58
-0.023851 0.004720 -0.098181 142 149 73
-0.035912 0.015286 -0.064381 103 67 30
-0.003511 0.016016 -0.009281 148 151 154
-0.035234 0.006765 -0.049981 107 55 15
-0.019554 -0.000074 -0.038781 126 107 82
0.108824 0.032329 0.157919 64 70 70
-0.005606 -0.014817 -0.032481 13 42 39
0.101684 0.037734 0.147619 85 92 86
-0.029006 0.019518 -0.051681 143 124 107
-0.031275 0.017208 -0.052481 117 79 41
-0.054078 0.000395 -0.052881 140 57 16
-0.023759 0.004720 -0.098181 43 52 43
-0.014507 -0.012708 -0.033481 10 34 32
0.005086 0.011505 0.001419 143 146 147
-0.023834 0.004746 -0.098181 173 170 154
-0.028501 0.020922 -0.049081 157 157 159
-0.000418 0.013138 -0.006381 150 153 154
-0.016514 -0.019756 -0.035581 18 45 40
-0.034804 0.013674 -0.065881 142 93 34
-0.012791 -0.005746 -0.033481 188 170 120
-0.044261 -0.014235 -0.036581 76 97 103
-0.044983 -0.012348 -0.038881 92 109 121
0.127444 0.050584 0.136519 13 19 17
0.092602 -0.056254 0.132819 121 131 136
0.099753 -0.020245 0.139719 112 122 125
0.117641 0.036216 0.149919 78 90 94
-0.031375 0.006600 -0.052281 154 95 32
0.108487 -0.050076 0.126319 112 126 130
-0.034246 0.010496 -0.050281 100 69 60
-0.023866 0.004749 -0.098181 83 89 100
-0.023775 0.004732 -0.098181 154 154 148
-0.045379 0.010178 -0.067581 220 226 228
-0.007459 0.016680 -0.015981 156 159 162
-0.008678 0.004375 -0.035781 165 141 98
-0.054056 0.000075 -0.051681 137 55 11
-0.053913 0.000724 -0.047281 153 69 19
-0.011113 0.009199 -0.033181 147 115 54
-0.030761 -0.014542 -0.035581 22 27 32
-0.077875 -0.036762 0.010019 131 142 138
0.110515 0.033554 0.155419 36 53 54
0.114048 0.009291 0.145819 96 108 112
-0.070873 -0.041759 0.015419 134 143 134
0.038875 0.042333 0.097219 145 146 142
0.083834 0.068712 0.091819 126 134 135
-0.051332 -0.002582 -0.030081 53 31 3
-0.055662 0.002312 -0.051181 143 63 18
-0.023827 0.004714 -0.098181 12 9 4
-0.016789 -0.004655 -0.035981 194 161 74
-0.037469 0.007870 -0.053481 193 138 148
-0.054260 -0.001307 -0.053881 192 103 43
0.042483 0.014453 0.086819 182 190 191
-0.023842 -0.008943 -0.038481 152 165 164
-0.005841 0.015982 -0.013481 144 147 150
-0.038577 -0.016184 -0.035081 4 12 9
-0.035508 0.018165 -0.060181 101 64 30
-0.030874 -0.007670 -0.042981 46 66 90
-0.034022 -0.006844 -0.044181 101 112 123
-0.037160 -0.004758 -0.042881 60 65 72
-0.044427 -0.011667 -0.034381 36 43 47
0.110227 -0.054079 0.122119 107 124 127
0.002242 0.016726 0.000919 149 155 155
-0.036087 0.010157 -0.065381 187 188 179
-0.052235 -0.001275 -0.045881 140 43 4
0.008334 0.013730 0.009619 140 146 148
-0.035968 -0.003144 -0.042181 13 18 27
-0.083689 -0.035977 0.000919 136 149 146
-0.027131 0.001290 -0.046181 31 46 63
0.038231 0.058393 0.100219 150 151 147
-0.038045 0.009631 -0.067181 227 234 238
-0.023843 0.004706 -0.098181 81 105 105
-0.011595 0.003258 -0.035181 165 135 89
-0.029382 0.011638 -0.056781 130 86 43
-0.043782 0.010549 -0.067881 82 89 93
0.005654 -0.000716 -0.019281 13 38 33
-0.017422 -0.015379 -0.034981 10 33 29
-0.034232 0.013087 -0.065281 163 118 66
-0.028626 0.023093 -0.047381 152 155 158
-0.016805 -0.013824 -0.034881 15 38 34
-0.037235 0.014797 -0.069181 122 90 54
-0.088905 -0.025061 -0.000881 132 139 131
-0.023876 0.015660 -0.045281 193 174 159
-0.022906 0.026844 -0.034381 161 161 165
-0.022392 -0.016959 -0.036581 0 10 10
-0.023859 0.004755 -0.098181 191 187 162
-0.013342 0.027164 -0.017481 153 158 163
-0.023493 0.022620 -0.038881 153 153 157
0.118031 -0.013247 0.137519 108 119 119
0.057425 -0.075937 0.150519 23 54 50
0.080725 0.008172 0.156019 136 148 152
0.054869 0.020582 0.086819 150 155 160
-0.025118 0.014708 -0.043881 163 142 125
0.046786 0.058754 0.107719 131 131 131
0.095370 0.070443 0.099119 131 142 140
-0.017257 0.021776 -0.028781 160 163 166
-0.053165 0.003513 -0.050681 153 156 88
-0.048125 0.007145 -0.061481 221 180 188
-0.010506 0.006206 -0.034181 129 89 22
0.001471 0.003495 -0.020881 10 33 29
-0.046972 0.002607 -0.045581 178 180 119
0.108246 -0.035711 0.127319 115 129 135
-0.038145 0.013746 -0.071181 164 159 141
-0.023753 0.004727 -0.098181 179 189 192
-0.024231 0.008835 -0.032881 136 118 98
-0.055490 -0.003755 -0.052481 198 97 53
0.032930 0.032474 0.090819 142 139 134
-0.013881 0.011657 -0.031181 149 146 141
0.057776 0.018711 0.089119 179 189 192
-0.045965 0.009640 -0.066381 219 225 236
-0.027202 0.015036 -0.045081 166 145 128
0.103408 -0.014330 0.151719 110 121 121
0.124829 0.027420 0.147619 84 91 95
0.099600 -0.063742 0.118819 110 129 129
-0.023809 0.004720 -0.098181 57 39 28
-0.053824 -0.001203 -0.051881 145 63 17
-0.034576 -0.017916 -0.039181 5 25 20
-0.038467 0.014069 -0.071681 188 189 183
0.095560 0.037492 0.145819 55 55 55
0.086023 -0.021936 0.152319 107 120 119
-0.040401 0.001780 -0.024981 42 32 18
-0.056897 0.002685 -0.051781 111 35 5
-0.037311 0.005175 -0.048881 110 53 21
0.133114 0.051506 0.126819 43 44 38
-0.035364 0.014737 -0.064381 104 66 30
-0.045230 0.008960 -0.061481 88 86 100
-0.015726 -0.014011 -0.034081 14 37 33
-0.005917 -0.007088 -0.032381 14 39 34
0.002415 -0.004259 -0.021781 15 38 34
0.075715 0.051544 0.125419 117 124 118
-0.040243 0.009783 -0.068181 226 231 236
-0.032651 0.012596 -0.063481 131 79 16
-0.032063 0.013990 -0.058981 111 69 27
-0.036929 -0.001870 -0.042481 142 151 161
-0.023833 0.004710 -0.098181 12 7 3
-0.037285 0.015907 -0.066381 111 77 46
-0.056457 -0.005307 -0.050881 161 59 33
-0.038820 0.007274 -0.055181 223 171 180
0.071618 0.058387 0.111019 115 119 114
-0.023837 0.004741 -0.098181 200 202 193
0.012270 -0.007242 -0.015981 14 39 34
0.005525 0.011023 0.001919 143 146 147
-0.049940 -0.005611 -0.040381 63 88 93
-0.005917 -0.007427 -0.032381 15 40 35
-0.023835 0.004694 -0.098181 139 180 188
-0.023846 0.004754 -0.098181 160 160 154
-0.016764 -0.012311 -0.034081 25 33 32
-0.029574 0.014440 -0.044481 168 147 130
-0.063673 -0.024431 -0.002481 144 188 195
0.086509 -0.051725 0.142519 118 130 132
0.062145 0.034312 0.106419 141 144 145
0.115917 -0.074339 0.110519 116 130 132
-0.033694 0.013066 -0.064381 148 97 38
-0.023121 0.015230 -0.044081 200 181 166
0.112584 0.067204 0.110119 128 137 128
-0.038802 -0.000935 -0.043581 162 161 161
-0.039599 -0.017465 -0.036181 10 28 24
0.118547 -0.053499 0.113519 110 123 122
-0.013188 -0.011375 -0.033281 17 46 43
-0.087577 -0.022937 -0.000281 93 104 104
-0.051493 -0.003709 -0.039981 69 67 44
-0.038022 0.009509 -0.067081 221 226 233
0.082898 -0.043816 0.146419 116 127 127
-0.026075 0.011264 -0.037581 163 142 125
-0.038287 0.009541 -0.061381 222 222 226
0.119001 -0.021367 0.123919 108 122 124
-0.023835 0.004742 -0.098181 167 158 137
-0.041548 0.009079 -0.060681 230 237 245
-0.027399 -0.008525 -0.040681 136 146 160
0.055384 -0.080624 0.148719 121 134 133
-0.034166 0.013332 -0.065181 142 91 23
0.053381 0.012107 0.096819 179 189 192
0.112738 0.067204 0.110119 127 136 127
0.045028 0.013272 0.090819 181 189 190
-0.037963 0.005196 -0.050481 215 167 173
-0.041885 -0.013402 -0.036481 122 134 136
0.120356 0.034258 0.131819 74 84 89
-0.012420 0.029133 -0.014181 149 154 159
-0.035297 0.006134 -0.030881 100 80 58
-0.024235 0.008478 -0.032381 134 116 96
0.031516 -0.094818 0.133919 134 142 141
-0.055521 -0.002593 -0.052581 144 41 9
0.118859 -0.046486 0.113519 113 126 125
-0.020174 -0.011098 -0.035881 40 50 64
-0.024716 -0.008764 -0.038881 135 147 153
-0.033261 0.009470 -0.059981 153 130 129
-0.043789 0.001335 -0.045081 110 62 14
-0.003709 0.036707 0.007619 156 159 162
-0.023845 0.004724 -0.098181 199 121 130
-0.015257 0.009698 -0.032281 169 147 121
-0.015452 0.002643 -0.037581 155 116 24
-0.040611 -0.000689 -0.042381 147 133 129
0.001094 -0.015564 -0.023881 17 46 43
-0.038199 -0.007462 -0.041681 156 159 158
-0.048010 -0.001635 -0.042381 167 119 55
-0.026515 0.006182 -0.028581 104 86 66
-0.049467 0.007179 -0.062181 220 175 190
0.039223 0.053497 0.102919 139 139 135
-0.039711 -0.003033 -0.041781 139 151 165
-0.008076 -0.016315 -0.031881 14 37 33
-0.043208 -0.012636 -0.037881 83 95 101
-0.036823 -0.006328 -0.043781 154 153 157
-0.051345 -0.003098 -0.040381 112 78 29
-0.023819 0.004719 -0.098181 39 29 17
-0.070190 -0.016662 -0.015381 143 186 196
0.081862 0.041427 0.136519 112 120 117
-0.051793 -0.004053 -0.039981 63 76 75
0.098958 0.070824 0.094719 132 143 141
-0.022873 0.025572 -0.035381 161 161 165
0.076012 0.062266 0.102519 131 134 135
0.091925 -0.051384 0.135919 117 129 131
0.118346 0.015245 0.146419 96 109 108
-0.023856 0.004751 -0.098181 177 172 154
-0.035395 0.014406 -0.064581 105 62 12
-0.006512 -0.009863 -0.032981 12 43 39
-0.006658 -0.020201 -0.031681 12 30 26
-0.033385 0.017197 -0.057281 106 64 22
0.005275 0.009834 0.000319 144 144 146
-0.047247 0.009671 -0.063881 195 171 175
-0.053313 -0.004980 -0.047281 197 116 49
-0.023301 -0.011142 -0.036781 15 27 45
-0.033307 -0.008899 -0.042781 82 102 126
0.058354 0.015879 0.095019 180 190 193
0.120635 0.011007 0.123919 93 104 104
-0.028728 -0.017606 -0.040981 6 15 8
0.052145 -0.097187 0.141919 122 135 134
-0.087765 -0.021573 -0.007481 117 129 131
0.123247 0.028038 0.152319 88 96 97
-0.050482 -0.003303 -0.039181 46 58 60
-0.026302 -0.014898 -0.037481 2 15 12
0.111405 -0.057064 0.123519 107 121 125
-0.076721 -0.015885 -0.021881 140 184 198
0.097503 -0.075600 0.120219 116 130 134
0.042558 0.068691 0.090519 142 145 146
-0.009847 -0.004516 -0.033081 170 149 103
0.063615 0.057155 0.111019 109 113 108
-0.034757 0.012796 -0.065381 167 149 127
0.109779 -0.042050 0.134919 115 127 131
-0.010422 -0.019485 -0.033081 2 13 9
-0.023837 0.004695 -0.098181 140 184 191
0.091790 -0.056810 0.145819 122 132 135
-0.003685 0.027491 0.000119 149 148 155
0.069509 -0.086690 0.135419 116 127 127
0.083374 0.070869 0.088819 133 139 137
-0.037699 0.009685 -0.066981 221 228 232
-0.011897 -0.009653 -0.033281 13 39 37
0.121291 0.025071 0.110519 16 21 11
-0.023853 0.004758 -0.098181 168 166 154
0.103939 0.064856 0.111019 128 135 129
-0.009814 0.011227 -0.024281 153 152 154
-0.011908 0.021731 -0.019781 155 161 163
0.070843 -0.069224 0.144119 109 122 121
-0.051934 -0.006587 -0.041681 104 139 152
-0.012350 0.020607 -0.021581 155 161 163
-0.033516 0.010902 -0.053481 107 33 36
-0.026537 -0.019714 -0.040981 10 23 18
-0.042516 0.003628 -0.052581 228 180 186
0.079797 0.068869 0.089819 129 140 138
-0.008456 -0.005811 -0.033081 16 43 38
-0.020778 0.009542 -0.033081 136 118 98
-0.017738 -0.013929 -0.033381 29 32 33
-0.017288 -0.005709 -0.034581 173 171 150
-0.035897 -0.007286 -0.043981 44 65 84
-0.014053 0.015796 -0.027781 159 162 163
-0.032467 -0.006435 -0.045181 91 107 128
-0.006224 0.021128 -0.011681 113 119 119
-0.037645 0.011795 -0.070381 159 155 144
0.122860 0.028648 0.152919 84 95 95
-0.007952 -0.003450 -0.032781 166 145 114
-0.045576 0.008921 -0.061581 209 168 178
0.087064 -0.035512 0.144119 117 127 130
-0.005881 -0.011691 -0.032781 12 43 41
-0.035455 0.017334 -0.060981 102 64 28
-0.023845 0.004745 -0.098181 165 160 138
-0.069619 -0.042451 0.017319 138 147 140
-0.023860 0.004727 -0.098181 202 173 179
0.098908 0.070210 0.100619 132 143 143
-0.023862 0.004759 -0.098181 163 162 145
0.029220 0.055224 0.099819 145 142 137
-0.010342 0.000075 -0.037281 180 149 79
0.117614 -0.036638 0.122519 108 122 126
-0.042992 0.009524 -0.064381 215 223 224
0.097387 0.071343 0.097919 138 146 143
0.114433 -0.048878 0.131819 115 127 131
-0.047879 0.009012 -0.063881 212 168 179
0.113424 0.042365 0.142519 85 89 84
0.120873 0.018877 0.114419 95 105 110
-0.023852 0.004754 -0.098181 163 159 148
-0.008723 -0.004076 -0.032781 118 94 49
-0.048683 -0.000805 -0.027781 66 43 13
-0.048006 0.008473 -0.063481 220 176 187
-0.083931 -0.026327 0.006019 95 107 99
0.054827 -0.093514 0.146419 122 134 136
-0.044450 0.000749 -0.044581 115 69 9
-0.023856 0.004746 -0.098181 225 232 236
-0.053873 0.000738 -0.045981 127 45 1
0.116639 0.051301 0.134919 67 73 71
-0.037656 0.002727 -0.026081 48 34 19
-0.090492 -0.025864 -0.004781 139 150 146
-0.049938 -0.008528 -0.040481 121 166 177
-0.013199 -0.019554 -0.034781 3 21 19
0.121832 -0.015780 0.132819 107 122 121
-0.023858 0.004757 -0.098181 158 161 140
-0.026828 0.008450 -0.032881 134 116 96
-0.026734 0.017654 -0.048981 156 133 112
0.096907 -0.005583 0.149319 150 157 161
0.107697 -0.010814 0.129819 103 115 119
0.119791 -0.063175 0.117019 107 124 125
-0.010450 -0.009047 -0.032981 26 53 48
-0.052919 0.005549 -0.054181 94 96 87
0.106408 0.062669 0.116619 128 132 125
-0.034681 0.013394 -0.065681 160 118 65
0.008387 0.021449 0.015119 148 151 154
0.033385 0.064631 0.089119 140 143 142
-0.020086 0.013251 -0.039581 210 193 175
-0.043185 0.006793 -0.057781 240 183 192
-0.025889 -0.004740 -0.037781 58 61 62
0.116789 0.011533 0.142519 99 111 115
0.048238 0.027293 0.083819 149 155 157
0.079408 -0.080154 0.130319 106 121 120
-0.053821 0.003835 -0.051081 172 172 110
-0.044957 -0.010467 -0.034481 79 87 88
-0.049237 0.005488 -0.055781 158 132 101
-0.012674 0.004474 -0.037281 180 143 39
-0.038332 -0.000241 -0.043681 144 139 135
-0.031566 -0.008351 -0.042681 177 183 183
-0.039013 0.003865 -0.048781 117 69 34
0.020743 0.067110 0.080419 146 143 140
-0.048388 -0.009925 -0.038781 108 155 168
0.076420 -0.058942 0.146419 118 130 132
-0.089387 -0.026726 -0.005081 137 148 146
-0.023860 0.004696 -0.098181 137 171 177
-0.040102 0.007645 -0.056681 221 169 178
0.084332 -0.014614 0.157919 108 119 119
-0.016079 0.003555 -0.021081 38 26 10
-0.032857 0.000012 -0.045181 51 61 79
-0.046367 0.001561 -0.042881 92 55 10
-0.031905 -0.007774 -0.042881 52 72 98
-0.052728 -0.005558 -0.043181 198 123 61
-0.013418 -0.020503 -0.034981 12 48 44
-0.037465 0.005907 -0.051581 219 167 176
-0.042461 -0.005915 -0.036381 55 70 85
0.096211 -0.015520 0.150519 114 121 125
-0.048620 0.008089 -0.063481 225 175 192
-0.025461 0.009070 -0.033681 132 114 92
0.106543 -0.087695 0.118419 127 139 141
-0.030199 0.011972 -0.057981 119 75 32
-0.025871 0.021252 -0.044081 158 161 164
-0.037649 0.009671 -0.066781 217 224 228
-0.028118 0.000417 -0.044381 115 118 119
-0.023867 0.004745 -0.098181 200 210 215
0.047497 0.023683 0.082619 149 155 155
0.090749 -0.070574 0.127819 112 126 128
0.001668 -0.015233 -0.023481 13 42 39
-0.031675 0.001708 -0.046781 160 165 170
0.110055 -0.005940 0.133319 109 119 122
-0.004752 0.040762 0.008319 157 160 163
-0.023849 0.004720 -0.098181 100 104 47
-0.029550 0.021236 -0.050581 155 158 161
-0.040916 0.001730 -0.025081 42 32 18
0.026624 0.064258 0.090119 140 140 140
-0.022701 -0.015030 -0.036081 5 23 19
-0.039882 0.010084 -0.068481 229 239 244
0.114218 -0.002221 0.140219 104 118 120
0.128980 -0.011129 0.122519 96 106 109
-0.021064 -0.019670 -0.040181 4 16 8
0.071051 -0.071034 0.139719 107 118 118
0.003365 0.001932 -0.020181 11 33 32
-0.023825 0.004742 -0.098181 176 172 161
-0.055389 0.000795 -0.052481 132 26 1
-0.053730 0.000021 -0.048581 146 68 11
-0.023835 0.004744 -0.098181 178 176 164
-0.033537 0.014509 -0.061181 103 65 27
-0.023831 0.004742 -0.098181 164 148 125
-0.037776 0.015072 -0.069781 101 65 26
-0.033956 -0.001489 -0.042581 107 121 127
-0.043176 0.007930 -0.059181 220 172 180
-0.023813 0.004739 -0.098181 190 146 114
-0.010078 -0.011210 -0.032581 20 51 49
-0.042577 0.009763 -0.065581 219 229 232
-0.011526 -0.020803 -0.034581 8 42 37
-0.012865 0.019116 -0.023181 155 161 163
0.048012 0.060504 0.099419 145 145 147
-0.043270 0.011071 -0.069181 94 104 107
-0.010654 -0.019554 -0.033281 2 15 10
-0.016411 0.005818 -0.025481 57 40 22
-0.001758 -0.012728 -0.025881 10 35 30
-0.013621 -0.020184 -0.035081 10 41 37
0.066439 0.068936 0.086819 137 140 139
0.038135 0.052081 0.101319 142 142 142
-0.041543 -0.019695 -0.034781 17 53 47
-0.009900 -0.008586 -0.032881 20 49 46
-0.021742 0.003524 -0.022681 63 49 32
0.112747 0.028852 0.149319 96 107 107
-0.067623 -0.013595 -0.021581 140 183 193
0.105210 0.044415 0.146419 100 107 101
-0.032605 -0.003457 -0.045981 25 29 41
0.082346 -0.009108 0.157219 114 122 123
-0.061404 -0.024445 -0.003581 146 187 195
0.092350 -0.070036 0.132319 113 125 127
-0.021241 0.007706 -0.030081 104 88 65
0.041505 0.023321 0.080419 150 150 150
-0.013363 -0.015951 -0.033181 11 34 30
0.119399 0.021404 0.123019 13 12 14
0.088030 -0.022249 0.153519 110 123 122
-0.079189 -0.038284 0.006919 135 146 142
-0.073907 -0.037898 0.014719 133 142 135
-0.040724 0.006731 -0.056581 242 183 188
0.121293 0.017846 0.120719 73 87 91
-0.001517 0.018748 -0.007281 110 110 114
0.120610 -0.043012 0.116119 107 121 125
0.122664 0.006062 0.117519 25 20 28
-0.056005 -0.000684 -0.053081 183 92 33
-0.014334 -0.010429 -0.029081 7 7 1
-0.020478 0.017190 -0.038081 162 162 166
-0.010207 0.008867 -0.033881 154 117 54
0.136616 0.042209 0.132819 48 59 57
-0.083969 -0.037188 0.001019 136 149 144
0.086988 -0.037002 0.148719 115 125 130
-0.082270 -0.029426 0.008019 122 133 129
0.120110 0.018386 0.121619 15 15 15
0.067158 -0.096657 0.141919 122 136 138
