ply
format ascii 1.0
element vertex 1211
property float x
property float y
property float z
property uchar red
property uchar green
property uchar blue
end_header
-0.079506 0.084450 -0.039316 118 119 108
-0.014404 0.058808 -0.125116 164 166 172
-0.120176 -0.067185 0.005584 104 111 105
-0.004898 0.050316 -0.095516 167 167 171
0.025690 -0.054707 0.070084 110 110 110
-0.117754 0.080405 -0.006316 110 103 93
0.103456 -0.093917 0.082784 102 110 107
0.186700 -0.070858 0.087984 97 110 109
0.115592 -0.007165 0.083884 78 83 71
0.056389 -0.067908 0.065384 101 107 105
0.083781 0.056793 -0.116116 140 150 153
0.069114 0.058158 -0.124716 157 164 168
0.095795 0.053513 -0.105316 164 167 168
0.060818 0.059439 -0.129916 157 167 172
-0.139719 -0.011944 0.016784 99 102 101
-0.011878 -0.028183 0.047284 141 124 99
-0.081172 0.022406 0.024884 130 115 89
0.032468 -0.084253 0.040984 104 110 108
-0.012161 -0.040069 0.048984 128 116 98
-0.174998 0.015867 0.011084 97 94 91
-0.063940 -0.010036 0.022084 142 123 98
-0.025710 0.055841 -0.116816 154 150 151
0.105288 0.043746 -0.075216 151 157 157
-0.112541 -0.049815 0.011084 105 109 104
0.002935 0.052050 -0.104216 151 150 157
0.062515 0.037478 -0.045816 158 161 164
-0.104685 0.019259 0.033384 76 68 54
-0.110003 0.004619 0.025484 69 65 56
0.088471 0.054438 -0.107216 143 155 157
0.087672 0.041588 -0.058516 158 158 160
-0.170204 0.037354 0.021384 80 80 82
0.112730 -0.108123 0.054784 104 110 108
-0.114867 0.067108 0.007984 41 40 42
0.078086 0.058373 -0.125116 146 151 156
-0.036528 -0.088800 0.022784 107 111 104
-0.070183 -0.008865 0.022084 142 123 96
-0.018250 0.054768 -0.114316 172 171 175
0.085505 0.056478 -0.115916 153 160 164
-0.078396 0.083317 -0.005216 122 118 107
0.163700 -0.106826 0.064484 102 115 112
0.027620 -0.006868 0.036384 46 52 33
-0.007863 -0.040284 0.048984 127 118 101
-0.094301 0.073658 0.018084 132 128 119
-0.025377 0.024533 -0.010016 141 128 117
0.076414 0.058667 -0.125016 144 151 155
-0.083052 -0.083359 0.006184 104 111 103
0.099361 0.043401 -0.073316 150 158 159
-0.000358 0.018994 -0.243116 115 111 100
-0.024787 0.041397 -0.065416 155 155 157
0.070184 -0.044178 0.068184 126 110 87
-0.137592 -0.079867 -0.003616 95 106 102
-0.047202 0.026074 -0.015616 143 135 121
-0.097680 -0.083387 0.009884 103 112 105
-0.077881 0.036896 -0.003016 139 140 131
0.015543 0.026822 -0.022816 149 136 123
-0.154192 -0.019580 0.004384 94 101 95
-0.164847 0.071901 0.006184 87 88 79
0.235183 0.042465 0.117884 46 29 15
-0.018533 0.002414 0.022784 66 72 55
0.040121 0.041833 -0.059816 169 169 169
0.058135 0.040010 -0.060416 165 165 167
-0.024392 0.055398 -0.116416 162 161 163
0.002664 0.041751 -0.065716 163 162 164
-0.089850 -0.074112 0.013584 103 112 105
-0.155935 0.084572 -0.020016 110 107 102
0.120017 -0.065236 0.097784 100 106 104
0.139919 -0.063197 0.095584 98 106 107
-0.013615 0.052935 -0.106416 171 171 173
0.068377 0.044151 -0.073316 163 166 167
0.056042 0.034811 -0.040916 124 127 130
-0.130626 0.035644 0.007384 90 19 12
0.008478 0.051145 -0.100516 133 132 139
-0.092105 0.047469 0.004384 140 138 130
-0.052345 -0.091534 0.016784 105 115 103
0.180984 -0.088413 0.104584 101 112 112
-0.084806 0.027045 0.015484 134 116 94
-0.109002 0.082260 -0.014116 114 107 97
0.075880 0.041921 -0.059116 158 161 162
0.078202 0.026918 -0.010516 140 130 116
0.070315 0.057997 -0.122516 168 176 177
0.130918 -0.004182 0.054784 110 88 60
-0.051334 0.028751 -0.019516 146 136 124
-0.080556 0.084900 -0.039316 116 117 108
-0.013021 0.054163 -0.110516 167 167 171
-0.010435 0.050299 -0.097116 168 167 171
-0.113062 0.011520 0.026184 73 69 58
0.123877 0.036151 -0.040916 149 155 157
-0.145519 0.085735 -0.027916 109 110 104
0.057922 0.045797 -0.077816 171 171 175
-0.030580 0.047568 -0.088016 152 151 153
0.008453 0.018093 0.016784 36 38 25
0.008401 0.053884 -0.109716 144 144 148
-0.051677 -0.082801 0.000884 106 115 108
-0.078097 -0.087507 0.005584 103 112 105
-0.100348 -0.045708 0.006784 97 108 104
0.102384 0.046847 -0.080216 163 166 167
0.058349 0.009642 0.034884 54 58 37
-0.054470 0.009436 0.023484 125 106 81
0.028844 0.059003 -0.125816 167 170 173
-0.055489 0.042748 -0.040516 134 132 120
0.137772 -0.083130 0.062684 98 109 107
0.124595 0.039772 -0.056516 154 161 165
0.037456 -0.054596 0.057384 108 111 112
0.052134 -0.004148 0.033384 66 71 57
0.074399 0.053716 -0.105316 170 173 176
0.161018 -0.095491 0.066284 101 112 110
0.052242 -0.060089 0.052284 103 109 109
-0.020942 0.001489 0.016184 67 72 58
0.051003 0.046183 -0.082716 167 167 169
0.026432 0.058793 -0.125416 169 169 173
-0.134038 0.078952 0.013584 109 100 91
-0.147071 0.082026 0.005584 105 102 97
-0.034983 -0.068710 0.029084 107 113 111
-0.011149 -0.050607 0.039384 108 112 107
0.169138 -0.032439 0.086984 98 104 104
0.042319 0.041968 -0.069016 168 168 170
0.139405 0.023323 0.046484 134 131 126
-0.059609 -0.052392 0.022784 107 114 108
-0.000362 0.018932 -0.243116 105 112 104
0.032786 0.046031 -0.082916 169 169 173
0.073771 0.056992 -0.120016 152 162 165
-0.103584 -0.018067 0.016784 101 105 98
0.042826 -0.054837 0.054784 107 110 109
0.034951 0.056563 -0.121116 173 172 174
-0.156051 -0.063369 0.006784 98 104 102
-0.002116 -0.093793 0.024884 107 114 108
-0.157178 0.080944 -0.014616 106 104 94
-0.136276 0.042664 0.005584 88 20 12
0.118351 -0.002527 0.075784 26 21 19
0.207787 -0.018150 0.110584 92 100 101
-0.032679 0.051596 -0.096116 88 93 79
-0.022659 -0.061748 0.032684 105 111 109
-0.032236 -0.027137 0.026184 144 127 102
-0.022320 0.041153 -0.064216 159 159 161
-0.098142 -0.045157 0.006784 105 109 102
0.012580 0.052290 -0.104916 164 164 168
0.095663 -0.037209 0.076784 141 122 97
0.190382 -0.056282 0.077784 92 104 106
0.116922 -0.003526 0.070084 79 83 76
-0.089124 0.061749 0.002684 133 129 120
-0.120982 0.032049 0.009184 46 30 23
0.146225 -0.077272 0.066284 102 110 109
0.006918 0.054224 -0.109916 154 154 158
-0.106916 -0.022662 0.024184 101 105 100
0.075856 0.041588 -0.058516 158 161 162
0.047467 0.053948 -0.112416 168 168 168
0.059545 0.058104 -0.123816 161 169 170
-0.072857 0.008178 0.025484 137 120 95
-0.091962 -0.064134 0.007984 104 111 103
0.112805 -0.043300 0.082784 96 102 100
0.040301 0.041558 -0.067216 163 166 167
-0.089556 0.086119 -0.021416 113 114 105
-0.141287 0.063576 0.003784 65 13 4
0.006977 0.056068 -0.115716 164 164 168
-0.076647 -0.082652 -0.004116 106 111 101
-0.081924 0.088774 -0.038516 113 113 107
-0.081179 -0.043356 0.026884 106 110 103
0.040171 0.056946 -0.121616 165 165 167
-0.076809 0.019636 0.021384 110 97 75
-0.174496 -0.017599 0.016184 87 93 91
0.053797 0.041649 -0.067516 165 165 167
-0.016950 0.050039 -0.099316 171 167 170
-0.009985 0.054284 -0.109316 165 165 167
0.220372 -0.059653 0.086984 96 104 105
-0.000017 0.050744 -0.098516 165 165 169
0.223834 -0.003274 0.114184 84 92 91
-0.128062 0.050860 0.011084 112 72 75
0.008993 0.021739 0.000884 138 130 116
-0.075744 -0.073113 0.048084 107 110 109
-0.074080 0.068604 0.004384 137 133 124
0.226787 -0.060316 0.109384 91 102 100
0.029337 0.052986 -0.110916 176 176 178
0.051858 0.059571 -0.131616 162 164 174
-0.033089 -0.058493 0.033384 108 112 107
-0.017967 0.053708 -0.110016 165 165 169
-0.064407 -0.073782 0.008584 106 113 105
0.015669 -0.025425 0.043284 138 138 132
0.160616 -0.065918 0.051384 101 112 110
0.077017 0.051249 -0.099116 169 169 171
-0.152957 0.053690 0.009884 66 12 4
-0.146545 -0.015464 0.011684 93 99 97
0.208784 -0.011036 0.097784 91 97 97
0.073382 0.030300 -0.021416 87 89 76
0.247750 -0.030625 0.114184 86 92 90
-0.082104 -0.076664 0.022784 105 112 104
0.033461 -0.018689 0.037084 71 73 60
-0.044957 0.025754 -0.015116 139 131 119
-0.028541 0.049247 -0.091616 149 152 155
-0.112356 -0.044862 0.020784 103 111 108
-0.057255 0.042878 -0.036816 133 131 123
-0.130311 0.038004 -0.002416 83 17 11
0.013754 -0.014755 0.038684 83 82 67
0.068974 -0.072048 0.052284 103 109 107
-0.095367 -0.022969 0.024884 100 104 99
0.052138 -0.026169 0.048084 143 124 99
-0.065683 0.003467 0.031884 141 122 97
-0.183145 0.071462 0.027584 25 25 19
-0.062739 -0.077251 0.022784 103 112 103
-0.165086 -0.008245 0.007384 91 94 93
0.053026 0.008293 0.027584 56 62 45
0.222666 0.051548 0.106984 140 148 147
0.042389 0.048642 -0.090716 169 168 170
-0.000357 0.018988 -0.243116 125 118 110
0.016606 -0.079733 0.044884 104 110 108
-0.163603 -0.053168 -0.009016 96 96 96
-0.111173 -0.077073 0.007984 103 109 107
0.072417 -0.096449 0.037084 102 114 106
-0.048954 -0.085156 0.033384 107 111 104
0.063004 0.018071 0.023484 121 114 104
0.068329 0.004860 0.036384 60 63 47
0.081217 0.046183 -0.082016 163 169 171
0.063558 0.041265 -0.063316 166 166 166
0.046958 0.056173 -0.118816 150 149 153
0.055038 0.040150 -0.056816 164 167 168
0.137815 -0.042159 0.086984 98 104 104
-0.021469 -0.076711 0.044084 104 111 105
0.004674 0.057169 -0.123716 145 145 149
0.057351 0.048574 -0.086316 171 171 171
0.222194 -0.050249 0.147784 94 105 103
0.076257 0.059435 -0.126316 146 156 161
-0.077628 0.012207 0.030484 83 81 71
0.135162 -0.042870 0.081784 98 106 103
-0.110596 -0.039474 0.025484 101 108 102
0.144403 -0.075163 0.095584 100 113 108
-0.010244 0.058928 -0.125016 162 161 168
-0.045804 -0.032515 0.041684 147 128 103
0.110408 -0.097995 0.082784 102 111 104
0.060745 0.035322 -0.040116 164 167 168
0.091178 0.049917 -0.090516 164 171 175
-0.043283 0.046185 -0.069916 77 85 70
-0.148421 0.079000 0.012984 103 94 89
-0.148004 -0.044057 -0.003016 99 106 100
-0.114482 -0.010838 0.015484 101 105 98
0.040469 -0.083249 0.037084 103 110 104
0.057431 0.058317 -0.126316 152 154 160
0.228538 -0.001592 0.121684 86 89 90
0.040404 0.029512 -0.024216 21 21 15
0.110534 0.034511 -0.048416 156 162 164
0.212116 -0.058924 0.086984 96 102 102
-0.080473 0.084367 -0.037216 117 118 107
-0.128242 -0.029879 0.040984 99 106 100
0.230404 0.014347 0.114184 71 80 73
0.008003 0.041751 -0.068716 160 163 164
0.211104 -0.015663 0.111784 91 99 96
0.037652 0.052644 -0.104716 170 169 173
0.036842 0.043784 -0.074116 169 169 171
0.010114 0.002195 0.020084 61 69 54
-0.073279 -0.025487 0.040984 146 129 104
0.230953 0.024991 0.121684 37 24 13
-0.001782 0.047721 -0.092016 164 164 166
0.044437 0.049288 -0.093616 165 168 171
-0.134580 0.084973 -0.003016 110 108 96
-0.049811 -0.047153 0.037084 108 111 110
0.032280 -0.082983 0.050584 104 110 108
0.238438 0.004634 0.141984 82 88 86
0.234204 0.037014 0.120484 26 27 16
0.188401 -0.056166 0.104584 94 105 103
-0.027201 0.061572 -0.126116 82 87 77
0.050296 -0.006794 0.035584 66 71 59
0.018602 -0.058618 0.070984 106 109 108
-0.051320 -0.006651 0.025484 54 57 39
0.211233 -0.083231 0.090184 97 110 109
0.018010 0.049578 -0.093816 168 168 170
0.070888 0.030232 -0.019516 84 85 72
-0.096498 -0.089930 0.011684 107 111 104
-0.102524 -0.032172 0.029784 103 106 105
0.147583 -0.073598 0.083884 102 110 107
0.133364 -0.099005 0.075784 102 110 109
0.027916 0.046693 -0.080416 170 169 171
0.238735 -0.059323 0.121684 91 102 100
-0.151623 -0.039897 0.011084 100 104 99
-0.147749 -0.002187 0.016784 94 98 93
-0.078248 -0.058493 0.035584 106 113 107
0.099838 -0.025691 0.060884 98 99 90
-0.076634 0.083590 -0.007416 123 116 106
0.031510 0.002407 0.032684 53 59 42
0.098491 -0.003757 0.070084 60 68 53
0.171583 -0.092586 0.074884 103 114 112
-0.054446 -0.015170 0.038684 139 121 99
-0.053700 -0.042867 0.032684 109 113 108
-0.154264 -0.010959 0.014884 93 100 92
-0.075530 0.071845 0.006784 117 98 71
-0.098057 -0.030038 0.029084 102 106 99
-0.119973 -0.057493 0.012984 101 108 100
0.125055 -0.056941 0.110584 100 106 104
-0.126301 -0.060106 0.011684 102 110 109
0.054275 0.036281 -0.046216 143 148 153
0.089288 0.052644 -0.104716 149 155 157
-0.015830 0.038022 -0.053416 158 158 162
0.063216 -0.006189 0.026884 67 72 58
-0.107848 0.049009 0.002084 139 140 134
-0.047128 0.044577 -0.061416 71 76 64
-0.184175 0.036829 0.019384 88 91 90
-0.102445 -0.064309 0.000384 108 112 107
0.044861 0.038294 -0.057516 163 166 169
0.088037 0.038267 -0.048116 158 164 166
-0.063101 -0.032307 0.039384 146 127 100
-0.126393 -0.004660 0.027584 98 102 95
0.102217 0.025698 -0.005216 143 135 123
0.103616 0.017354 0.046484 128 122 109
0.115223 -0.074605 0.084884 100 109 102
-0.009290 0.043784 -0.074116 165 165 169
0.118550 -0.106007 0.063584 103 111 110
-0.061124 -0.068959 0.030484 106 113 107
-0.123656 0.031743 0.010484 79 15 8
0.202079 -0.096576 0.084884 100 113 108
-0.004135 -0.036810 0.043284 138 122 99
-0.062201 0.083541 -0.022416 123 119 108
0.026086 -0.030394 0.048984 143 126 101
-0.050722 -0.033952 0.027584 114 95 70
0.232817 -0.047059 0.093384 90 96 94
0.000540 0.058498 -0.124216 151 153 159
-0.013383 -0.088905 0.025484 106 113 105
0.183227 -0.089945 0.071984 100 113 110
-0.027511 -0.027578 0.040984 141 124 99
0.091473 0.027710 -0.016616 73 75 59
-0.000356 0.019002 -0.243116 90 86 77
0.062367 0.057326 -0.119816 157 162 169
-0.125444 0.035703 0.011084 86 18 10
0.020697 -0.098964 0.031884 102 111 102
-0.053728 -0.072837 0.020784 109 110 104
0.063472 -0.091599 0.053984 105 111 109
0.233873 -0.046516 0.137784 93 106 105
-0.043095 -0.003124 0.023484 68 71 55
0.026235 0.039007 -0.052016 161 161 163
-0.065649 -0.081626 0.023484 104 113 104
-0.070506 -0.079171 0.017484 105 113 102
0.039857 -0.076397 0.052284 104 110 110
-0.132604 0.082807 -0.009016 111 107 98
-0.034241 -0.033444 0.031184 143 126 99
0.120277 0.008354 0.059984 99 78 45
0.133610 0.006676 0.057384 105 88 59
0.066027 0.053149 -0.109516 167 170 173
-0.134748 0.086366 -0.027416 114 115 109
0.079139 -0.043410 0.070084 134 121 99
-0.106090 -0.088285 0.013584 105 112 106
0.014103 -0.077456 0.045684 106 112 110
-0.086176 -0.022670 0.033384 101 101 97
0.214997 -0.059099 0.075784 92 104 106
-0.047361 0.038426 -0.038916 76 84 69
0.073288 -0.077715 0.055684 104 110 108
-0.095060 -0.081454 0.007384 105 111 109
0.169211 -0.092986 0.066284 100 111 109
0.008543 0.052176 -0.102816 165 168 171
0.048352 0.028302 -0.026116 59 61 45
-0.113864 0.075117 0.004984 89 81 69
-0.134525 -0.068126 0.014884 103 109 107
-0.005999 0.059366 -0.126516 151 154 157
-0.055451 0.018267 0.023484 120 98 70
-0.014940 -0.056452 0.036384 107 111 106
0.066749 0.057905 -0.121416 163 169 169
0.130217 -0.057973 0.106984 96 104 101
-0.016379 0.027319 -0.013616 145 135 121
0.043405 0.057528 -0.122316 151 154 157
0.093261 0.051090 -0.097916 161 167 169
0.005366 0.018669 0.015484 24 25 14
-0.087251 0.033394 -0.011016 141 141 135
-0.009724 0.036691 -0.052716 159 159 161
0.031882 0.055417 -0.117316 155 158 159
-0.112297 0.028545 0.000384 135 119 98
-0.130119 -0.083124 0.011084 102 111 104
-0.136825 -0.068283 0.005584 104 111 103
0.219579 -0.075977 0.087984 95 106 106
-0.095142 0.055686 0.003284 138 138 132
-0.079648 0.055632 -0.003016 140 137 132
-0.145348 0.090953 -0.026516 119 120 116
0.035316 -0.096037 0.037084 101 112 108
-0.151877 0.022674 0.003284 73 18 15
0.022537 0.006887 0.037084 41 43 27
0.068701 0.058173 -0.125716 160 167 171
-0.002418 0.018482 0.013584 33 34 21
-0.069839 0.010684 0.027584 142 123 98
-0.120574 0.080165 -0.005216 107 103 92
-0.153816 0.081112 -0.014616 108 105 100
0.090457 0.053184 -0.105416 150 156 156
0.008601 -0.065970 0.060884 104 110 110
0.163866 0.013314 0.082784 131 124 103
0.079770 0.047063 -0.084416 164 170 170
0.218553 -0.050039 0.143384 95 106 106
0.099306 0.033813 -0.031816 164 167 168
-0.063516 0.058321 -0.014116 133 129 120
0.028123 -0.038127 0.052284 140 122 100
-0.029301 0.012609 0.014184 66 71 57
0.199046 -0.068019 0.075784 96 109 106
0.074793 -0.071564 0.060884 99 107 104
0.233393 0.016928 0.122984 73 76 77
-0.000785 0.056475 -0.120816 62 67 76
-0.026904 -0.045247 0.048084 111 112 108
-0.098021 0.046335 -0.000816 138 138 132
0.029106 -0.012459 0.034884 59 64 50
-0.143222 -0.025322 0.000884 97 104 98
0.006177 0.002552 0.017484 65 70 56
-0.022767 0.057273 -0.123116 166 166 168
0.006833 -0.064032 0.035584 106 109 108
-0.016836 0.046958 -0.086316 152 151 158
0.123212 0.040092 -0.056116 158 164 166
0.090613 0.041091 -0.055816 158 164 166
-0.136011 0.090542 -0.042016 123 122 122
-0.089616 -0.077532 0.009184 103 110 102
-0.079628 0.073069 0.011684 117 97 75
-0.009624 0.031948 -0.029216 80 86 69
-0.016573 -0.063575 0.032684 107 110 109
-0.168073 -0.067702 -0.003616 103 110 104
0.018101 0.056176 -0.120316 162 165 168
0.002001 -0.065146 0.046484 103 109 107
-0.143353 0.086718 -0.028316 119 116 111
0.023067 0.043945 -0.073016 162 164 170
0.208843 -0.098261 0.101184 97 110 107
-0.124399 0.058329 0.008584 81 15 11
0.062850 0.033258 -0.033116 143 149 149
0.235103 0.020576 0.096684 44 30 11
-0.152677 0.085137 -0.028316 116 112 105
0.046186 -0.005035 0.031884 65 70 56
-0.085034 0.074787 0.016184 115 98 73
0.229350 0.048661 0.089084 29 21 7
-0.001183 -0.064825 0.042484 105 112 106
-0.104620 0.091975 -0.040916 119 119 113
-0.141701 -0.019488 -0.004116 96 102 100
-0.012293 0.044657 -0.077316 163 166 169
-0.172659 -0.025322 0.000884 80 86 84
0.002951 0.056963 -0.122416 160 159 163
-0.116596 -0.031386 0.052284 102 106 99
-0.122537 0.032303 0.010484 71 19 10
-0.125135 0.015813 0.015484 99 24 16
0.093618 0.048101 -0.090016 158 161 164
0.019539 0.053237 -0.106016 145 143 150
0.044269 0.053178 -0.109016 168 168 170
-0.167060 0.024407 0.016784 83 83 79
-0.039155 -0.053439 0.018084 109 113 108
-0.130774 0.003311 0.027584 98 98 92
-0.046892 -0.014215 0.039384 135 120 94
0.147841 0.013388 0.065384 137 125 105
-0.043886 0.041110 -0.045816 88 89 78
-0.121503 0.034134 0.009884 57 26 17
-0.000358 0.018929 -0.243116 104 112 101
0.049667 0.059486 -0.129316 154 159 166
-0.016578 0.056502 -0.117716 169 169 173
-0.187873 0.037895 0.020784 90 90 86
-0.098756 0.034247 -0.008416 135 132 129
0.049523 0.047252 -0.089116 162 161 165
-0.027560 0.034099 -0.036416 84 87 71
0.010027 -0.058337 0.050584 106 112 110
-0.045892 0.052434 -0.074416 109 102 94
0.074624 -0.052478 0.052284 105 111 109
-0.125647 0.009900 0.021384 87 38 28
0.026040 -0.053485 0.058284 109 109 109
0.084684 0.014261 0.040184 39 41 25
0.059726 0.059101 -0.128016 159 161 169
0.229080 -0.122148 0.098884 102 113 113
0.092179 0.052981 -0.105416 142 148 150
-0.175752 0.056075 0.017484 82 85 84
-0.165549 -0.011079 -0.002416 83 89 87
-0.026730 0.037302 -0.049216 116 120 115
-0.122142 0.091718 -0.041216 114 118 113
-0.150367 -0.060037 0.004984 99 107 106
-0.144488 -0.062000 0.023484 105 109 102
0.083330 0.044810 -0.077116 157 160 161
-0.044591 -0.082971 0.034084 107 114 108
0.255829 0.003781 0.128184 72 78 78
-0.137478 -0.080286 0.000884 101 107 105
0.081015 0.046234 -0.082416 164 170 170
-0.117374 -0.085316 0.000884 98 110 102
0.020836 0.022896 -0.005216 140 132 120
0.155467 0.009800 0.079784 94 95 91
0.039253 -0.094570 0.041684 103 109 107
0.118879 0.036285 -0.042816 151 157 159
0.002061 -0.066506 0.029084 103 109 107
-0.121156 -0.083826 -0.003016 101 108 102
0.082080 -0.022619 0.056484 69 71 58
-0.093518 0.049945 0.003784 141 141 135
0.063337 0.055525 -0.115316 151 153 159
0.172362 -0.075835 0.072884 100 111 109
-0.072896 -0.021486 0.037884 144 127 100
-0.130233 -0.004215 0.018084 101 102 98
-0.046260 0.041786 -0.042416 88 90 77
0.113811 -0.039168 0.059984 98 107 100
0.235865 0.018825 0.097784 52 34 14
-0.149395 -0.070262 0.008584 97 109 101
0.159887 -0.106396 0.074884 100 113 108
-0.146990 -0.056767 0.002084 99 108 101
-0.098312 0.005876 0.020084 23 24 18
0.000858 0.058833 -0.127316 143 148 153
0.056536 -0.104370 0.046484 102 110 107
0.086738 0.025053 -0.003016 146 138 126
-0.104159 0.060172 -0.000216 141 141 135
0.039905 0.006030 0.029084 61 64 48
-0.019703 0.046151 -0.078616 161 161 165
0.010232 0.043784 -0.074116 164 164 168
0.140706 -0.053963 0.074884 99 107 104
-0.071105 0.032958 -0.000816 134 135 126
0.042736 0.059159 -0.128816 155 157 165
-0.145131 -0.021795 -0.001916 100 101 97
0.079620 -0.062483 0.053084 105 108 107
0.091624 0.040801 -0.057116 163 166 167
0.111736 0.037770 -0.047316 161 161 165
0.084886 0.039536 -0.051016 158 161 162
-0.159351 0.082657 -0.002416 106 107 98
0.012891 0.032577 -0.036416 79 84 72
-0.017597 0.046127 -0.080216 161 161 165
0.035207 0.056247 -0.117016 166 166 168
-0.017440 0.046565 -0.083916 150 150 154
-0.166897 -0.041109 0.006784 88 100 92
0.007532 0.055527 -0.114316 158 158 162
-0.109832 0.080417 0.002084 111 109 99
0.013899 0.058904 -0.130016 161 161 165
-0.114982 0.043112 0.002684 82 71 77
-0.020103 0.048969 -0.089616 158 157 164
0.103130 -0.021678 0.062684 96 96 92
-0.052250 0.037278 -0.033116 68 66 56
0.157343 -0.108405 0.094484 102 110 109
0.064237 -0.011512 0.035584 69 74 60
-0.041396 0.039428 -0.046616 90 92 79
0.074133 0.041883 -0.059416 160 166 166
-0.143875 0.068851 0.018084 76 17 8
0.016143 0.049248 -0.093816 168 168 170
0.000238 0.036211 -0.047016 151 154 155
-0.156308 -0.084411 -0.000816 99 112 107
-0.000132 -0.019522 0.043284 138 121 96
-0.022984 -0.068995 0.026884 106 112 110
-0.141732 -0.083611 0.014184 103 114 110
0.047175 0.042474 -0.068116 166 169 170
0.090612 0.042505 -0.070716 156 162 164
0.056734 -0.056125 0.059984 105 108 107
0.067826 0.009513 0.032684 55 57 39
0.049859 0.053456 -0.108316 114 108 114
-0.147411 0.079755 0.006784 104 97 91
0.002236 -0.032974 0.048984 141 123 101
0.070684 -0.052671 0.053984 103 109 107
-0.111307 0.013016 0.012984 90 91 82
-0.145420 -0.080551 0.011684 104 113 106
0.131869 -0.085935 0.073884 105 114 107
0.078538 0.043656 -0.072416 161 167 167
0.008827 -0.046633 0.040184 108 111 110
0.149782 -0.073825 0.104584 101 107 105
0.109351 -0.096201 0.081784 100 112 104
-0.145921 0.090428 -0.024216 113 113 109
-0.014173 0.001851 0.025484 65 74 56
0.075499 -0.078732 0.045684 103 109 107
-0.156162 0.078551 0.016784 96 97 86
0.143647 -0.038565 0.085884 97 103 103
0.058740 -0.066388 0.059984 104 110 108
0.097700 -0.060952 0.071984 100 109 102
0.118939 0.009470 0.059984 54 35 18
-0.035978 -0.044548 0.040184 109 113 108
0.038316 0.052526 -0.105616 169 169 173
0.045164 0.056471 -0.121416 143 146 149
-0.090596 0.021020 0.024184 77 62 50
-0.192982 0.065919 0.034884 72 75 74
0.089552 -0.102893 0.060884 101 113 105
-0.145257 -0.080130 -0.000816 103 112 103
-0.112913 -0.002928 0.023484 102 103 99
-0.069400 0.082118 -0.009016 126 122 111
0.050797 -0.078039 0.053984 102 106 101
-0.164442 -0.038711 -0.006816 84 88 83
-0.068818 0.002653 0.022084 141 123 101
0.065967 0.050149 -0.097316 165 165 167
-0.076280 0.082399 -0.004716 121 117 106
-0.005862 0.051445 -0.098716 166 166 170
0.112429 0.004057 0.085884 52 53 44
-0.166736 -0.033405 0.000884 88 97 90
-0.086602 -0.024010 0.022784 100 101 97
0.063793 0.046234 -0.081716 166 166 168
0.185326 -0.041996 0.106984 95 106 102
0.163000 -0.069509 0.077784 101 112 110
0.127506 -0.006744 0.053984 96 73 43
0.026673 0.002213 0.039384 33 34 21
0.090596 0.041247 -0.064516 162 168 168
0.020187 0.009387 0.030484 47 50 34
0.224130 -0.037898 0.130884 89 100 98
-0.113087 0.076909 0.003284 93 84 75
-0.140647 -0.053704 0.013584 102 106 99
-0.052537 -0.010878 0.029784 66 68 52
-0.053632 -0.066227 0.033384 107 110 109
-0.150703 -0.053228 0.007984 106 111 101
-0.008142 0.054554 -0.110516 162 161 168
-0.119786 0.084722 -0.022816 118 114 107
0.065953 -0.082372 0.064484 103 107 102
-0.140200 -0.071089 -0.012116 100 108 105
-0.014230 0.053522 -0.109216 166 166 170
-0.147135 -0.072083 0.011084 100 109 102
0.119481 -0.000181 0.087984 69 66 61
0.021213 0.043828 -0.073816 149 148 155
0.146155 -0.029956 0.081784 101 105 100
0.142544 -0.078321 0.068184 103 111 108
0.173015 0.027932 0.091184 89 90 86
-0.031850 0.042801 -0.070416 161 160 162
-0.031277 -0.077089 0.018084 107 114 108
0.072482 0.051867 -0.100116 168 168 172
0.048867 -0.083479 0.046484 105 109 104
-0.002187 -0.032438 0.035584 146 127 102
0.079323 -0.067039 0.045684 103 109 107
0.041910 -0.025761 0.044084 143 124 99
-0.135218 -0.043234 0.004984 97 103 101
-0.040776 -0.083039 0.041684 105 112 104
0.067173 -0.038156 0.069084 142 122 100
-0.080760 -0.014363 0.025484 98 98 92
-0.138812 -0.024720 0.009884 101 104 103
0.012152 0.049209 -0.092916 165 165 169
-0.173931 0.006876 0.007384 82 88 86
-0.077604 0.007128 0.026884 84 80 71
0.201556 -0.100836 0.087984 95 108 107
-0.007296 -0.042476 0.052284 105 106 100
0.013385 0.053035 -0.106016 165 164 171
-0.161818 0.070589 0.020084 65 62 57
0.026140 0.048478 -0.093816 160 160 164
0.017401 0.042562 -0.068416 160 163 164
-0.056161 0.030378 -0.016616 145 135 123
0.031569 0.041982 -0.063916 165 168 171
-0.037155 0.038273 -0.040516 88 90 77
0.100726 0.041219 -0.062616 158 161 164
0.023823 -0.047273 0.058284 108 111 110
-0.065326 0.040383 -0.016616 129 129 123
-0.012616 0.048891 -0.090016 167 167 171
0.013857 0.054128 -0.111016 158 157 164
-0.123652 -0.045956 0.013584 102 110 107
-0.064381 -0.027552 0.029784 147 130 105
-0.000356 0.018999 -0.243116 101 97 88
-0.133228 0.031526 0.009884 89 28 20
-0.110326 0.086876 -0.028316 112 110 100
0.179023 -0.010415 0.102284 95 103 102
0.044960 -0.085959 0.039384 104 112 111
-0.169981 -0.029242 0.009184 88 96 95
-0.015056 0.054383 -0.111516 166 166 170
0.022691 0.043820 -0.073016 156 158 164
-0.052203 -0.036049 0.029084 132 120 104
-0.128679 0.087091 -0.030116 123 119 110
-0.067368 0.042525 -0.013616 132 130 122
0.234429 0.047370 0.100084 43 30 17
0.124069 0.004453 0.053084 107 85 50
-0.019067 0.050288 -0.100116 59 66 70
0.002462 0.055020 -0.112016 166 166 170
0.174330 -0.107067 0.077784 102 113 113
-0.109793 0.090002 -0.039316 115 115 115
-0.074688 0.054379 -0.001916 136 132 125
0.235960 -0.032488 0.129584 87 99 101
0.147794 -0.062776 0.070084 100 108 105
0.097197 0.051688 -0.099516 164 172 171
-0.013575 0.048139 -0.088016 166 166 170
0.024816 0.036969 -0.046616 138 141 142
-0.104199 -0.062086 -0.003016 103 111 100
-0.094436 0.066504 0.011684 128 126 118
0.045021 0.058124 -0.123216 153 156 159
-0.137956 0.062332 0.004984 73 16 7
0.023574 0.045267 -0.077316 165 168 171
0.073131 0.053714 -0.106916 163 169 171
-0.130390 0.039301 0.000384 78 18 7
-0.004547 -0.088146 0.029084 105 112 106
-0.007513 0.045066 -0.077816 142 147 152
0.039305 0.057973 -0.124216 153 153 157
0.102370 0.038600 -0.046216 163 166 167
0.223184 -0.054374 0.104584 93 104 102
0.014532 -0.072557 0.041684 104 110 108
0.097724 0.044443 -0.076316 145 148 151
0.074827 -0.068037 0.055684 102 110 107
-0.053769 0.003467 0.024884 111 96 70
-0.082248 0.004389 0.029784 79 77 67
0.080531 0.054334 -0.107616 149 155 157
-0.066243 -0.000281 0.033384 141 124 99
0.107502 -0.062775 0.084884 103 110 104
0.094877 0.037472 -0.044316 162 165 168
0.025737 0.059624 -0.131016 145 140 148
0.089242 -0.059684 0.059084 102 110 109
0.094391 0.051519 -0.100716 160 168 167
0.010422 0.053949 -0.110216 145 144 151
0.028416 -0.080494 0.046484 105 112 106
-0.008844 0.052653 -0.102116 151 150 157
-0.162739 0.024516 0.012984 78 74 75
-0.138207 -0.046852 0.010484 101 107 105
0.076148 -0.032551 0.053984 140 122 100
0.151413 -0.021006 0.084884 93 99 97
0.059068 0.058137 -0.123716 165 170 175
0.124837 0.038770 -0.050216 150 156 158
0.180730 -0.008777 0.110584 92 98 98
-0.027814 -0.050697 0.035584 109 112 111
0.163570 -0.068655 0.060884 101 112 110
0.091202 0.046417 -0.083416 157 160 163
-0.065127 -0.069982 0.035584 106 113 107
0.050712 -0.066233 0.047284 101 107 105
-0.138986 0.081825 0.009184 106 99 91
-0.171125 0.049131 0.012284 86 86 86
0.226589 -0.040068 0.137784 90 101 101
-0.106358 0.088259 -0.031816 125 123 115
0.063126 0.056045 -0.116116 162 164 170
-0.107150 0.050505 0.006784 141 141 137
-0.106796 -0.020658 0.037884 101 105 100
-0.116042 -0.079270 0.001484 100 111 107
0.004469 0.035066 -0.045116 89 91 82
0.068774 -0.069512 0.059984 104 112 109
-0.000028 0.032257 -0.031816 82 85 69
-0.150877 0.052399 0.008584 77 18 9
0.198790 -0.104853 0.078784 102 115 110
-0.054330 -0.042541 0.034884 112 113 109
-0.083769 0.080638 -0.012616 121 117 106
0.137490 -0.061257 0.100084 93 106 103
-0.087620 -0.048299 0.028384 110 111 102
0.082064 0.044658 -0.075716 157 160 163
-0.009854 0.003122 0.020784 67 72 58
0.050006 0.029492 -0.027916 30 31 20
0.221285 -0.060660 0.090184 91 102 102
0.071147 -0.052043 0.052284 105 111 111
-0.056235 -0.010022 0.031184 68 71 53
-0.068521 0.088341 -0.033916 120 118 106
-0.157348 0.002552 0.017484 94 94 90
-0.088557 0.051511 -0.004716 140 138 130
0.235714 0.038745 0.117884 31 23 11
-0.013854 0.051415 -0.100716 166 166 170
-0.013724 0.047324 -0.084916 166 166 170
-0.134159 0.031899 0.009884 117 67 62
-0.156307 -0.018264 0.014184 93 100 94
0.018118 0.052026 -0.103016 168 168 172
0.033794 0.047304 -0.083716 172 172 176
-0.135805 0.070966 0.018084 22 20 12
-0.109234 -0.038640 0.012984 99 105 103
-0.149766 -0.044321 0.008584 98 102 97
0.020725 -0.034491 0.043284 144 126 104
-0.133094 -0.026303 0.013584 99 106 100
-0.084614 0.082289 -0.017616 121 119 107
-0.112085 -0.044957 0.018784 100 106 104
-0.040399 0.003016 0.016184 67 70 54
-0.096383 0.089338 -0.046216 117 117 111
-0.065987 -0.057889 0.034884 106 110 103
0.234429 -0.127443 0.100084 108 108 110
-0.073112 -0.068956 0.021384 104 111 103
-0.157529 0.009010 0.029784 89 90 86
-0.100159 0.023924 -0.006316 245 250 255
-0.073109 0.020223 0.022084 118 101 85
0.213297 -0.011537 0.097784 89 95 95
0.087155 0.032263 -0.029216 151 157 157
-0.112862 0.086824 -0.045516 119 120 111
-0.006526 0.056175 -0.119416 167 167 171
-0.062233 0.032971 -0.015116 127 125 115
-0.020008 0.054444 -0.112716 161 161 165
0.149028 -0.012806 0.061784 97 103 103
-0.074694 -0.084298 0.020784 103 111 100
-0.032276 -0.068262 0.033384 105 111 111
-0.038992 0.040287 -0.056816 141 144 145
-0.134748 -0.086009 0.003784 102 110 107
0.081522 -0.083933 0.048984 101 107 105
-0.084918 -0.059861 0.024884 104 111 105
0.111680 0.024669 0.003284 139 133 120
0.005881 -0.011883 0.029784 77 81 60
-0.116415 0.082260 -0.014116 113 109 100
0.017070 -0.072631 0.038684 106 109 108
-0.147044 -0.005024 0.022784 100 104 99
0.031280 -0.061733 0.061784 103 109 107
0.082568 0.056228 -0.114516 135 145 148
0.214737 0.009251 0.117884 86 92 92
-0.081369 -0.013499 0.024884 97 97 91
0.179126 -0.096205 0.070084 101 112 108
-0.014580 -0.063378 0.033384 107 107 107
0.030785 0.048348 -0.089316 167 167 169
-0.157475 -0.055686 0.002684 99 108 101
0.002994 0.045808 -0.081416 160 159 166
-0.089434 0.041683 -0.004716 140 138 130
0.027928 0.045224 -0.076816 167 167 169
0.064152 0.049578 -0.093816 168 168 170
-0.048594 0.052009 -0.063916 125 118 108
0.000429 0.056030 -0.113216 167 167 169
0.232833 -0.030519 0.119184 91 99 100
-0.053359 -0.063178 0.034084 106 112 110
-0.163627 0.078117 0.003784 98 102 95
-0.015889 -0.062302 0.042484 106 112 110
0.037684 -0.027302 0.053984 143 123 101
-0.142286 -0.027277 0.002684 99 103 98
0.088307 0.042051 -0.065416 160 166 166
0.003088 -0.069184 0.031184 104 110 108
0.108709 -0.002175 0.084884 70 70 64
-0.097998 -0.048852 0.011684 104 111 105
0.089715 0.048250 -0.086816 167 170 171
-0.085598 0.062071 0.005584 131 129 119
0.150423 -0.039775 0.085884 98 104 104
-0.089870 -0.072814 0.014184 103 112 103
-0.006467 -0.006849 0.025484 70 76 59
-0.164430 -0.052541 -0.003016 96 102 104
-0.108673 0.034805 -0.005216 143 143 137
0.241158 -0.030536 0.137784 91 99 100
0.045708 0.046879 -0.081416 165 165 167
0.018217 0.053969 -0.109016 144 146 152
0.069203 0.051220 -0.099716 151 153 159
-0.143366 0.032108 0.006784 92 31 23
-0.158282 0.078032 0.016184 100 98 88
0.041190 -0.083611 0.036384 103 109 107
-0.158474 0.029263 0.009184 77 44 43
-0.094187 0.057045 0.002684 137 137 131
-0.070805 -0.030967 0.029784 145 128 103
-0.167483 -0.024135 0.004384 91 94 93
-0.173793 -0.033264 0.007984 91 94 95
-0.022298 0.010905 0.014184 64 69 55
0.046695 0.057172 -0.122316 152 155 158
0.057007 0.051788 -0.100916 168 174 174
-0.070030 0.076444 -0.000216 124 117 107
0.077187 -0.004343 0.043284 62 70 55
-0.020520 0.030079 -0.028816 141 131 119
0.022050 0.053603 -0.108516 167 167 171
-0.035138 0.002788 0.016784 70 76 59
0.029751 -0.096173 0.040984 102 111 104
0.050798 0.055225 -0.117016 163 166 169
-0.028968 -0.082266 0.047284 105 114 107
-0.017962 -0.061014 0.038684 107 110 109
0.126365 -0.012969 0.059084 106 89 60
-0.024514 0.039549 -0.058516 155 155 159
0.136719 0.026506 0.030484 136 133 119
-0.151888 -0.056784 -0.007416 102 110 107
-0.163380 -0.000957 0.006184 86 89 88
0.044361 -0.051558 0.065384 106 109 108
-0.149278 -0.058382 0.003784 97 109 101
0.025150 -0.040041 0.045684 127 117 103
-0.160487 -0.024530 0.001484 86 92 90
-0.128389 0.027988 0.009884 88 21 20
-0.028044 0.002458 0.022084 71 76 62
0.113064 -0.040772 0.080784 99 102 101
0.098020 -0.094944 0.063584 103 111 108
-0.166741 -0.039905 0.003284 89 92 93
0.047106 0.049906 -0.095916 169 169 169
-0.184570 0.017707 0.017484 89 89 89
0.067793 -0.056380 0.055684 106 109 108
-0.140785 0.082019 -0.010016 113 114 103
0.002020 0.022318 0.003784 144 134 120
0.201800 -0.085725 0.087984 99 112 111
-0.034694 0.040173 -0.057816 157 160 163
0.016469 -0.085984 0.035584 105 112 106
-0.024771 -0.029837 0.029084 145 128 103
0.247312 -0.008694 0.126884 79 87 88
-0.028233 0.026576 -0.025216 146 136 124
0.134716 0.000925 0.057384 107 93 60
-0.040192 -0.035526 0.030484 131 116 88
0.039659 0.038122 -0.051016 138 138 140
-0.148113 -0.004277 0.018784 93 100 92
-0.036187 -0.051430 0.040184 108 112 107
-0.182548 0.037984 0.027584 88 88 90
0.063594 0.038193 -0.051716 162 165 166
0.136483 -0.066629 0.134984 100 106 106
-0.161324 0.058654 0.016784 72 72 72
-0.137805 0.037266 0.004384 86 21 12
-0.171050 0.050229 0.013584 86 86 86
-0.027102 0.055265 -0.113216 88 93 83
0.105883 -0.068624 0.072884 103 109 107
0.065670 -0.093513 0.072884 103 110 104
0.189379 -0.001399 0.087984 88 99 99
0.029780 0.051371 -0.099516 169 169 173
0.089865 0.022043 0.027584 139 131 119
0.110707 -0.097508 0.078784 102 113 109
0.098261 -0.030269 0.070084 137 123 106
-0.013302 0.040470 -0.063316 161 161 163
0.191324 -0.089983 0.081784 97 108 104
-0.141995 0.080932 -0.017116 116 117 106
0.156362 -0.055468 0.095584 99 107 104
-0.002906 0.051520 -0.103416 164 164 168
-0.081142 -0.035702 0.023484 101 105 98
-0.045645 -0.040833 0.039384 112 113 107
0.137942 -0.062869 0.106984 104 110 108
0.173869 -0.100202 0.067284 99 112 109
0.052593 0.042971 -0.071016 166 169 170
-0.028652 -0.040771 0.044084 105 106 102
0.013845 0.053851 -0.110216 162 161 168
-0.165258 0.017741 0.010484 81 81 81
0.015822 0.058000 -0.125716 160 159 163
0.006195 0.038913 -0.058116 153 155 161
0.104789 0.041095 -0.063616 153 159 161
0.058667 0.057271 -0.118816 172 175 178
-0.129608 -0.019408 0.031884 98 105 97
0.051784 0.046451 -0.083216 165 165 169
0.065082 -0.082753 0.063584 106 110 105
-0.110787 0.089808 -0.042416 117 117 113
0.125739 -0.050189 0.085884 102 105 104
-0.014208 -0.074496 0.042484 108 109 105
0.157394 -0.075925 0.082784 98 109 107
-0.002909 0.057109 -0.122516 142 141 148
-0.072448 0.069211 0.003784 108 90 79
0.062904 0.037986 -0.049516 162 165 166
0.218733 -0.075234 0.092284 95 109 111
0.001010 -0.083364 0.019384 101 108 102
-0.032276 -0.046280 0.033384 109 113 108
-0.190322 0.070595 0.026184 17 18 9
0.021587 0.057569 -0.124916 155 158 161
-0.044832 -0.082277 0.044884 107 111 104
0.217890 0.040493 0.120484 15 15 17
0.049242 0.001717 0.027584 63 69 52
0.032809 0.059283 -0.130816 153 151 160
-0.002445 0.043462 -0.074616 155 155 159
-0.004038 0.054403 -0.110716 167 167 171
0.217805 0.040833 0.121684 13 13 13
0.113909 0.041264 -0.057816 160 163 166
0.021453 0.039895 -0.061416 164 167 168
-0.184025 0.036869 0.031884 84 87 88
0.059317 -0.090703 0.035584 102 110 107
-0.009363 -0.067520 0.035584 107 111 106
0.189377 -0.053984 0.094484 93 108 107
0.066573 0.043760 -0.067216 164 167 168
-0.095098 0.086029 -0.023316 115 116 107
-0.026379 -0.049877 0.035584 107 111 106
0.055152 0.029134 -0.021916 39 40 29
0.126253 -0.019910 0.079784 97 98 94
-0.174870 0.064252 0.026184 71 77 75
0.088274 0.031335 -0.023316 120 125 115
0.076366 -0.016148 0.053984 72 77 63
0.029309 -0.029749 0.048984 140 123 98
-0.009840 0.056690 -0.120116 166 166 170
-0.037452 0.036617 -0.037216 84 87 71
-0.098111 0.000826 0.017484 59 64 52
0.123580 -0.071399 0.077784 100 111 107
0.032608 0.052489 -0.104516 169 169 171
0.103213 -0.060791 0.079784 100 106 104
0.091298 0.041207 -0.059416 165 168 169
-0.069678 0.014097 0.026184 141 122 95
0.060999 -0.001541 0.031184 65 71 54
0.096704 0.042064 -0.066316 167 170 173
0.007895 -0.006461 0.023484 70 75 63
0.020535 -0.059960 0.037884 106 112 110
-0.013734 0.032127 -0.031416 73 78 64
0.001636 0.046654 -0.085416 164 164 168
-0.166481 -0.034713 -0.001316 86 95 88
-0.149410 -0.043061 0.007984 98 105 99
0.115922 -0.035864 0.082784 98 101 100
0.055175 -0.006519 0.041684 64 72 59
0.044742 -0.004132 0.043284 66 71 57
-0.114318 0.089232 -0.043216 115 117 108
0.096711 0.031869 -0.027916 149 149 149
0.073056 0.046352 -0.081716 167 170 171
0.036419 -0.061096 0.065384 103 106 105
0.015064 0.043352 -0.070116 160 163 164
0.058535 0.045666 -0.077116 171 171 173
-0.069324 -0.026493 0.031884 144 127 98
-0.068783 -0.072457 0.011084 105 112 104
0.099167 0.032835 -0.030116 151 154 155
0.049418 -0.072918 0.052284 104 110 108
0.154875 -0.095158 0.065384 102 113 111
0.196914 0.015471 0.106984 87 90 89
0.147258 -0.052807 0.072884 102 110 109
0.083367 0.037692 -0.046616 160 163 164
0.043594 0.057835 -0.123016 149 152 155
-0.039910 -0.051957 0.015484 106 110 105
0.040324 0.019052 0.021384 101 88 77
0.024669 0.051303 -0.102116 165 165 169
0.113524 -0.092957 0.082784 104 111 105
-0.046310 0.037073 -0.038916 87 89 76
-0.161444 0.016447 0.009184 84 40 38
0.097838 0.042285 -0.066616 150 153 154
-0.011134 0.034337 -0.039316 85 86 75
-0.099968 -0.024046 0.030484 102 106 99
-0.061407 -0.047769 0.015484 107 114 108
0.062190 -0.065754 0.053084 99 105 103
0.022272 0.048121 -0.088716 167 167 171
0.136835 0.018404 0.054784 124 126 115
-0.062631 0.038498 -0.019116 127 124 119
-0.091345 -0.021531 0.031184 100 101 95
0.079191 0.034373 -0.036816 155 161 161
-0.066756 0.026702 0.010484 83 66 52
-0.107226 -0.002928 0.023484 132 139 133
-0.118170 0.090843 -0.042416 113 114 103
-0.023919 -0.019103 0.035584 139 121 99
0.046002 0.059101 -0.128016 147 152 157
-0.122071 0.041229 0.007984 82 14 2
-0.037181 -0.084368 0.027584 106 114 103
-0.021433 -0.038712 0.046484 129 114 88
0.005755 0.032146 -0.036016 80 85 71
0.038621 0.052191 -0.102316 169 169 171
-0.000357 0.018998 -0.243116 101 92 83
-0.145692 -0.069706 0.008584 103 109 107
-0.097165 -0.034384 0.022784 105 109 104
-0.014550 0.045537 -0.079416 161 160 167
-0.083158 -0.085501 0.017484 105 114 107
-0.157496 -0.054417 0.003284 94 105 101
0.087245 -0.058098 0.036384 103 110 104
-0.027690 0.058060 -0.119216 83 91 76
0.046795 -0.000649 0.041684 60 65 53
-0.185574 -0.003683 0.032684 88 91 90
-0.149815 -0.043018 0.005584 97 104 98
0.112013 0.033701 -0.045816 153 160 164
-0.116712 -0.056775 0.003284 102 111 104
0.168024 -0.097120 0.048084 107 115 112
0.030492 0.057867 -0.126116 160 158 165
-0.007144 -0.081186 0.037084 105 112 106
-0.103892 -0.045123 0.023484 101 107 105
0.045312 0.059318 -0.129316 143 147 159
0.042022 0.053263 -0.106716 161 161 163
0.004485 0.047856 -0.090716 167 167 171
-0.021494 0.059614 -0.130816 161 160 164
-0.173202 -0.018599 0.000384 87 86 86
-0.035099 0.052151 -0.093616 83 91 76
0.086797 -0.021867 0.059084 80 83 65
0.054648 0.059506 -0.131116 156 161 168
0.121886 0.021532 0.037084 138 131 121
-0.149979 0.053317 0.009884 80 19 11
0.077767 0.050512 -0.098116 168 174 174
-0.103967 0.008624 0.024184 28 33 19
0.073004 -0.038893 0.060884 140 124 103
0.075112 0.051642 -0.099716 173 173 173
0.230782 -0.044293 0.087984 92 99 93
-0.166376 -0.033324 0.007384 86 95 88
-0.134748 0.018864 0.003784 68 14 4
-0.124173 -0.085203 -0.000216 102 115 102
0.046981 -0.033794 0.044084 143 126 101
0.088414 0.032421 -0.029216 156 159 160
-0.058620 -0.038493 0.020084 112 113 107
-0.039825 0.042654 -0.064816 83 85 72
-0.145856 0.059746 0.010484 78 14 7
-0.138429 -0.047444 0.009184 99 107 104
0.000080 -0.037600 0.044084 118 98 78
0.158933 -0.094545 0.075784 103 114 112
0.080900 0.043872 -0.073516 163 166 167
-0.071292 0.089729 -0.034816 118 119 110
0.221497 -0.056275 0.079784 92 98 100
0.111846 -0.037303 0.082784 100 100 100
-0.085885 0.076495 0.013584 118 101 76
0.114731 0.044243 -0.070116 160 168 169
0.263067 -0.028602 0.144884 84 95 93
0.127378 -0.049528 0.083884 101 107 107
0.208365 -0.074628 0.080784 93 99 99
0.033280 -0.005152 0.035584 60 66 47
-0.105410 0.053556 -0.000216 145 142 137
0.157470 -0.109577 0.070084 102 113 111
-0.026902 0.061041 -0.125916 81 86 72
-0.154582 -0.073340 0.007384 98 106 103
0.206928 0.022600 0.124284 87 90 89
0.082832 0.056959 -0.120416 147 155 154
-0.090712 -0.078067 0.002084 104 111 105
-0.103155 -0.066083 0.016184 103 110 102
-0.002724 0.035290 -0.040516 91 93 82
-0.011590 -0.063619 0.034884 108 108 108
0.021425 0.054518 -0.109916 161 161 163
-0.173771 0.052306 0.024184 75 78 79
-0.156627 -0.064321 -0.005216 100 107 101
0.098383 0.023316 -0.001316 143 135 121
0.140372 -0.034619 0.076784 98 107 100
0.201367 0.003837 0.133584 87 93 91
0.038119 0.038129 -0.049516 161 160 162
-0.162864 -0.041243 0.002084 88 96 93
0.131722 -0.111211 0.075784 101 112 110
-0.133937 0.000451 0.020084 98 99 95
0.024979 0.039431 -0.057116 162 162 164
-0.096029 -0.090030 0.015484 104 112 109
0.122039 0.006639 0.058284 113 95 61
0.096521 0.035837 -0.039316 163 166 167
0.069212 -0.004632 0.041684 66 71 59
-0.095321 0.088471 -0.046616 116 116 112
0.145063 -0.081466 0.100084 100 111 109
0.217019 0.019370 0.139184 84 90 88
-0.122467 -0.069917 0.009184 104 113 106
-0.107992 -0.079867 -0.003616 101 107 105
0.036336 -0.051453 0.059084 109 109 109
0.108970 -0.004678 0.082784 19 18 20
0.082001 0.043422 -0.069616 158 158 160
-0.124078 0.090359 -0.035216 118 120 111
0.056004 0.058627 -0.124616 152 154 162
0.172610 -0.107381 0.076784 101 112 110
-0.171074 0.004142 0.003784 85 88 87
-0.080185 0.070824 0.009884 131 125 112
0.051213 0.032881 -0.036416 151 154 155
0.167760 -0.085956 0.069084 103 111 108
-0.031272 0.048386 -0.089116 147 146 146
0.186378 -0.087839 0.086984 100 111 109
-0.155542 -0.070343 -0.010516 105 108 107
-0.154216 0.015288 0.012284 110 80 73
0.044959 0.035661 -0.043216 159 159 161
0.090061 0.049395 -0.090316 157 164 168
0.027100 -0.060170 0.062684 106 109 108
0.057983 0.054445 -0.113416 147 149 155
0.024578 0.049632 -0.094616 167 167 169
-0.167892 0.075643 0.017484 89 90 77
-0.027255 0.055621 -0.114316 82 90 75
-0.080236 -0.046468 0.029084 108 109 105
-0.185159 0.034282 0.029084 91 91 87
0.009869 -0.075412 0.040184 105 108 107
-0.164719 -0.067889 -0.007416 102 106 101
-0.089770 0.030053 -0.001916 133 114 87
0.124246 -0.093047 0.072884 102 114 106
0.077655 -0.018138 0.048984 74 80 61
-0.016922 0.026999 -0.013116 148 135 122
0.128513 0.014495 0.052284 137 129 115
-0.069802 0.010215 0.029784 141 122 97
-0.062447 0.088364 -0.044016 117 117 111
-0.088802 0.090152 -0.039316 110 110 104
0.115731 0.028775 -0.015116 84 90 73
-0.026957 -0.003008 0.026884 71 77 60
0.087606 0.040564 -0.048116 159 162 161
-0.081235 -0.078820 0.018084 105 112 104
0.089558 0.042860 -0.072716 161 167 169
0.042984 -0.055296 0.051384 103 106 105
0.108723 0.030984 -0.023816 143 146 147
-0.113087 0.077453 0.003284 95 88 78
-0.084177 0.013673 0.027584 68 66 56
-0.166557 0.047945 0.022084 76 75 75
-0.161424 -0.071706 -0.007416 103 103 103
-0.001423 0.059534 -0.129416 149 148 157
0.014009 -0.064324 0.048084 103 109 109
0.053323 0.046522 -0.081416 168 168 168
0.022362 0.047468 -0.087316 166 166 170
0.061015 0.045596 -0.076016 167 167 167
-0.174038 0.074799 0.004384 87 91 86
-0.178784 -0.005523 0.011684 86 89 90
0.005709 0.043350 -0.071916 158 160 166
-0.014100 0.053740 -0.109516 166 166 170
0.032747 -0.075977 0.048984 104 110 108
-0.065768 0.091584 -0.042816 118 116 106
-0.076017 -0.004537 0.026184 82 83 74
-0.124800 -0.020601 0.027584 102 106 99
0.047645 0.058902 -0.127116 153 151 158
-0.157453 -0.002254 0.002084 87 93 91
-0.004629 0.048065 -0.089616 170 169 171
0.038850 0.046149 -0.082216 165 165 169
-0.056035 -0.016295 0.039384 142 123 96
0.045237 -0.068652 0.054784 103 109 107
0.206657 0.016674 0.120484 83 89 89
0.005421 0.029605 -0.025616 51 53 40
0.022682 0.044285 -0.074916 156 159 162
-0.080194 -0.007449 0.027584 89 89 83
-0.014580 -0.062563 0.033384 105 108 107
-0.099954 0.055357 -0.001316 140 140 134
-0.133574 0.026977 0.007384 87 28 33
0.022228 -0.059003 0.054784 106 112 112
0.202494 -0.095136 0.076784 104 112 109
-0.009166 -0.074076 0.042484 106 109 108
-0.163813 -0.009792 -0.001316 90 90 90
0.073744 -0.054420 0.053984 104 112 109
-0.143284 -0.020016 -0.004116 92 98 96
0.184144 -0.070228 0.083884 98 109 105
-0.046229 -0.088868 0.020084 106 115 108
-0.161374 0.077561 0.017484 97 95 87
-0.158474 -0.004726 0.009184 90 97 91
0.080723 0.057241 -0.121816 152 163 159
-0.147234 -0.084177 0.023484 96 108 100
0.004341 0.056171 -0.118516 161 160 164
-0.050854 -0.020849 0.034884 143 125 103
-0.097966 0.085449 -0.025216 114 112 102
-0.125186 0.007290 0.018784 96 96 90
-0.065519 -0.033615 0.036384 144 127 100
0.032537 0.035407 -0.040916 155 158 159
0.025756 0.058815 -0.126116 164 164 168
0.118719 -0.010053 0.083884 84 85 81
-0.077011 -0.028583 0.022084 95 96 92
0.038850 -0.081217 0.044884 104 112 109
-0.008031 -0.026484 0.039384 142 127 101
0.051963 0.055382 -0.117116 163 166 167
0.202787 -0.078337 0.094484 96 107 107
0.050025 0.051812 -0.101716 160 163 164
0.007871 0.054855 -0.111916 160 160 164
-0.121464 0.085816 -0.022416 115 113 103
-0.004995 -0.045319 0.031884 110 111 107
-0.054016 0.050645 -0.044316 126 124 114
-0.091959 0.044432 -0.003616 138 135 130
-0.150175 -0.037845 0.006184 101 105 100
0.100247 0.026744 -0.015616 143 134 125
0.028770 -0.013154 0.035584 58 64 47
0.191397 -0.047829 0.110584 97 105 106
-0.012016 0.035682 -0.044716 91 98 92
0.154418 -0.091847 0.066284 100 111 107
0.013955 0.043864 -0.072716 158 158 160
0.031458 -0.044155 0.048984 110 111 107
0.094269 0.040146 -0.050616 158 158 160
0.010235 -0.033457 0.033384 141 124 99
-0.154565 -0.041590 0.004984 97 103 101
0.090426 0.048688 -0.089316 155 161 163
0.009353 -0.056402 0.049784 107 110 109
-0.131420 0.071751 0.020084 44 41 36
-0.051269 -0.001215 0.024184 58 60 42
-0.069935 -0.036581 0.024884 104 104 98
0.208282 -0.056955 0.097784 95 106 104
0.018429 0.010551 0.025484 53 62 42
-0.008504 0.050494 -0.093116 167 167 169
0.020772 0.059151 -0.129316 165 167 173
-0.176106 -0.032400 0.009184 85 91 89
-0.084736 0.084487 -0.018616 119 117 107
-0.013644 0.051310 -0.100716 167 167 171
-0.089866 0.031394 -0.006816 129 110 83
0.030383 0.040663 -0.063916 133 136 139
-0.102247 0.021260 0.007384 113 101 81
-0.177477 0.000826 0.017484 85 91 89
0.083686 0.050313 -0.095016 150 149 160
0.122261 0.016845 0.058284 124 107 82
-0.014195 0.057483 -0.121616 166 166 168
0.221979 0.020457 0.129584 88 88 92
0.044301 0.053325 -0.109216 163 166 165
0.084681 -0.006156 0.054784 62 65 49
-0.140172 -0.067498 0.004384 98 109 105
-0.016994 0.040759 -0.062016 159 159 163
-0.097416 0.088229 -0.040116 113 108 104
0.088554 -0.094098 0.053084 102 111 104
0.185729 -0.089244 0.122984 97 110 107
0.022724 -0.000906 0.039384 16 17 8
-0.029989 0.015837 0.013584 57 65 50
-0.007312 0.058627 -0.124616 144 146 152
0.014855 0.059010 -0.129716 155 154 161
0.077037 -0.058819 0.062684 108 108 108
0.046653 -0.014151 0.037084 73 79 62
0.007009 0.058173 -0.125716 140 142 148
-0.023201 0.044276 -0.073316 156 158 164
0.070798 0.001207 0.035584 64 69 57
0.089139 0.048402 -0.086616 167 170 171
-0.176951 -0.030504 0.006184 89 88 88
-0.116094 0.063585 0.011084 149 139 137
0.204632 -0.084819 0.085884 102 113 111
-0.004339 0.048500 -0.092016 165 165 169
-0.101670 0.082908 -0.019516 107 105 95
-0.054664 -0.085315 0.014184 107 114 106
-0.145322 -0.079156 0.008584 100 112 102
-0.067807 0.083378 -0.016116 124 122 112
0.088762 0.042998 -0.073516 158 164 166
-0.147928 -0.001960 0.026184 96 100 93
-0.016335 0.056242 -0.116716 169 169 171
0.008844 0.050903 -0.099716 145 145 149
-0.129687 0.085260 -0.027916 114 116 107
0.014199 0.041173 -0.065116 154 154 156
-0.068786 0.059624 -0.010516 137 133 124
0.047375 -0.049048 0.074884 110 111 107
0.180490 -0.089007 0.067284 100 111 109
0.214006 -0.085451 0.093384 95 107 109
0.203883 0.007456 0.100084 83 91 90
-0.101882 -0.045137 0.011084 100 109 102
-0.167705 -0.020623 0.011084 92 100 97
-0.147188 -0.006080 0.017484 93 101 98
