ply
format ascii 1.0
element vertex 1210
property float x
property float y
property float z
property uchar blue
property uchar green
property uchar red
end_header
-0.120970 0.087175 -0.011986 100 108 115
0.090893 -0.065073 0.074214 107 109 103
-0.002286 -0.029471 0.029814 102 127 144
-0.078210 0.087190 -0.030986 108 118 120
-0.168184 0.072381 0.017214 12 21 19
0.124338 -0.096241 0.072214 108 111 103
-0.131145 -0.072118 -0.000286 107 109 103
-0.051305 -0.055904 0.034314 109 110 107
-0.160925 -0.074647 -0.002686 107 109 103
-0.057974 -0.058186 0.042914 108 109 106
-0.077665 0.032148 -0.000886 90 115 132
-0.068293 -0.084736 0.020614 104 114 102
0.025837 -0.054506 0.048714 110 109 106
-0.079292 -0.015244 0.021914 91 100 99
0.124761 -0.008016 0.081314 86 92 91
0.082581 0.046745 -0.084786 167 166 163
0.063734 0.046533 -0.074286 170 168 168
-0.034790 0.043282 -0.066486 164 160 161
0.200334 -0.098980 0.075214 112 112 106
0.084330 0.046126 -0.082786 157 157 157
-0.020775 0.011281 0.013914 58 75 69
-0.128943 -0.072744 0.001414 107 107 101
-0.128211 0.086821 -0.002086 94 103 112
0.052310 -0.084834 0.054714 108 110 104
-0.158519 0.068155 0.009414 19 19 19
0.064010 -0.025714 0.055514 101 123 143
0.018140 0.039050 -0.053786 164 162 162
0.043182 -0.059385 0.030514 107 108 105
0.022228 0.036995 -0.038386 90 97 93
0.174781 -0.069017 0.079214 112 113 98
0.037779 -0.088223 0.055514 109 111 105
-0.024740 0.058546 -0.124886 143 147 147
-0.105607 -0.048198 0.018514 100 107 103
-0.092203 -0.031010 0.009414 104 110 103
0.019028 -0.034480 0.038114 93 117 130
0.034915 0.060338 -0.132286 160 152 150
0.056906 0.020780 0.026914 64 76 86
0.010478 0.050869 -0.096686 158 149 150
-0.157953 -0.017059 0.009414 92 98 97
0.056286 0.058862 -0.125286 164 159 154
0.029402 -0.001901 0.031314 40 57 51
-0.181395 0.062293 0.023314 84 84 85
-0.030463 0.028869 -0.024986 124 136 146
-0.004346 0.008444 0.017814 58 72 67
0.057032 0.048302 -0.089186 174 172 172
-0.122746 -0.016226 0.031314 99 106 102
-0.082881 -0.025756 0.023314 92 98 98
-0.066459 0.004388 0.017214 98 123 142
-0.161295 0.064036 0.013914 76 72 72
0.001206 0.028546 -0.021186 116 130 140
0.028748 0.039551 -0.053086 156 155 152
0.239490 -0.086142 0.110614 105 106 98
-0.102901 -0.014983 0.038114 98 105 101
0.053156 0.053044 -0.103286 173 173 173
-0.137920 -0.027538 0.013214 103 105 99
-0.031822 -0.080938 0.032014 104 112 105
-0.138184 -0.081812 0.002614 103 112 103
0.188819 0.021645 0.105814 92 93 85
0.236896 0.012411 0.099914 76 77 74
-0.141526 -0.021397 -0.002086 101 103 97
-0.152642 0.079603 0.013214 84 91 100
0.058969 0.050133 -0.089886 175 174 171
-0.103883 0.013255 0.020614 52 61 60
-0.060929 0.039300 -0.026886 119 128 127
0.067622 -0.078415 0.061814 109 111 105
0.034734 0.047211 -0.083486 171 167 167
-0.108810 0.033566 -0.007186 103 125 145
-0.167408 0.068884 0.017214 28 35 31
0.028785 0.042565 -0.066886 146 142 142
0.172874 -0.058986 0.086614 107 109 103
-0.034540 0.054301 -0.094286 80 94 89
-0.134931 0.077142 -0.004886 91 97 104
0.002852 -0.025083 0.034314 104 126 144
-0.096572 0.076209 0.007514 112 123 127
-0.149617 -0.071952 -0.002686 102 107 103
-0.018615 -0.007079 0.027614 65 83 81
-0.136121 0.089786 -0.026886 107 116 114
0.205746 0.012326 0.104614 93 92 84
0.025108 -0.088890 0.055514 108 113 109
0.122480 -0.004949 0.082314 85 91 90
-0.016785 -0.100377 0.034314 106 112 105
-0.115056 -0.077132 0.021914 102 111 97
0.023881 -0.070597 0.048714 110 110 104
-0.068956 -0.083859 0.024014 108 115 106
-0.004482 0.051661 -0.098586 171 167 167
0.038523 0.032024 -0.024086 18 29 27
0.122897 -0.061389 0.062714 109 110 102
0.087961 0.057545 -0.117786 157 157 146
0.060675 -0.024157 0.055514 98 123 142
-0.108121 -0.078566 0.030514 100 105 101
-0.011060 0.056794 -0.116786 172 168 169
-0.020861 -0.085599 0.033514 111 112 109
-0.010542 0.033104 -0.032386 57 67 62
-0.001249 -0.093134 0.023314 109 114 110
-0.020135 -0.067112 0.029114 109 110 107
-0.140505 -0.059798 0.003814 102 109 105
-0.052754 -0.002645 0.022614 46 59 57
-0.057503 0.089458 -0.038786 100 110 117
-0.090745 0.043222 -0.009286 113 124 123
0.098598 0.049524 -0.091786 172 172 161
0.075414 0.060170 -0.132286 156 153 143
0.038397 0.060237 -0.130686 168 160 158
-0.064494 -0.035072 0.026214 105 111 111
0.076389 0.060151 -0.130686 156 151 146
-0.098438 0.053353 -0.003186 135 140 143
0.040535 0.054234 -0.105686 168 168 169
0.061981 -0.038303 0.047014 104 108 107
0.101001 0.030657 -0.015686 124 134 141
-0.015343 0.044210 -0.073686 163 159 159
0.003969 -0.020232 0.039714 100 122 140
0.253622 0.000222 0.130014 88 88 82
-0.142066 -0.057572 0.014514 103 104 101
0.052668 -0.031173 0.044514 103 125 145
-0.098027 0.049127 -0.013586 135 140 143
-0.179919 0.031068 0.014514 89 90 87
0.059199 0.058787 -0.122186 178 176 170
-0.062888 -0.074848 0.026214 104 112 105
-0.087758 0.053775 -0.001486 128 137 136
0.220493 -0.080760 0.093114 112 112 101
-0.019033 0.042684 -0.064986 161 155 153
-0.007489 -0.049189 0.052114 107 112 108
-0.162070 -0.047880 -0.006586 100 101 93
-0.086910 0.064115 -0.008786 119 128 127
-0.073990 0.084242 -0.012586 110 120 127
0.059291 0.019176 0.030514 20 31 30
0.220461 -0.062728 0.075214 102 102 96
0.149816 0.024594 0.057314 128 133 129
0.106296 0.047020 -0.078186 175 174 166
-0.100982 0.062560 -0.011486 135 140 143
0.036041 -0.078328 0.050414 109 110 107
0.039059 -0.061162 0.042114 108 109 106
0.089348 0.055447 -0.107386 152 152 146
0.195429 -0.039114 0.086614 102 102 91
0.177589 -0.063965 0.078214 107 110 97
-0.129894 0.007398 0.029114 88 96 98
-0.135445 0.002007 0.027614 97 101 100
-0.104372 -0.005145 -0.004386 100 104 103
-0.131540 0.053379 0.007514 29 33 81
0.103425 0.042695 -0.059686 153 153 147
0.110540 0.044948 -0.066886 171 169 163
-0.049812 -0.036094 0.018514 107 111 110
0.080183 0.055917 -0.108686 176 175 167
-0.156600 -0.055110 -0.005486 102 105 97
0.059703 0.044293 -0.070486 168 168 168
0.159066 -0.066760 0.084414 113 112 104
0.052640 0.058245 -0.123586 165 164 156
0.074724 -0.035026 0.050414 100 122 140
-0.181445 0.069778 0.021914 64 64 58
0.010793 0.059265 -0.128286 172 165 166
-0.092294 0.032471 0.005014 99 124 141
0.222324 0.017457 0.116914 90 89 81
-0.039825 0.040362 -0.053486 73 86 84
-0.094804 0.077031 0.003814 69 95 110
-0.165388 0.032468 0.011914 83 83 83
-0.143988 -0.042959 0.014514 98 105 96
0.088752 0.046160 -0.080386 165 163 157
-0.080231 0.031422 0.002614 98 120 138
-0.165956 -0.039042 -0.006586 86 87 84
-0.030928 -0.044915 0.035114 107 111 110
0.090160 0.035515 -0.035786 152 151 148
-0.121815 -0.074589 0.004414 109 113 102
0.101049 -0.105800 0.062714 111 113 102
0.209996 -0.036966 0.097614 104 102 96
0.043768 0.048659 -0.087286 166 165 162
0.014473 -0.002720 0.031314 52 69 63
-0.153055 0.066458 0.009414 10 17 74
-0.170246 -0.006440 0.005014 90 89 86
0.071179 0.047039 -0.081686 166 167 164
-0.079820 -0.063536 0.013914 104 109 105
-0.000871 -0.016999 0.035814 99 121 139
-0.001581 0.053545 -0.106786 158 151 152
0.048099 0.043889 -0.066886 169 167 168
0.221792 -0.107896 0.101014 111 112 99
0.232121 -0.048496 0.111814 101 100 92
0.191905 -0.099943 0.096514 111 110 102
-0.096387 0.024132 0.023314 5 14 13
-0.130530 0.069264 0.019214 9 16 73
-0.070089 0.006041 0.019214 97 122 141
-0.116180 -0.011617 0.021314 100 104 103
0.053261 -0.047238 0.045414 106 111 107
-0.094599 -0.009259 0.023314 96 112 110
-0.011286 0.058692 -0.124986 171 169 169
0.149324 -0.054330 0.084414 104 107 99
0.078324 0.048142 -0.082986 168 167 164
0.032009 0.046293 -0.079586 168 166 166
0.103786 -0.024546 0.073214 84 93 92
-0.113525 0.089370 -0.040386 103 112 111
0.123668 -0.110548 0.069314 108 111 103
-0.028333 -0.068913 0.024014 109 111 105
-0.165834 0.004828 0.012614 93 93 87
0.051005 0.056594 -0.116486 167 165 165
-0.094234 -0.020228 0.036614 99 103 102
-0.170618 0.090426 -0.002686 100 105 108
0.180377 -0.016504 0.077214 99 100 92
0.122670 -0.069361 0.062714 101 108 99
0.190153 -0.080025 0.075214 108 109 96
0.060061 0.009572 0.024814 45 63 60
-0.133234 -0.001601 0.021914 97 101 100
0.034957 0.053312 -0.103486 115 109 107
-0.125684 0.028902 0.013214 14 24 58
-0.155297 0.027908 0.006914 13 20 79
-0.018603 -0.069179 0.030514 109 111 105
-0.082017 0.023856 0.029814 79 101 119
-0.004635 -0.034768 0.037414 99 118 127
-0.071653 0.070740 0.000214 126 132 139
-0.154640 -0.083173 -0.008786 103 112 103
0.143646 -0.104242 0.047014 108 112 101
-0.012825 0.057722 -0.121186 173 171 171
0.035344 0.051996 -0.096086 173 171 171
-0.026100 0.048189 -0.080686 157 155 155
-0.008648 0.047018 -0.080386 144 140 140
-0.147675 0.019868 0.004414 123 122 126
0.068119 0.020797 0.029114 81 94 100
-0.109993 -0.082352 0.004414 105 112 103
0.001860 0.058686 -0.126086 155 152 149
-0.014280 -0.061911 0.066514 109 111 105
0.087946 -0.096699 0.059114 105 111 104
-0.114958 -0.024848 0.022614 101 107 100
0.102065 -0.013267 0.066514 85 91 91
-0.004872 0.060264 -0.131086 159 153 151
-0.151571 -0.035224 0.000214 99 104 100
-0.131690 0.062060 -0.006586 6 17 77
-0.170888 0.006264 0.014514 88 90 84
-0.121787 -0.027861 0.017214 100 106 99
0.050756 0.040700 -0.059086 162 160 160
-0.103934 -0.016613 0.023314 99 106 102
0.076684 -0.102127 0.048714 105 112 103
0.086996 0.009957 0.045414 47 63 60
0.071336 -0.044811 0.056414 112 112 112
0.071385 0.059062 -0.122186 55 59 48
0.239855 -0.024909 0.104614 92 93 85
-0.090975 -0.056007 0.018514 104 112 105
0.249435 0.004859 0.124614 82 81 78
-0.027517 0.015850 0.000214 54 71 65
0.021605 0.052315 -0.100486 170 168 168
-0.030880 0.041782 -0.060386 159 157 157
0.213835 -0.110724 0.070314 113 113 107
0.078624 0.060466 -0.130286 147 144 141
0.048290 0.041777 -0.063686 168 166 166
0.168680 -0.092870 0.096514 109 111 100
0.241974 -0.010966 0.114314 97 96 88
0.147377 -0.036227 0.071314 106 107 99
0.156266 -0.028538 0.095314 101 103 97
-0.114949 0.087952 -0.024986 105 114 113
0.058915 0.051159 -0.098386 175 174 171
0.051186 0.015386 0.023314 32 48 46
-0.096160 -0.040308 0.019914 105 111 104
0.065613 -0.025375 0.054714 101 123 141
-0.087641 0.064601 0.004414 114 122 124
-0.008720 0.026681 -0.012586 110 123 136
-0.150955 0.003873 0.012614 97 95 95
-0.142657 -0.079444 0.005014 104 108 97
0.027477 -0.030037 0.045414 101 126 143
0.027057 -0.092003 0.047814 111 111 105
-0.023522 -0.077097 0.035814 106 112 105
-0.097905 0.028891 -0.009286 58 65 81
-0.033695 0.043427 -0.070186 163 161 162
-0.019569 0.042881 -0.067486 166 162 162
0.016468 -0.088780 0.052114 108 111 103
0.237033 0.024415 0.116914 23 35 50
0.087109 0.038395 -0.045986 164 162 162
-0.088315 0.012288 0.019914 14 28 23
0.209190 -0.066171 0.089814 109 104 99
-0.090427 -0.031942 0.015214 100 107 103
-0.145015 0.086550 -0.026886 109 109 109
-0.119260 0.086916 -0.009886 101 111 113
0.024400 -0.032038 0.042114 101 126 145
0.229487 -0.094903 0.089814 111 111 105
0.058593 0.056457 -0.117286 159 152 153
0.074533 0.057094 -0.117386 142 142 136
0.047086 0.040847 -0.064686 169 167 167
-0.036563 0.004388 0.017214 59 76 70
-0.015350 -0.056857 0.055514 104 109 105
0.040690 0.056066 -0.113586 163 161 162
-0.146283 -0.060394 0.008114 104 110 103
-0.014852 -0.049603 0.045414 107 112 108
0.107506 -0.088825 0.050414 108 112 101
0.003828 -0.072329 0.044514 111 111 105
-0.146767 -0.019121 0.010614 100 106 99
0.017289 0.018370 0.021314 43 57 52
-0.118772 0.051000 0.005014 21 28 44
-0.079821 0.062620 -0.001486 116 123 127
-0.093698 0.076496 0.006314 67 84 98
-0.039641 0.010654 0.009414 51 69 66
-0.076756 -0.043220 0.006914 104 111 107
0.029999 -0.077921 0.064614 109 110 102
0.096098 0.044508 -0.070786 179 172 167
-0.137347 -0.021607 0.013214 99 106 102
0.027009 0.049612 -0.092486 173 169 169
-0.051508 -0.066719 0.029814 107 113 106
-0.009155 0.042321 -0.064686 164 160 160
-0.066454 -0.009213 0.032814 102 127 146
-0.015550 -0.014062 0.026914 96 121 138
-0.117569 -0.076334 0.005614 107 112 108
0.186861 -0.017136 0.107014 100 103 95
-0.158310 -0.009300 0.000814 91 93 87
0.020995 0.053285 -0.106586 164 160 160
-0.174227 0.013417 0.012614 90 94 93
-0.012692 0.037042 -0.041286 76 89 87
0.176797 -0.095786 0.086614 111 111 105
-0.021220 0.042698 -0.066886 166 163 160
-0.124441 0.020862 0.012614 9 27 66
-0.068012 0.005553 0.017214 100 122 142
0.001909 0.040551 -0.057986 166 162 162
0.008187 0.059737 -0.132786 153 145 143
0.079872 -0.005450 0.044514 61 75 70
0.053428 -0.091351 0.063714 106 112 105
-0.140998 -0.065511 0.009414 101 107 100
0.021971 0.050047 -0.087986 169 167 167
0.037606 0.046007 -0.075986 170 168 168
-0.162498 -0.016953 0.000814 96 97 94
0.067059 0.051619 -0.096286 166 167 164
-0.054330 -0.084618 0.015814 107 113 106
-0.153591 0.002127 -0.003786 93 95 89
-0.125734 -0.051227 0.014514 104 109 105
-0.142492 0.057679 0.008714 60 65 102
-0.144007 0.020788 0.003814 26 26 86
0.055888 0.034022 -0.025986 70 81 79
0.109752 -0.091506 0.067414 108 112 101
-0.103834 -0.067419 0.005614 105 112 103
-0.028075 -0.084981 0.033514 107 113 106
-0.002271 0.051962 -0.101086 170 166 167
0.094470 -0.011612 0.059114 55 71 69
0.166572 -0.112631 0.066514 109 114 101
-0.113202 -0.010314 0.033514 100 104 103
-0.170053 -0.006324 0.002014 89 89 83
0.118917 0.008320 0.055514 54 88 106
-0.113127 0.033097 -0.003186 106 122 139
-0.063159 -0.015816 0.017214 101 126 145
0.038560 0.059992 -0.129686 166 160 158
-0.142254 -0.014115 0.005614 97 103 96
0.198666 -0.013483 0.131414 99 101 90
-0.076355 -0.085916 0.020614 104 112 105
0.062731 -0.094596 0.054714 105 111 104
-0.020089 0.049249 -0.089686 153 151 152
-0.167093 -0.006499 0.011314 87 91 90
-0.012704 0.034465 -0.033186 65 76 74
-0.171095 0.011337 0.011914 85 89 88
-0.108012 -0.031865 0.015814 102 108 101
-0.005499 0.000190 0.027614 59 75 72
0.001506 0.051658 -0.099086 171 167 168
0.067406 0.053137 -0.107186 175 172 169
-0.013614 -0.070937 0.032814 109 111 105
0.202410 -0.074229 0.087614 114 116 105
0.017155 0.056713 -0.117386 162 158 158
-0.091390 0.000447 0.015214 126 140 135
0.067972 0.052251 -0.098386 164 163 160
0.066002 -0.083913 0.037414 108 111 103
0.089846 0.033702 -0.028286 82 94 89
-0.155886 -0.045636 -0.004386 103 105 99
-0.093375 -0.028943 0.029114 101 105 104
-0.088319 0.087025 -0.008286 105 115 122
-0.123198 -0.046622 0.010014 104 110 103
0.123884 -0.012615 0.064614 90 96 95
0.050946 0.058079 -0.124386 165 162 159
0.192244 -0.060236 0.090914 108 108 97
-0.042783 0.046801 -0.066886 75 89 84
-0.072770 0.088502 -0.037986 109 118 122
-0.135016 0.040923 0.006314 10 18 86
-0.073735 -0.040418 0.024014 106 110 109
-0.036706 0.053767 -0.093186 73 90 84
0.206197 -0.026575 0.097614 98 100 89
-0.077298 0.080203 0.003214 99 114 120
-0.080926 0.091738 -0.028786 106 115 119
0.040105 0.033667 -0.028786 66 82 79
0.003752 0.022015 0.013214 13 26 24
0.221025 -0.013202 0.101014 95 94 86
0.056189 0.047893 -0.086986 171 171 171
-0.174923 0.081638 0.014514 86 94 96
0.060537 0.052238 -0.101286 175 174 171
0.066240 0.059269 -0.126986 172 170 164
-0.057614 0.001848 0.026914 72 93 109
-0.023923 0.060672 -0.128986 91 89 90
-0.121253 -0.002638 0.015214 98 105 101
0.060454 -0.072651 0.064614 104 106 100
0.179497 0.012384 0.075214 96 92 85
0.003863 -0.040075 0.032814 107 111 110
-0.126409 0.048240 0.010014 6 15 80
-0.160317 0.087889 -0.018186 100 108 110
0.065111 0.045551 -0.069886 169 169 169
-0.126080 0.012086 0.028314 88 93 96
0.012499 0.059729 -0.130186 172 165 167
-0.150534 0.009177 0.030514 89 94 97
0.128789 -0.107329 0.066514 109 112 104
-0.045417 -0.064302 0.014514 106 113 109
0.127792 -0.102323 0.070314 108 112 101
0.069117 0.058710 -0.120986 45 46 43
0.090154 0.055804 -0.111686 170 168 162
-0.015662 -0.057979 0.057314 108 110 104
0.087306 0.052460 -0.096486 171 170 162
0.102134 0.036466 -0.039186 155 153 153
-0.007070 0.046333 -0.080086 163 159 159
-0.169417 -0.014402 0.000814 84 89 85
0.118065 0.044467 -0.069286 170 169 161
0.140498 -0.103358 0.045414 109 113 102
-0.083865 -0.079526 0.008114 109 112 104
-0.078995 -0.045460 0.006914 102 111 102
0.019657 -0.101776 0.038114 104 112 105
0.031937 0.007484 0.032014 50 65 57
-0.078869 -0.055637 0.016514 107 112 108
-0.178208 0.084537 0.005014 95 104 102
-0.183521 0.081123 0.017214 83 91 93
0.110355 0.048861 -0.078986 173 171 165
-0.079490 0.000574 0.021914 71 82 81
-0.067164 -0.052573 0.024014 105 110 106
-0.041809 -0.011166 0.026214 96 121 138
0.009474 0.052679 -0.101686 155 151 151
0.058088 0.060254 -0.131586 168 164 157
0.180218 -0.065399 0.078214 109 109 98
-0.051946 0.030990 -0.012586 124 136 144
0.176799 -0.071038 0.059114 111 111 100
0.023562 0.000007 0.039714 5 11 11
-0.167089 -0.039869 0.001414 91 93 87
0.044513 0.054313 -0.109386 175 173 173
-0.067899 -0.068404 0.020614 107 113 106
0.142261 -0.042876 0.084414 103 105 99
-0.100922 -0.081214 0.008114 105 111 104
-0.084489 0.005215 0.024014 53 64 63
-0.090884 -0.043076 0.009414 107 109 103
0.010534 0.040865 -0.057686 154 150 150
0.155216 -0.087271 0.061814 107 109 103
-0.101755 0.042068 -0.017186 137 143 142
0.084461 -0.021933 0.055514 93 115 133
0.071590 0.055952 -0.112586 168 164 164
-0.098683 0.092662 -0.038386 96 105 104
0.076339 0.055728 -0.109386 168 164 164
-0.090880 -0.038927 0.028314 107 108 105
0.198248 -0.046744 0.093114 108 109 96
-0.155923 -0.068424 -0.005986 105 108 100
-0.122912 -0.027994 0.009414 99 106 102
-0.095967 0.009244 0.017214 6 12 11
-0.139375 0.003298 0.029814 98 102 102
-0.155803 -0.017644 0.005614 98 104 97
-0.124738 0.014810 0.021914 68 70 82
-0.129505 -0.055803 -0.004386 105 112 103
0.001515 0.055070 -0.113286 160 160 161
-0.161207 -0.001735 0.018514 94 100 93
0.209290 0.022404 0.130014 91 91 85
-0.162670 0.013745 0.005614 90 91 88
-0.160313 -0.026974 0.000814 94 98 87
0.040964 0.052760 -0.100886 173 171 171
0.004714 0.050939 -0.097386 153 149 149
-0.183742 0.024994 0.017814 90 92 86
0.100740 0.046988 -0.081986 170 170 164
0.032243 0.037767 -0.039986 158 158 158
0.061882 0.052957 -0.104086 174 172 173
0.060324 -0.100175 0.058214 108 110 104
0.052050 0.058897 -0.125986 164 158 156
0.068779 -0.038787 0.042914 109 109 109
-0.092699 0.043046 -0.010986 103 108 111
-0.124662 -0.015294 0.019214 103 104 101
0.079683 0.058344 -0.119186 152 149 139
-0.135455 -0.049760 0.018514 107 109 103
-0.026582 0.058945 -0.123386 83 96 94
-0.034670 -0.078713 0.026914 107 113 106
-0.034670 -0.018493 0.026914 101 126 143
0.111746 -0.065033 0.062714 108 112 101
0.098428 0.049441 -0.089886 168 170 159
0.077959 0.056255 -0.114986 157 152 142
0.081312 0.053611 -0.105686 176 174 168
0.055433 0.025746 -0.009286 122 134 142
-0.146337 0.019688 0.005614 131 129 135
-0.078719 0.037361 -0.005986 133 142 140
-0.066559 0.085245 -0.015686 106 117 121
-0.066337 0.060852 -0.010386 122 131 135
-0.084778 0.075700 0.006914 71 88 102
0.181994 -0.071148 0.061814 113 114 101
0.141341 -0.052998 0.076214 107 108 100
0.025037 -0.031187 0.042114 101 126 143
-0.163240 -0.041682 -0.003786 94 96 90
0.045281 0.011571 0.024814 40 58 55
-0.126722 0.087962 -0.009286 99 110 109
0.079585 0.029782 -0.016186 120 133 146
0.164293 -0.011882 0.086614 99 99 93
-0.089528 -0.077838 -0.005486 103 111 104
-0.076158 -0.005832 0.020614 80 89 88
0.077733 0.056838 -0.117286 152 148 141
0.238601 -0.046334 0.105814 99 100 92
-0.074766 0.066357 -0.002686 121 130 134
0.238218 0.033231 0.123314 29 38 36
-0.086191 0.053403 -0.000286 125 134 133
0.069370 0.053189 -0.105286 169 166 163
0.212572 0.037167 0.131414 87 88 85
-0.105085 0.048472 -0.011986 137 141 140
0.019224 0.058614 -0.127886 167 160 161
-0.170199 0.032712 0.009414 83 87 86
0.042670 -0.001425 0.042114 56 70 65
0.077517 0.053377 -0.104086 177 172 167
0.107397 0.017029 0.049514 77 92 106
0.117324 0.045991 -0.072886 166 168 157
0.048196 0.039563 -0.055586 155 151 151
0.125295 -0.034021 0.069314 99 105 98
-0.124843 -0.081918 -0.007186 105 112 103
0.018556 -0.046518 0.047014 113 112 109
-0.084150 0.045472 -0.001486 119 129 131
0.013311 0.058123 -0.123686 157 150 151
0.072020 0.056648 -0.117286 154 151 148
-0.094019 0.032641 -0.004886 103 129 144
-0.101159 -0.053812 0.008714 102 109 100
0.086597 -0.106828 0.059114 108 111 103
0.143954 -0.089126 0.076214 111 111 105
0.103343 -0.038791 0.079214 91 101 108
0.021223 0.057947 -0.126986 166 159 160
-0.086175 0.016155 0.026214 55 63 65
-0.093781 -0.027319 0.029114 102 108 107
0.128961 -0.021307 0.083414 93 99 98
-0.086615 0.011699 0.027614 48 60 62
-0.154964 0.015640 0.018514 48 48 84
-0.140935 -0.069516 0.002614 108 113 100
-0.038296 0.043984 -0.068086 78 84 84
-0.011763 -0.024233 0.032814 99 126 145
-0.127987 -0.008052 0.019214 100 105 101
0.114269 0.042534 -0.057686 171 168 165
0.007447 0.043104 -0.067786 162 158 158
-0.102252 0.088817 -0.021686 96 106 108
-0.070308 0.088330 -0.026886 110 119 123
0.046741 0.051062 -0.095786 175 173 173
-0.090382 0.034065 0.003814 88 114 136
0.213138 -0.004900 0.107014 93 97 86
-0.031449 0.026252 -0.015186 120 134 144
-0.136668 -0.054376 0.008714 107 107 101
-0.011639 -0.059379 0.024814 105 111 104
-0.036007 -0.092538 0.023314 108 113 109
-0.018779 0.055698 -0.115586 168 164 164
0.011294 -0.011139 0.033514 67 85 90
0.129142 -0.058192 0.055514 105 108 100
-0.016868 0.060387 -0.131686 171 168 165
-0.084737 0.086940 -0.005486 107 118 122
0.080481 0.054110 -0.106586 166 165 162
0.066721 -0.026484 0.054714 101 123 141
-0.124040 0.065719 0.015814 2 15 75
0.002846 -0.086335 0.017214 104 112 105
0.149611 -0.038678 0.081314 105 105 99
0.141566 -0.058445 0.069314 109 111 100
0.131238 -0.008292 0.054714 83 107 129
0.050898 -0.044658 0.045414 109 110 107
0.210085 -0.050235 0.082314 102 102 96
-0.050087 0.026710 -0.006586 122 131 140
0.114131 -0.019599 0.079214 90 96 95
-0.174987 0.024410 0.017814 83 84 81
0.093448 0.053703 -0.107386 167 163 156
-0.081408 0.015299 0.030514 70 80 82
-0.080301 -0.073090 0.006914 104 112 105
-0.087393 0.026476 0.021914 89 112 128
0.106663 -0.026615 0.076214 92 98 97
-0.012818 0.058145 -0.122186 170 168 168
0.022404 0.014313 0.028314 39 55 52
0.072978 0.054241 -0.108486 177 173 173
0.216787 -0.081139 0.084414 107 110 97
-0.000275 0.059026 -0.129486 149 144 139
-0.038837 0.039789 -0.046786 73 89 86
0.200145 -0.060756 0.094214 106 107 99
0.067789 -0.064643 0.055514 104 109 105
0.238511 0.033829 0.124614 33 37 36
-0.035867 -0.017452 0.017814 102 127 144
0.148844 -0.035255 0.085514 106 106 95
0.058124 0.052598 -0.102486 152 144 142
0.099988 -0.106378 0.049514 107 109 103
0.029727 0.041422 -0.061086 163 161 161
0.008879 0.051831 -0.099286 161 154 155
0.115305 0.014665 0.063714 79 97 114
-0.086383 -0.003274 0.020614 55 61 61
0.028552 0.057137 -0.121586 112 109 113
-0.005589 0.059614 -0.128286 145 135 133
0.142980 -0.043814 0.085514 103 105 99
-0.134985 -0.065202 -0.000886 101 108 99
-0.113261 0.088475 -0.021186 102 111 110
-0.139528 0.086142 -0.007686 97 110 116
-0.087588 0.093463 -0.039986 111 115 115
0.029167 -0.016129 0.038914 44 57 55
-0.151063 -0.070915 -0.002086 101 106 102
0.217306 -0.079207 0.077214 109 110 102
0.000996 -0.035165 0.035114 97 106 105
0.048822 0.039987 -0.061686 169 165 165
0.102453 0.048783 -0.088486 173 169 162
-0.119368 -0.082031 0.037414 104 112 105
-0.079117 0.052729 0.001414 125 133 135
0.250976 -0.035433 0.127314 95 95 89
-0.116144 0.090314 -0.047886 114 118 117
0.199862 -0.074520 0.083414 109 113 102
-0.074732 -0.035072 0.026214 104 110 109
0.096838 -0.073604 0.060914 108 110 104
-0.107907 -0.046029 0.023314 102 108 101
-0.150759 0.067644 0.008714 13 16 71
0.126726 -0.056069 0.040514 104 110 103
-0.051169 -0.001654 0.022614 42 59 53
-0.029906 0.048569 -0.083286 164 160 160
-0.130730 0.077792 0.014514 85 95 97
-0.000172 0.040143 -0.056686 165 161 161
0.064969 -0.054144 0.060014 107 108 105
0.058202 0.058157 -0.120386 160 154 152
0.086480 -0.031592 0.049514 103 125 145
-0.076750 -0.006290 0.021314 86 95 94
0.154529 -0.106603 0.059114 111 114 106
0.027169 0.054512 -0.111686 173 171 171
0.067681 -0.084161 0.052114 102 110 103
0.091265 0.050376 -0.093186 166 159 154
0.164747 -0.069559 0.061814 114 113 105
-0.035026 0.060347 -0.108486 62 71 70
0.233370 0.015495 0.127314 86 86 80
0.102804 0.029438 -0.008786 123 135 143
-0.132376 -0.067333 0.013214 107 108 105
0.066406 0.052013 -0.097986 157 153 153
-0.035959 -0.054321 0.029114 109 110 107
-0.042671 -0.079873 0.024014 108 113 109
0.166664 -0.017359 0.074214 100 103 95
0.183550 -0.084236 0.080314 107 112 99
0.025684 0.031826 -0.027386 32 45 44
-0.035303 -0.034639 0.024014 107 113 112
-0.126826 -0.017733 0.021314 100 106 99
-0.101150 -0.031432 0.010614 102 108 101
-0.066992 -0.016216 0.023314 103 128 145
-0.126786 0.053720 0.010014 10 19 84
-0.059471 -0.012319 0.017214 99 124 141
-0.087617 0.064860 0.003814 118 126 128
-0.017658 0.003790 0.007514 58 76 67
0.083947 0.026867 0.009414 124 133 144
0.097863 -0.029960 0.062714 85 97 105
0.207164 -0.017763 0.110614 102 103 90
-0.091605 -0.003746 0.019214 39 44 47
0.018109 0.005238 0.027614 39 58 52
-0.110757 -0.079738 -0.002086 107 111 100
-0.045938 -0.018998 0.023314 99 126 143
0.010777 0.055705 -0.111686 161 154 149
0.017246 -0.089044 0.050414 108 110 104
-0.014305 -0.002950 0.034314 60 77 71
0.026342 0.056699 -0.120286 146 140 138
-0.040433 -0.034163 0.032014 100 110 117
-0.134095 -0.009632 0.026914 100 105 101
0.032642 0.037950 -0.041286 161 160 157
-0.047873 -0.016569 0.027614 99 124 141
0.089326 0.024354 0.015214 118 130 138
0.206072 0.018017 0.103414 91 88 85
0.233970 -0.023670 0.109414 93 90 87
-0.096523 0.005817 0.011914 121 128 124
-0.089565 -0.035715 0.030514 102 108 107
0.207820 -0.098139 0.092014 112 112 101
0.000549 -0.088709 0.026214 106 113 109
-0.128334 0.047734 0.005614 11 19 87
-0.060622 -0.057549 0.041314 107 113 106
0.149738 -0.058921 0.068414 106 108 97
-0.090637 0.029289 0.008714 89 116 133
-0.007430 0.041197 -0.060686 155 149 147
0.024240 -0.049731 0.047814 110 111 108
-0.081888 -0.034899 0.023314 102 107 103
0.177002 -0.071603 0.061814 109 113 102
-0.182828 0.029640 0.021914 82 89 85
-0.031296 -0.052008 0.032814 104 108 107
-0.019128 0.055117 -0.112386 167 160 161
0.008847 0.027888 -0.012586 121 135 145
-0.061042 0.028491 0.007514 117 131 139
-0.011315 0.051669 -0.100486 169 167 167
-0.130103 -0.074430 -0.000886 106 111 107
0.042769 -0.014087 0.035814 69 84 85
-0.021945 -0.084322 0.039714 106 112 105
0.010920 0.014250 0.019914 45 62 56
-0.076544 -0.060901 0.019214 105 112 103
-0.106998 0.091222 -0.043286 110 119 118
0.000037 0.055688 -0.114586 166 162 162
0.020984 0.055518 -0.113086 150 147 144
0.048813 0.058154 -0.124986 166 162 163
-0.099652 0.042509 -0.016186 126 129 132
-0.085570 -0.081134 0.003214 105 113 106
0.073267 0.060795 -0.130086 162 161 153
-0.125111 0.026798 0.013214 20 35 49
0.176837 -0.060695 0.087614 107 108 100
0.074706 0.051465 -0.096486 153 149 150
0.146197 -0.052172 0.082314 104 106 100
-0.115288 -0.036741 0.006314 104 111 107
-0.135198 -0.066261 -0.001486 107 111 100
-0.008931 0.006231 0.015214 60 74 69
-0.093393 0.040791 -0.010986 144 150 150
-0.118941 -0.054885 0.015214 103 110 106
-0.174246 0.049948 0.013214 87 88 85
0.055910 0.060223 -0.130486 166 160 153
-0.026864 -0.085244 0.040514 108 114 107
-0.112929 0.088807 -0.021186 105 114 113
-0.028513 0.013069 0.002614 60 73 71
-0.168606 -0.080049 -0.006586 102 106 106
0.020764 -0.033158 0.038914 95 120 137
-0.087380 0.023186 0.026214 55 71 88
-0.045688 -0.064764 0.032814 109 111 105
0.020581 0.037837 -0.042486 157 158 155
0.085492 0.046046 -0.079586 161 161 161
0.087751 0.048894 -0.087286 172 169 166
-0.150060 0.083978 -0.006586 95 105 107
0.036593 0.053908 -0.104486 169 169 169
-0.035776 0.022584 0.000814 53 68 60
-0.093172 -0.028740 0.029114 105 109 108
-0.160830 0.048580 0.011314 73 74 71
0.086411 0.024073 0.030514 123 136 142
-0.061952 -0.033056 0.028314 106 119 125
-0.154487 0.081434 0.000814 94 102 104
0.152504 -0.110275 0.058214 111 115 104
0.080002 0.046606 -0.077686 166 165 162
-0.179242 0.031015 0.009414 90 90 90
0.190044 -0.098918 0.080314 108 111 103
0.079536 0.059910 -0.128686 154 154 148
-0.094183 0.074293 0.005614 123 131 133
0.026357 -0.095660 0.021314 104 112 105
0.082568 0.050150 -0.093186 173 171 165
0.086179 0.058064 -0.120386 160 159 156
-0.034433 0.046989 -0.076886 156 154 154
0.123125 -0.006275 0.062714 76 101 118
0.073320 0.054417 -0.108986 175 172 169
-0.051065 -0.069867 0.013914 105 113 106
0.042448 0.036820 -0.042086 151 149 149
0.113499 0.043743 -0.060086 168 168 157
0.053643 0.044608 -0.066486 165 165 165
-0.000649 0.002833 0.017214 60 75 67
-0.007242 0.041300 -0.062086 152 146 144
0.027639 0.059651 -0.132086 176 172 172
0.223262 -0.115447 0.077214 109 110 107
0.068833 0.025223 -0.002686 122 134 142
0.070609 0.050682 -0.093886 151 145 143
0.017645 -0.089906 0.060914 108 110 104
0.089321 0.055497 -0.107586 151 151 145
-0.125487 0.077911 -0.003186 86 93 102
0.092505 0.050444 -0.094486 161 161 155
-0.088035 0.073975 0.005014 122 129 133
-0.131585 0.090544 -0.039186 110 119 118
0.128799 -0.099033 0.054714 107 110 102
0.005213 0.027438 -0.005986 123 135 145
0.043065 0.059100 -0.127486 155 152 149
-0.160050 -0.052674 -0.008286 106 105 102
0.026692 -0.064020 0.046214 109 110 107
0.084935 0.031642 -0.022186 60 74 69
0.122765 -0.090764 0.093114 108 110 104
0.222101 -0.052454 0.111814 106 105 97
0.168597 -0.053539 0.089814 106 108 97
-0.013363 -0.053150 0.015214 108 109 106
0.003455 0.053255 -0.103286 170 166 167
0.045996 0.049249 -0.088486 168 167 164
-0.155092 0.057775 0.008114 15 18 73
-0.024630 0.037950 -0.041286 79 90 89
0.024043 -0.017895 0.042914 23 35 37
-0.109401 -0.019117 0.014514 99 107 100
0.132574 -0.099982 0.114314 108 111 103
-0.086645 0.071156 -0.002086 123 132 136
-0.067696 0.053271 -0.009886 124 132 134
0.026618 0.057942 -0.123686 172 168 168
0.120992 0.045467 -0.069586 166 168 157
-0.138324 0.080193 -0.005486 87 94 103
-0.035569 0.051445 -0.089686 76 93 87
0.173435 -0.103561 0.084414 111 113 102
-0.115294 0.007174 0.024814 115 126 124
0.000195 0.057812 -0.121786 165 161 162
0.080563 0.042817 -0.064986 162 160 160
-0.082615 0.086976 -0.005986 114 121 125
0.029088 0.040097 -0.054586 154 153 150
0.123459 0.003902 0.050414 50 81 102
-0.153909 0.089624 -0.026886 116 114 115
0.237194 -0.016015 0.114314 95 93 87
-0.015068 0.002808 0.011314 59 76 70
-0.159630 -0.062798 -0.010986 105 106 103
-0.101660 0.092865 -0.042886 110 119 117
0.007254 0.052832 -0.103286 157 153 153
0.023042 0.007630 0.033514 30 43 42
0.064726 -0.097924 0.054714 105 111 104
0.022200 0.057506 -0.121586 155 151 151
0.227930 0.051805 0.101014 20 25 34
0.119804 0.005638 0.066514 22 56 74
-0.049864 -0.056319 0.032014 106 111 107
0.076907 0.052539 -0.102286 171 170 167
0.022531 0.057322 -0.121286 111 104 106
-0.099537 -0.063331 -0.002686 102 110 103
0.194680 0.037927 0.109414 88 90 84
-0.099763 -0.056165 0.023314 100 108 101
-0.118013 -0.005371 0.009414 100 105 101
-0.039288 0.037496 -0.041286 71 85 80
0.010275 0.001779 0.018514 52 69 63
0.128143 0.024971 0.043714 122 132 139
0.065416 -0.022589 0.053814 99 119 139
-0.027562 -0.084677 0.028314 103 114 106
0.003646 0.027318 -0.004386 123 137 147
0.074318 -0.021946 0.042914 98 120 138
-0.180450 0.039479 0.021314 88 90 84
-0.143258 -0.041568 0.009414 100 107 98
-0.083790 0.066411 -0.001486 117 125 127
-0.152301 -0.027805 0.009414 99 104 100
-0.102120 0.022358 -0.002086 73 80 89
-0.072533 0.027754 0.013214 99 121 139
0.059768 -0.095159 0.052114 104 110 103
-0.059544 -0.034957 0.015814 111 116 112
-0.105374 -0.037389 0.021914 104 112 100
0.074226 0.033532 -0.023586 79 93 88
0.093177 0.052505 -0.096286 159 158 150
0.017850 0.053392 -0.106986 175 171 171
-0.015190 0.047264 -0.082486 155 147 145
-0.035440 0.029823 -0.025486 122 134 142
0.146529 -0.107790 0.066514 111 115 104
0.205365 -0.115747 0.068414 112 114 108
-0.058373 -0.014575 0.010614 104 129 146
0.137587 -0.033820 0.075214 103 102 99
0.184281 -0.083097 0.078214 105 109 98
-0.169360 0.032109 0.008714 81 85 84
0.178230 -0.097906 0.074214 111 115 104
-0.112318 -0.065526 0.010614 107 111 100
0.232499 0.045121 0.122014 0 6 5
0.071148 0.052545 -0.099486 161 165 164
-0.044645 -0.074116 0.027614 110 112 106
-0.157286 -0.063234 -0.007686 104 106 100
0.110602 -0.062798 0.064614 106 107 99
-0.144663 -0.016150 0.006914 100 105 101
-0.068559 0.090101 -0.039586 115 122 126
-0.008170 0.058686 -0.126086 171 165 163
-0.001669 0.054037 -0.108486 172 168 169
0.118700 0.034561 -0.031886 137 137 131
-0.121549 0.036177 0.005014 10 22 64
-0.107111 -0.000766 0.021314 120 124 123
-0.113827 -0.010765 0.017214 100 104 103
-0.085413 0.066479 -0.006586 119 127 129
0.198820 -0.115033 0.076214 110 114 103
-0.061905 0.017578 0.021914 92 117 136
-0.159327 -0.017505 -0.009886 92 97 93
-0.184527 0.011508 0.012614 81 87 86
-0.113339 0.070867 0.000814 62 60 66
0.064116 -0.021363 0.052914 95 119 141
0.045846 0.045706 -0.077086 170 166 166
-0.108436 0.061313 -0.008786 131 138 142
-0.009778 0.056932 -0.115986 172 168 169
-0.141308 0.072450 0.018514 10 15 79
0.043770 0.053272 -0.101886 176 174 174
0.115211 0.046436 -0.074886 167 169 158
0.062639 0.058282 -0.119686 163 157 155
0.230122 0.038498 0.135614 81 82 79
0.027148 -0.087642 0.060914 108 111 103
0.118502 -0.054530 0.065514 105 110 106
0.037375 0.054341 -0.108886 171 169 169
0.213472 0.018267 0.110614 91 89 83
0.066575 0.053072 -0.108686 175 172 169
0.006070 -0.010208 0.030514 68 89 96
0.118872 0.043409 -0.067486 163 162 154
-0.011095 -0.012773 0.026214 95 120 137
0.105432 0.045736 -0.072886 169 168 160
-0.021544 0.057187 -0.119286 164 157 158
-0.030827 0.049011 -0.087286 158 154 154
-0.141034 0.060776 0.008114 7 17 80
-0.010690 0.022112 0.006314 20 36 34
0.008969 -0.055181 0.044514 106 112 105
-0.130822 0.065989 0.020614 6 17 77
0.033892 -0.049507 0.064614 110 111 108
-0.019919 -0.011048 0.023314 92 117 134
0.040478 0.052713 -0.101086 173 171 172
0.011759 0.032898 -0.028286 43 57 52
-0.163338 -0.061748 -0.001486 105 106 103
0.088897 -0.063100 0.083414 105 107 101
0.116330 0.040563 -0.051686 168 163 158
0.031969 -0.077894 0.057314 110 111 108
-0.031326 -0.011735 0.020614 96 121 138
-0.011701 0.046563 -0.074886 168 164 164
0.063438 0.034810 -0.032786 82 95 87
0.226847 -0.037677 0.111814 101 100 92
0.217274 -0.081383 0.084414 104 107 94
0.013615 0.054267 -0.107186 170 168 168
-0.000661 -0.012094 0.032814 90 117 134
0.234397 0.047835 0.122014 4 10 9
0.056496 -0.094057 0.065514 106 111 107
0.028068 0.053885 -0.108286 178 174 174
0.139571 0.024695 0.051214 128 132 137
-0.000865 -0.011595 0.032014 90 117 134
0.197585 -0.072866 0.069314 105 106 98
0.010388 0.037505 -0.047586 160 159 156
0.031715 0.046037 -0.076586 169 167 167
0.058740 -0.085943 0.054714 106 112 105
-0.084157 -0.056623 0.011914 106 113 104
0.095470 0.034719 -0.031886 149 148 145
0.102916 -0.098448 0.050414 109 111 105
-0.157475 0.087423 -0.024586 101 108 112
-0.159624 0.022054 0.002014 25 28 83
-0.081958 0.038654 -0.003186 138 144 144
0.198390 -0.045450 0.094214 104 107 99
0.232361 0.049045 0.104614 14 30 47
-0.010724 0.024603 -0.005986 109 122 128
0.036852 0.056142 -0.117386 171 169 169
0.077802 -0.030755 0.056414 103 123 141
0.023321 -0.056467 0.044514 107 109 103
-0.041638 0.029182 -0.018186 113 127 137
-0.114764 0.013068 0.029814 97 114 123
-0.114370 0.087404 -0.028286 108 116 118
0.064977 -0.040116 0.042114 107 111 110
0.194796 -0.096359 0.069314 114 115 107
-0.023926 0.060750 -0.130686 72 83 81
-0.001727 -0.058609 0.041314 108 109 106
-0.026758 0.026076 -0.009886 119 131 141
0.229741 -0.066003 0.093114 105 103 97
-0.127752 0.080822 -0.000886 88 96 103
-0.102943 -0.058538 0.011314 107 110 102
-0.141825 0.055250 0.007514 72 74 100
-0.166566 0.057033 0.019914 75 75 75
-0.134029 0.075886 0.006914 82 93 97
-0.129052 -0.014686 0.020614 100 105 101
-0.085726 0.093432 -0.037086 107 113 113
-0.106694 0.088463 -0.020686 96 107 111
-0.054355 -0.083205 0.029814 102 114 109
0.048024 0.048753 -0.086786 170 168 168
0.206346 -0.066333 0.077214 109 108 100
-0.007063 -0.026719 0.025514 105 127 145
0.003106 -0.050832 0.038114 110 112 106
0.018524 0.058277 -0.126786 171 164 165
-0.029658 -0.022226 0.038914 99 126 145
-0.072002 0.088502 -0.037986 108 118 120
-0.163104 -0.043624 -0.003186 99 99 93
0.017829 0.051720 -0.094286 173 171 171
0.012285 0.058950 -0.128186 164 160 160
0.061843 0.001280 0.032814 55 69 64
-0.134827 0.085321 -0.021186 102 111 109
0.075828 0.053914 -0.104886 175 172 169
-0.037880 -0.051453 0.029814 109 110 107
-0.149153 0.019499 0.004414 107 112 108
0.051893 0.055177 -0.110686 175 171 171
0.117607 0.031338 -0.009286 117 127 134
0.070687 0.049751 -0.089486 167 165 165
0.112080 0.031190 -0.008786 118 131 137
-0.142868 0.058055 0.008714 35 38 75
-0.170595 -0.005136 0.006914 91 91 92
-0.161385 0.088816 -0.015686 102 107 110
-0.110333 -0.035048 0.017214 104 109 105
-0.009365 -0.042764 0.048714 107 113 112
0.013887 0.059905 -0.132786 168 159 161
0.199770 -0.097920 0.076214 116 113 103
0.167432 -0.077356 0.070314 109 113 102
-0.098081 -0.056833 0.005614 107 113 106
-0.144720 -0.076622 0.004414 107 110 102
0.077627 0.056640 -0.111186 177 175 169
-0.040749 0.001930 0.019214 56 70 65
-0.160070 0.079157 0.011314 88 96 98
-0.094297 -0.007671 0.021314 101 117 120
-0.074049 0.064245 -0.001486 124 133 137
0.026087 -0.046952 0.059114 107 112 108
0.075368 -0.070857 0.054714 107 108 105
-0.030460 0.054952 -0.104086 76 89 87
0.242320 0.048837 0.102214 4 16 18
-0.027285 0.029361 -0.028286 119 131 141
0.176256 -0.073914 0.076214 111 113 102
-0.067950 -0.004699 0.030514 14 16 28
0.232282 -0.051158 0.097614 98 101 93
-0.075061 0.087831 -0.036286 109 119 121
0.206512 -0.086116 0.085514 109 109 98
-0.021428 0.029659 -0.022186 120 132 140
0.058230 0.051313 -0.098186 173 173 173
-0.050989 -0.009912 0.016514 97 122 141
0.149469 -0.065423 0.069314 107 109 98
-0.087849 -0.021040 0.033514 95 101 100
-0.001114 0.056655 -0.117586 173 169 170
0.033698 0.040346 -0.054886 163 162 159
0.021611 0.030538 -0.021186 75 88 94
-0.179074 0.026871 0.021914 84 84 85
0.137917 -0.103186 0.078214 111 112 104
-0.088953 -0.019390 0.030514 99 103 102
0.006280 0.059372 -0.129486 151 145 143
-0.150077 -0.020428 0.004414 101 103 97
-0.031852 -0.038835 0.026914 108 112 111
0.097003 0.050026 -0.092686 173 171 165
0.150996 0.019867 0.050414 81 102 109
-0.091878 0.058135 -0.013086 137 143 143
0.095027 0.047699 -0.081386 170 166 166
0.080209 0.046946 -0.080086 168 167 164
-0.144652 -0.045773 0.011914 105 111 104
-0.169911 -0.034757 -0.005986 88 91 83
-0.039721 0.008232 0.008714 53 69 66
0.023697 0.018364 0.026914 44 57 55
-0.062820 -0.074849 0.019914 105 112 108
-0.135514 -0.076397 0.001414 103 111 104
0.035500 0.053655 -0.105086 167 167 167
-0.094684 0.004828 0.012614 109 115 114
0.183056 -0.091795 0.090914 112 111 103
0.213309 -0.057989 0.076214 104 105 92
0.062899 -0.074822 0.066514 108 110 104
-0.072772 0.018963 0.021914 94 119 136
-0.042325 -0.092970 0.013214 105 114 105
-0.106406 0.090264 -0.046386 110 118 120
-0.027292 -0.042213 0.027614 106 110 109
0.158719 -0.014562 0.079214 100 101 93
0.084204 0.052928 -0.102886 163 163 152
0.044333 -0.001525 0.040514 56 70 65
-0.185299 0.075293 0.014514 56 67 66
0.036269 0.019978 0.027614 77 90 96
-0.002933 0.058331 -0.126086 149 146 143
0.091489 0.020891 0.041314 112 123 127
0.023374 -0.070325 0.047814 107 107 101
0.062057 -0.071047 0.064614 107 109 103
0.108856 -0.095896 0.065514 107 109 103
-0.132397 0.027795 0.003814 45 41 97
-0.049473 0.032249 -0.023086 123 136 149
0.024027 0.057445 -0.121186 169 167 167
0.044755 -0.100043 0.040514 107 109 103
0.101003 0.048312 -0.085986 172 167 162
-0.062892 -0.060325 0.021914 105 112 108
0.016565 -0.079759 0.046214 108 110 104
0.180490 -0.097890 0.070314 106 112 105
-0.114336 -0.041121 0.007514 107 109 103
-0.031312 0.041969 -0.061086 157 155 155
0.017578 0.058823 -0.127786 157 150 151
0.130792 -0.082378 0.081314 107 111 100
0.004274 -0.013122 0.032814 96 118 136
0.097603 0.048894 -0.087286 174 170 163
-0.034066 -0.063004 0.026914 110 111 108
0.015898 0.024034 -0.007686 121 130 141
0.022424 -0.003301 0.033514 37 53 50
-0.089296 -0.003805 0.019914 50 56 56
-0.013829 0.054395 -0.107886 176 172 172
-0.068995 -0.026187 0.016514 103 130 149
0.014075 0.033126 -0.029686 35 47 42
-0.036374 0.045149 -0.071686 156 155 152
0.066873 0.048747 -0.091086 173 172 169
-0.116487 -0.074942 -0.008786 105 111 104
-0.014731 0.050609 -0.097386 173 171 172
0.006566 0.040768 -0.059686 155 151 151
-0.019477 -0.019505 0.025514 99 124 141
-0.066132 -0.029524 0.025514 99 126 145
0.045691 0.054232 -0.110086 177 175 175
0.005518 0.006809 0.015214 57 70 62
-0.125000 0.078123 -0.003786 88 96 103
0.015817 0.056573 -0.118186 164 160 160
0.013180 0.059881 -0.132386 168 159 161
-0.044816 0.032297 -0.024986 126 138 148
0.232897 -0.092778 0.105814 110 108 96
0.123284 0.042175 -0.062686 156 164 152
-0.177121 -0.046916 0.003214 84 88 87
-0.136785 -0.020657 0.015814 100 105 101
-0.055641 0.031688 -0.009286 123 134 147
-0.183909 0.065387 0.017214 69 72 75
0.016082 0.032430 -0.030586 53 69 66
-0.162655 0.014312 0.005014 91 92 89
0.009689 -0.048231 0.029114 110 111 108
-0.023479 0.057162 -0.119986 156 152 153
-0.090472 -0.005964 0.019914 134 146 148
-0.133543 -0.002070 0.017814 96 103 99
-0.156350 -0.004529 0.019214 93 100 96
0.261447 -0.004640 0.137014 86 87 84
-0.126857 -0.041635 0.011314 104 110 103
-0.060663 -0.027355 0.019914 103 128 145
0.003486 0.050344 -0.093886 168 164 165
-0.124796 -0.041756 0.009414 100 106 99
-0.179283 0.028965 0.010014 93 94 91
0.088261 0.056879 -0.113486 148 147 139
0.007544 0.011345 0.018514 46 63 57
0.004806 0.032143 -0.030086 44 62 60
-0.149362 0.029981 0.003214 46 42 85
-0.183040 0.058996 0.019914 83 84 81
0.130123 -0.109090 0.070314 110 111 103
0.158365 -0.049032 0.101014 107 107 101
-0.086296 0.064181 -0.006586 119 127 129
-0.007325 0.056130 -0.115086 170 166 166
-0.139618 -0.081502 0.003214 104 111 102
-0.022129 -0.026276 0.036614 101 126 145
-0.016508 0.046578 -0.080086 165 161 161
-0.129921 0.078425 0.010614 87 96 100
0.089369 0.051677 -0.094486 174 173 170
-0.045392 -0.049986 0.024814 109 110 107
0.125902 -0.045392 0.076214 106 106 100
-0.062039 0.088299 -0.031486 113 122 126
0.192760 -0.094445 0.079214 111 113 102
-0.015214 0.040342 -0.057386 158 155 152
0.034711 -0.072504 0.052114 109 109 103
-0.095348 -0.043777 0.013914 106 111 107
-0.044279 0.046252 -0.061686 70 84 79
-0.074115 0.082723 -0.005986 110 120 127
-0.015708 -0.082918 0.033514 107 113 106
-0.026073 0.057692 -0.120986 85 90 86
-0.152483 -0.018491 0.003814 94 96 90
0.116834 -0.119372 0.085514 108 112 101
0.076752 0.057534 -0.119686 151 146 141
-0.015109 0.019701 0.008714 34 45 44
-0.070160 -0.008723 0.032014 99 126 145
-0.088176 -0.042012 0.008114 105 111 104
-0.077311 -0.043598 0.010014 102 109 105
-0.028716 0.010071 0.004414 60 73 71
-0.108214 -0.064177 0.002014 104 113 104
0.039242 -0.059328 0.058214 107 109 103
0.158055 -0.101091 0.082314 110 110 104
-0.148102 0.094032 -0.034086 119 119 119
-0.101722 -0.082014 0.008714 109 112 104
-0.102482 -0.017499 0.038114 102 107 103
0.090614 0.022940 0.036614 122 132 139
-0.072466 0.052112 -0.004386 125 133 135
-0.141114 -0.066132 -0.000286 103 112 103
0.091787 0.015574 0.042914 49 62 61
-0.083570 0.042418 -0.003186 90 96 96
-0.058936 0.031913 -0.011486 119 131 139
-0.063089 -0.072237 0.026214 106 113 109
-0.151264 -0.038783 0.019214 103 105 99
0.040613 0.036313 -0.039186 140 145 141
0.072121 0.041373 -0.063686 161 162 159
0.028676 -0.025814 0.044514 101 126 143
-0.095381 0.003532 0.011914 133 142 141
0.213260 0.043391 0.128714 83 84 81
-0.056356 -0.053599 0.035814 107 113 106
0.062992 0.053137 -0.107186 173 172 169
-0.131805 0.075630 0.020614 23 32 36
0.043079 0.058897 -0.125986 162 159 156
-0.062525 0.059664 -0.021686 119 128 132
0.039359 -0.059333 0.059114 107 109 103
-0.040190 0.056185 -0.089686 66 79 78
0.197984 -0.119506 0.087614 109 111 105
0.150298 -0.036295 0.084414 104 105 97
-0.095135 0.048703 -0.008786 131 137 137
0.066790 -0.003594 0.032014 59 71 66
-0.119783 0.087439 -0.009886 102 111 115
-0.076335 0.093311 -0.039986 108 111 114
0.106481 -0.013073 0.064614 90 94 93
-0.187842 0.054780 0.019214 82 82 83
0.020114 0.049993 -0.092286 168 166 167
-0.001975 0.047955 -0.087286 156 154 154
-0.104049 0.052100 -0.011986 137 142 145
0.031584 -0.009777 0.034314 56 70 65
-0.061969 -0.031599 0.024814 93 117 130
-0.084409 0.040875 -0.004386 140 144 143
0.004236 0.058786 -0.126586 153 149 150
0.002404 0.053092 -0.103086 169 165 166
-0.128102 -0.019883 0.011914 101 106 102
-0.077129 -0.044900 0.006914 105 112 108
0.195381 -0.011073 0.094214 101 101 90
-0.132150 -0.030126 0.015814 101 107 100
-0.157536 0.049118 0.006314 60 70 65
-0.181172 0.044272 0.010014 83 86 89
0.105063 0.030620 -0.013086 119 132 138
-0.022197 0.001279 0.017214 61 78 72
-0.111067 0.026755 0.000214 94 116 129
-0.015043 -0.021896 0.036614 104 126 146
0.103006 0.019201 0.044514 71 85 93
0.128772 -0.019963 0.082314 95 100 96
-0.094001 0.040022 -0.009886 141 147 147
0.152029 -0.054596 0.083414 107 108 100
-0.095410 -0.061790 0.026214 107 110 102
0.011631 0.048777 -0.087286 165 161 162
0.052467 0.023626 0.007514 116 128 136
-0.025700 0.038954 -0.050586 82 94 89
-0.128722 0.089875 -0.047886 108 113 109
-0.011141 0.056509 -0.115786 173 171 172
0.078503 0.053701 -0.106986 176 174 168
0.036470 -0.065246 0.052114 109 109 103
-0.074347 0.013611 0.022614 55 62 66
-0.072380 0.075102 0.000214 72 99 116
-0.040502 -0.010489 0.025514 98 120 138
-0.089489 -0.076807 0.004414 104 112 105
-0.084193 -0.087177 0.012614 104 112 105
0.109599 0.032667 -0.016186 44 54 49
0.035132 -0.045594 0.053814 109 110 107
-0.161209 0.043642 0.011314 69 72 75
-0.116439 -0.056875 -0.001486 102 110 103
-0.142491 0.085627 -0.027786 106 117 116
0.173168 -0.068447 0.076214 112 113 98
-0.073610 -0.055225 0.019214 107 112 108
-0.033650 0.029335 -0.025486 123 135 143
-0.030314 0.048615 -0.084986 167 160 161
-0.133151 -0.010363 0.026214 101 106 102
0.102605 0.044120 -0.066186 164 161 158
-0.038317 0.014071 0.008114 48 64 61
-0.008899 0.054638 -0.111586 170 168 169
0.032927 0.054328 -0.110486 171 169 169
-0.154905 0.065840 0.008114 35 40 70
0.139193 -0.062497 0.060014 110 111 103
-0.085057 0.024452 0.029114 83 105 123
-0.016041 0.054560 -0.109986 173 169 169
-0.110337 0.090356 -0.023086 107 116 120
-0.053691 0.042289 -0.041686 62 74 69
-0.150606 -0.067605 0.005614 102 107 103
0.195095 -0.100364 0.071314 111 113 102
-0.161292 -0.034096 0.002614 96 98 92
0.076438 -0.036861 0.029114 108 112 111
0.226415 -0.037772 0.105814 101 101 90
-0.090276 -0.030299 0.019914 98 107 106
-0.021438 0.043474 -0.071686 164 160 160
0.038089 -0.035072 0.026214 106 110 110
0.211091 0.041543 0.116914 86 85 82
0.026846 0.055206 -0.112786 171 169 169
0.051249 0.049907 -0.091586 160 158 159
0.102806 0.029714 -0.010386 123 135 145
-0.015987 -0.082663 0.024014 105 110 106
0.178674 0.002611 0.102214 98 98 92
0.035847 -0.061420 0.063714 108 109 106
-0.127353 0.048996 0.010014 10 18 86
-0.160859 -0.023149 -0.005486 96 97 89
-0.138624 -0.073480 0.004414 105 111 104
-0.002023 0.053272 -0.104086 170 166 167
0.170269 -0.057255 0.084414 106 107 99
-0.102115 0.066536 -0.007186 135 141 141
0.020537 -0.017454 0.044514 17 22 25
0.152281 -0.053908 0.080314 107 110 102
-0.102868 -0.029115 0.014514 105 106 103
-0.107676 0.088516 -0.047586 110 116 115
-0.112496 0.005350 0.006314 93 99 98
-0.008302 0.059514 -0.126786 152 145 140
-0.070849 -0.046366 0.020614 106 111 107
0.032970 0.038810 -0.044786 159 157 157
0.068530 -0.031636 0.061814 98 120 140
-0.081071 0.000574 0.021914 70 79 83
0.005400 0.058620 -0.126286 166 162 162
0.060299 0.056307 -0.116486 154 153 145
-0.008915 0.058673 -0.125586 172 168 169
0.065945 0.060700 -0.130586 158 151 146
0.033347 -0.018438 0.040514 97 122 141
-0.008505 -0.012451 0.026914 94 119 136
-0.026574 0.054544 -0.111186 159 157 157
-0.039150 0.053011 -0.087786 72 86 81
-0.050797 -0.090837 0.014514 107 115 108
0.019152 0.044974 -0.073686 164 162 162
-0.185642 0.056362 0.013914 73 84 83
-0.035373 0.053563 -0.093586 75 92 86
-0.086516 0.092788 -0.036286 109 113 113
-0.126676 0.066984 0.018514 3 14 74
0.226898 -0.006632 0.109414 93 91 85
-0.064274 -0.073139 0.017814 105 113 106
0.009935 -0.065244 0.035814 104 109 105
-0.012005 0.034994 -0.034486 69 82 80
0.015383 -0.006673 0.036614 53 66 64
-0.004480 0.056718 -0.119286 172 168 168
0.114769 0.042270 -0.058686 166 163 160
