ply
format ascii 1.0
element vertex 1221
property float x
property float y
property float z
property uchar red
property uchar green
property uchar blue
end_header
0.048260 -0.025105 -0.037296 183 146 44
0.017297 0.041041 0.014904 158 157 159
-0.065158 0.014776 -0.019196 5 14 7
0.005300 -0.043914 0.046104 116 111 89
0.040013 0.035405 0.010904 168 131 47
0.040631 -0.010122 -0.007196 162 126 37
0.044984 -0.010221 -0.021496 166 131 35
-0.056492 -0.032864 0.025804 83 91 78
-0.043295 0.001871 -0.023696 0 4 0
0.000274 0.004988 -0.111096 2 6 1
-0.006546 0.029278 0.002804 157 159 169
-0.045928 -0.010119 -0.022096 11 15 10
-0.020444 0.027609 -0.005396 160 165 174
0.000275 0.005008 -0.111096 11 14 15
0.002927 0.033641 0.006604 162 161 170
0.047660 0.024698 -0.014696 164 125 35
-0.005467 0.045364 0.008204 150 151 164
-0.008214 0.022623 0.000504 176 175 175
0.040688 -0.035222 -0.017696 170 130 36
0.040710 -0.006459 -0.006396 164 125 37
-0.049137 0.028149 -0.010496 160 159 168
-0.042432 -0.000446 -0.021596 10 11 5
-0.024679 -0.051177 0.033504 126 130 105
0.002953 0.048336 0.011904 159 157 164
0.044549 -0.022343 -0.024296 169 134 36
-0.037221 0.036331 -0.007196 141 153 169
0.015331 -0.014482 0.054704 130 135 123
0.046749 0.007563 -0.020496 168 133 37
0.027693 0.026705 0.014104 165 156 151
0.000272 0.004975 -0.111096 0 7 4
-0.030419 -0.018898 0.031504 29 29 29
-0.043910 -0.003895 -0.017196 7 14 8
-0.047573 0.037400 -0.011896 161 171 185
-0.038324 0.016359 0.017004 13 16 15
0.032484 0.016563 0.014104 182 177 175
-0.036389 0.039767 -0.006296 82 108 135
0.046666 0.038628 -0.005996 167 127 44
0.000268 0.004988 -0.111096 6 10 5
-0.007763 -0.039644 0.039504 113 112 95
-0.032348 0.036336 -0.005896 155 164 176
-0.037665 -0.000350 0.019604 140 140 140
0.047727 -0.018895 -0.032496 171 138 39
0.010916 0.026139 0.007804 144 146 152
0.035713 -0.022553 0.003104 165 131 41
-0.018745 0.018499 0.014104 172 171 171
0.000275 0.004997 -0.111096 8 15 9
0.050836 -0.003973 -0.034796 174 140 48
0.046530 -0.003140 -0.021696 167 131 38
0.000266 0.004990 -0.111096 1 8 2
-0.062726 0.002619 -0.022796 4 11 5
-0.028314 0.041060 -0.002396 157 163 176
-0.009431 0.024159 -0.000596 166 164 173
0.051242 0.016352 -0.030596 167 131 42
0.037290 -0.038247 -0.008196 165 131 39
0.045203 0.003196 -0.015396 163 129 35
-0.056804 -0.021296 -0.012096 111 119 118
0.029943 -0.029457 0.018304 164 131 44
0.050315 -0.010760 -0.038496 172 138 46
0.051717 0.026445 -0.028496 161 131 45
-0.023594 -0.053586 0.032104 141 148 122
-0.065158 0.027609 -0.014396 121 143 155
-0.052417 0.034401 -0.012396 151 159 176
0.036840 0.006019 0.010204 172 135 51
0.036883 -0.030598 -0.003596 163 131 39
-0.017065 0.006450 0.035704 166 154 134
0.032874 -0.037987 0.006204 158 126 32
-0.034323 -0.049782 0.027804 128 135 109
-0.028899 0.038743 -0.002896 157 163 174
0.045340 0.010010 -0.014496 167 128 40
0.044491 -0.021463 -0.023396 167 131 42
0.034835 -0.035226 0.000004 161 129 39
0.016673 -0.034503 0.054704 114 109 87
0.022210 -0.017201 0.047104 163 129 51
0.046765 0.038368 -0.005596 167 128 40
0.038931 0.037246 0.015304 167 130 46
-0.006067 -0.049975 0.033704 126 129 104
0.040413 0.040553 0.011304 168 129 39
0.000262 0.004995 -0.111096 8 12 7
-0.034372 0.028005 -0.009496 164 169 178
0.042494 0.012181 -0.005596 165 128 42
0.041749 0.018768 -0.000096 167 127 42
-0.011443 0.008033 0.020004 165 170 175
0.046908 -0.028122 -0.032996 172 140 36
-0.062040 0.028984 -0.014596 154 163 173
0.027991 0.005253 0.031304 171 164 158
0.049476 0.009632 -0.026596 167 132 45
-0.032854 0.021035 0.005704 165 165 165
-0.065350 -0.023353 -0.013796 140 157 162
0.035735 -0.039375 -0.004196 161 129 37
-0.045176 -0.011809 0.025104 0 3 2
0.027503 -0.026517 0.026704 166 133 50
-0.032690 0.037917 -0.005296 157 163 174
-0.034476 -0.048427 0.028004 122 129 107
0.044192 0.014979 -0.007996 165 128 42
-0.015292 0.001783 0.047304 126 132 130
0.039295 0.028667 0.010904 166 129 45
-0.021975 0.035941 -0.002096 157 162 171
0.042014 0.027176 0.001504 166 126 43
0.018292 -0.018882 0.050604 161 127 47
-0.012376 0.018567 0.012204 176 175 175
0.050009 0.029585 -0.020996 166 129 45
0.045231 0.011356 -0.013496 168 129 41
0.037934 -0.003934 0.002704 166 126 41
0.034011 -0.032980 0.003604 160 126 34
-0.000257 -0.035540 0.047304 111 110 93
0.026465 0.020694 0.009704 163 158 154
-0.044629 -0.009699 -0.019396 13 17 10
-0.008080 -0.018764 0.049804 130 99 45
-0.002683 0.047208 0.009204 151 152 165
0.045919 -0.028102 -0.031096 173 139 38
0.037814 0.018992 0.009604 165 129 49
0.039086 -0.030849 -0.012496 165 131 37
0.012298 -0.044415 0.050004 115 111 86
0.026979 -0.026449 0.028204 165 132 49
0.047732 -0.020655 -0.033996 175 142 43
-0.040298 0.027809 -0.008696 173 173 175
0.032699 0.043796 0.021804 165 156 147
-0.038903 0.025760 -0.004496 172 172 172
-0.034108 0.032661 -0.006896 149 153 165
-0.025330 0.021618 0.003204 171 171 171
0.033595 -0.001262 0.016604 171 136 49
-0.058635 0.033931 -0.015396 149 150 163
0.016843 0.024391 0.008904 119 118 122
0.032640 -0.009167 0.015804 159 124 41
0.002378 0.042495 0.010004 160 159 168
0.020736 0.044097 0.016704 161 156 152
-0.031181 0.032358 -0.005396 149 154 163
0.031375 -0.039997 0.007404 157 125 33
0.003646 -0.042615 0.044504 112 110 89
-0.044575 0.035085 -0.010596 161 170 180
0.048705 -0.021497 -0.037196 178 142 35
-0.044145 -0.017027 -0.021196 37 44 38
0.042253 0.033422 0.002604 168 129 41
-0.045208 0.021720 0.003904 145 146 142
-0.046116 -0.012919 0.026704 0 1 0
0.042164 -0.020924 -0.015096 165 130 34
-0.017408 0.045795 0.004204 153 157 169
0.039539 -0.032474 -0.012996 166 132 40
0.037007 0.032426 0.016704 149 119 60
-0.040763 0.034412 -0.009596 162 168 179
0.000280 0.005016 -0.111096 7 14 8
0.017232 -0.002617 0.054204 161 162 156
0.047277 -0.001472 -0.026296 171 135 46
-0.014239 0.005602 0.040004 114 127 122
0.039050 0.004787 0.000604 170 130 45
-0.006541 0.018060 0.011704 179 179 175
-0.053259 -0.007573 -0.023396 21 25 18
0.044039 0.046726 0.004904 166 128 51
0.030424 -0.028561 0.016704 164 129 42
0.014762 -0.032856 0.056604 115 110 90
-0.035808 0.009870 0.028404 16 20 15
0.046864 -0.022823 -0.031696 174 139 43
-0.058782 0.039682 -0.014696 166 178 192
0.045899 0.020734 -0.013296 162 126 37
0.002979 -0.014380 0.052804 159 159 153
-0.045006 -0.035350 0.032504 90 100 88
-0.059385 0.032518 -0.018496 171 185 191
0.028803 0.033722 0.016604 162 153 146
0.031652 0.012552 0.024904 179 179 181
-0.019080 0.017704 0.016304 169 168 168
0.039968 0.023916 0.006504 166 129 47
-0.019388 -0.047132 0.035304 115 119 98
-0.133663 0.018927 0.107804 6 12 12
0.050971 0.002867 -0.036096 175 141 51
-0.015563 0.006728 0.031904 156 163 155
-0.036581 -0.035502 0.029004 101 106 92
-0.002218 0.031020 0.004204 159 160 173
0.046542 0.016378 -0.015396 167 128 40
0.038466 -0.031093 -0.008496 166 131 33
0.000269 0.004978 -0.111096 1 9 6
-0.003607 0.024561 0.000304 163 165 173
0.047998 0.027704 -0.014296 164 124 41
0.012339 -0.033712 0.055504 117 112 92
0.000426 0.009916 0.024004 167 173 175
-0.053277 0.031531 -0.014896 168 177 189
0.048777 0.024044 -0.020196 167 128 40
-0.052993 -0.024060 0.032104 72 81 74
-0.046572 0.034503 -0.009796 155 161 172
-0.018815 -0.041318 0.036704 109 114 100
-0.056675 -0.028022 -0.012696 152 165 174
-0.048817 0.040823 -0.010696 161 170 182
-0.044484 0.023765 -0.000996 142 140 132
0.051169 0.017865 -0.028496 165 132 45
0.022396 0.029665 0.012304 161 156 154
-0.005731 -0.052541 0.035904 136 136 112
0.049485 -0.021344 -0.039396 181 141 45
-0.058674 0.001451 -0.019496 4 10 8
0.027125 -0.030747 0.025804 166 133 50
-0.025288 -0.015435 0.044304 82 87 77
0.053436 0.033562 -0.031396 164 174 181
0.043942 -0.011261 -0.017796 166 130 39
0.045508 0.032911 -0.008796 166 126 45
0.043449 -0.030953 -0.024196 168 134 31
0.042084 0.043425 0.007104 167 127 42
0.038374 -0.021090 -0.007096 163 124 32
-0.009631 -0.044009 0.037604 113 116 93
-0.053459 -0.030731 -0.010996 134 156 159
-0.048000 0.013980 0.012804 11 22 20
0.012788 -0.008778 0.056604 161 167 165
0.047084 0.005224 -0.021896 167 131 40
-0.053267 0.035656 -0.013496 168 174 187
0.014769 0.039338 0.013104 158 157 159
0.005806 -0.011163 0.050804 137 137 131
0.034656 0.018305 0.012304 173 164 159
-0.027714 -0.019790 0.034904 67 68 57
-0.050580 0.010086 0.009204 33 41 26
-0.058098 -0.048464 0.021004 116 130 108
0.000270 0.004990 -0.111096 4 10 8
-0.009668 0.021480 0.004004 178 175 172
-0.033349 0.034182 -0.006396 160 164 178
-0.043531 0.004385 -0.013896 4 5 1
0.013986 0.018437 0.010204 180 173 165
-0.031436 -0.048589 0.029504 121 125 102
-0.029186 0.034722 -0.005296 155 164 174
-0.034049 -0.030982 0.026704 159 168 161
0.014750 -0.020831 0.057904 107 104 88
0.042941 -0.020867 -0.019796 162 126 33
0.036472 0.006673 0.012304 169 132 46
-0.048425 0.032005 -0.013696 164 173 183
-0.052071 -0.045312 0.023504 105 114 94
0.052795 0.019584 -0.033896 144 115 49
0.054498 0.032647 -0.032496 155 162 168
0.038458 -0.033420 -0.011096 165 129 38
0.034144 -0.016813 0.009504 166 129 45
0.002011 0.040150 0.009304 161 160 167
0.051005 0.003617 -0.034796 171 136 49
-0.030784 -0.024034 0.035704 94 99 89
-0.063653 -0.031648 -0.015896 131 148 153
0.000271 0.005001 -0.111096 7 15 14
-0.029702 0.044299 -0.002296 155 160 176
-0.054451 -0.005569 0.022304 0 2 0
-0.032248 -0.009573 0.031704 115 121 123
0.007665 0.013692 0.025504 174 173 173
0.004338 0.043476 0.010004 161 159 166
0.041905 0.032630 0.004904 166 129 45
-0.003318 0.016262 0.015904 179 178 178
-0.028286 0.042490 -0.002196 156 162 175
0.000269 0.004981 -0.111096 2 11 23
0.045277 -0.026765 -0.028596 171 134 32
-0.001324 -0.035529 0.049104 113 112 97
0.035363 0.001650 0.013204 171 134 48
-0.037031 0.015749 0.021104 14 18 13
-0.049092 0.004414 -0.018496 4 10 8
0.049113 0.000956 -0.029896 169 134 38
0.024706 0.040584 0.018304 161 156 152
-0.010674 -0.047795 0.038404 119 122 99
0.016207 0.036365 0.012204 159 158 160
0.024192 0.031223 0.014104 164 156 153
-0.001000 0.048094 0.009204 152 153 166
-0.039861 0.039635 -0.006696 18 65 119
-0.031479 0.035697 -0.005696 157 166 178
-0.061017 0.031893 -0.018296 177 184 192
-0.053050 0.024819 -0.010096 18 26 25
-0.025322 0.033850 -0.004196 156 160 172
-0.031846 0.024959 -0.004996 172 172 172
-0.066315 -0.030828 -0.016396 139 160 166
-0.025612 -0.020685 0.041504 97 98 89
-0.033615 -0.027554 0.031704 96 90 75
-0.006952 0.032166 0.002604 153 157 169
-0.023928 -0.008662 0.041504 108 112 107
0.025415 0.012275 0.029204 182 179 174
0.049751 0.022095 -0.022996 166 130 37
-0.012057 -0.035654 0.043304 109 111 100
-0.063202 0.012580 -0.017896 7 13 11
0.043731 0.029817 -0.002896 162 125 43
-0.041282 0.029823 -0.012096 165 175 182
0.023455 0.044118 0.017704 158 153 149
-0.062858 0.006110 -0.019196 7 13 11
0.049919 -0.007089 -0.034996 173 138 42
0.005480 -0.004283 0.055704 113 117 112
0.048812 -0.002805 -0.030596 174 138 49
-0.053099 -0.031442 0.032104 85 95 83
-0.036958 -0.002422 0.020504 123 125 131
-0.049486 0.030734 -0.014696 169 178 188
-0.057050 -0.015486 0.026904 3 4 0
-0.045994 -0.003254 -0.022596 4 10 8
-0.021480 0.006980 0.020604 111 101 89
0.048684 -0.008970 -0.031296 170 136 44
0.000274 0.004983 -0.111096 15 15 17
-0.002761 -0.045300 0.044304 114 114 92
0.032592 -0.006937 0.019004 164 127 43
0.043983 0.023631 -0.004996 162 122 37
0.021007 -0.047294 0.037604 179 146 47
-0.015324 0.017936 0.014004 177 176 176
-0.001545 0.001187 0.047804 140 146 144
0.044176 -0.002040 -0.016096 164 125 35
0.002950 0.013825 0.026004 167 166 166
-0.001810 -0.004067 0.041704 134 142 141
-0.040166 0.004558 0.019604 3 4 0
0.041174 -0.000165 -0.005796 162 125 39
0.020635 0.002775 0.035704 151 152 139
-0.044205 0.012408 -0.008896 14 21 13
0.016464 0.013065 0.025104 184 181 178
-0.064992 -0.033126 -0.017096 155 169 171
-0.060932 0.008698 -0.022096 7 13 11
0.003314 -0.054425 0.039304 136 137 110
-0.040014 0.041148 -0.006096 50 77 117
0.048215 0.024699 -0.018696 167 128 40
-0.045952 -0.006881 -0.021796 22 24 15
0.043614 0.001474 -0.012596 161 125 32
-0.063639 -0.039223 0.021004 87 95 80
0.000268 0.005003 -0.111096 7 13 13
-0.011744 0.040261 0.003604 150 154 166
0.000284 0.005002 -0.111096 13 17 12
0.040903 0.029397 0.006204 166 129 43
0.000286 0.005015 -0.111096 7 14 8
-0.042370 -0.010761 -0.019896 29 38 29
-0.024115 0.029492 -0.004996 125 123 137
-0.061049 -0.033552 -0.015696 149 163 167
-0.060544 -0.045378 0.022104 101 110 92
0.024924 0.034593 0.015504 161 156 152
0.032138 -0.033090 0.011004 163 129 37
-0.054879 0.029598 -0.014696 168 173 182
-0.053073 -0.006811 0.025304 0 4 0
0.048951 -0.020533 -0.038696 178 144 39
-0.042928 0.028997 -0.012496 167 174 182
0.001802 0.033318 0.006704 158 160 168
-0.024720 0.020198 0.007904 170 169 169
0.034800 -0.003520 0.011204 166 129 45
-0.037713 -0.032917 0.031704 107 111 104
-0.016627 0.001889 0.047804 120 127 121
-0.062904 -0.046515 0.018304 106 117 96
-0.058966 -0.033781 -0.015996 158 176 185
0.052548 0.031936 -0.029196 159 127 37
0.033921 -0.003784 0.015004 166 129 43
-0.042424 0.001253 -0.016196 43 34 25
0.048668 -0.009955 -0.031996 174 139 41
-0.013143 0.034295 0.000504 154 158 170
-0.030273 -0.021723 0.034304 2 5 4
-0.022741 -0.049913 0.032704 120 127 101
-0.057472 -0.009530 -0.025196 0 6 6
0.020721 0.006397 0.030304 179 179 181
-0.025328 -0.001859 0.026704 78 89 98
0.051910 0.005353 -0.036096 168 130 33
0.043639 0.018990 -0.006396 167 128 40
-0.054193 0.000552 0.013204 43 33 21
-0.054456 -0.026638 -0.009696 161 175 181
-0.001802 -0.041239 0.041104 113 113 93
0.016590 0.019822 0.007704 180 173 167
-0.041866 -0.003251 0.019804 158 154 145
0.039217 -0.021686 -0.009496 160 124 33
0.040660 -0.001159 -0.004696 162 126 37
0.000282 0.004992 -0.111096 3 7 2
-0.053069 -0.026745 0.030904 77 86 79
0.048692 -0.003753 -0.029496 172 138 48
-0.031916 -0.037873 0.030704 100 103 87
-0.034523 -0.027157 0.028604 175 181 183
0.006681 0.022158 0.004004 166 166 170
-0.018472 0.023360 -0.000996 174 173 175
-0.054927 -0.047497 0.022504 111 121 98
0.050377 0.033907 -0.021996 165 131 41
-0.001360 0.048949 0.009604 154 152 166
0.023648 -0.000349 0.038404 155 152 136
0.049591 -0.014631 -0.036596 174 140 37
-0.048221 -0.011955 -0.022096 3 11 10
-0.030587 0.035579 -0.005296 155 164 174
0.034100 -0.040217 -0.000796 159 127 37
0.000156 0.031014 0.005704 161 160 171
-0.008099 -0.051707 0.035704 131 135 107
-0.044976 -0.011071 0.024804 0 3 2
0.039608 0.045249 0.011604 167 130 46
-0.049264 0.028442 -0.013596 160 162 170
-0.032291 0.007330 0.018504 130 123 72
0.006057 0.006751 0.025504 183 186 187
0.051594 0.025085 -0.026796 165 131 41
-0.045232 -0.032705 0.030904 92 99 91
-0.041650 -0.004919 0.022804 176 177 171
-0.146429 0.005609 0.130704 9 15 17
-0.051929 -0.000090 -0.020896 5 12 4
-0.020454 0.004354 0.022104 133 126 109
-0.040866 0.000976 0.020304 5 2 0
0.048155 -0.011792 -0.031296 173 137 44
0.046844 -0.028167 -0.033296 172 139 29
-0.032688 -0.040065 0.027804 104 107 91
0.000268 0.004987 -0.111096 1 7 5
0.048524 0.033386 -0.015096 168 131 45
-0.005739 0.015852 0.017704 181 181 183
0.015878 0.013962 0.023504 180 180 174
-0.026327 -0.050610 0.031504 122 129 103
0.013071 0.010227 0.029704 179 179 179
-0.047672 0.000103 0.017804 116 116 110
0.000272 0.004996 -0.111096 6 14 13
-0.028356 0.034672 -0.005196 156 163 171
0.050785 -0.002853 -0.035296 176 137 47
0.023608 -0.036397 0.034704 170 137 50
-0.009222 -0.005096 0.049104 132 139 143
0.050886 0.011370 -0.030596 167 132 47
0.047253 -0.025648 -0.032996 175 141 36
-0.062701 -0.046849 0.022104 105 117 93
-0.019742 0.038315 0.000204 153 157 169
-0.027570 -0.046559 0.032504 112 116 95
-0.059119 -0.032655 -0.015296 155 173 182
0.035115 -0.040205 -0.002196 162 130 38
-0.016921 -0.053302 0.032704 138 142 117
0.031921 -0.004130 0.018604 167 132 47
0.022648 -0.026927 0.037604 169 136 53
-0.022802 0.038503 -0.001596 155 159 171
0.035194 -0.040397 -0.002696 160 126 36
0.035393 -0.001565 0.011704 169 131 52
0.053209 0.024556 -0.034696 166 173 181
0.016241 -0.054989 0.044504 116 110 72
0.012542 0.048799 0.015604 162 158 161
0.042743 -0.018451 -0.016796 165 131 37
0.051686 0.012046 -0.033596 166 134 42
0.032282 0.003569 0.022104 175 136 48
0.051120 0.010567 -0.031896 164 134 50
-0.052954 -0.035086 -0.014196 142 163 169
0.035709 0.045490 0.023204 160 151 142
-0.062054 0.039422 -0.016196 167 177 193
0.037448 0.032062 0.015004 165 129 49
-0.049439 -0.012656 -0.021196 2 9 3
-0.015324 0.023972 -0.002596 176 175 177
0.049438 0.016023 -0.025796 170 131 43
0.000287 0.005006 -0.111096 6 10 5
-0.057892 -0.033032 0.024604 82 90 75
0.048967 0.038473 -0.014496 164 130 50
0.047744 0.006496 -0.024296 167 131 42
-0.045020 0.015074 -0.012996 8 11 10
0.051510 0.001309 -0.036996 172 139 42
0.048054 -0.006533 -0.028096 172 136 45
0.036254 0.015439 0.012804 164 164 166
-0.058890 -0.048399 0.020604 116 127 106
0.051136 0.001209 -0.036096 172 140 46
-0.053971 -0.011389 0.023304 26 34 35
-0.038818 -0.021282 0.031904 23 23 23
0.038077 -0.019991 -0.002896 164 128 37
0.047836 0.037017 -0.011496 169 132 46
0.037089 -0.039523 -0.007696 161 128 31
-0.042607 -0.000491 -0.022996 6 9 8
0.051383 0.009883 -0.034396 166 133 46
0.036870 -0.000637 0.007404 167 130 46
0.019577 0.031173 0.011704 162 158 161
0.049861 -0.013790 -0.037096 173 140 43
0.004701 0.029317 0.005404 164 163 170
-0.055248 -0.042191 0.022804 94 103 83
-0.053626 0.030192 -0.013496 174 183 193
0.029214 0.006688 0.028604 174 175 171
0.004657 0.004733 0.029004 173 173 167
0.017539 0.044379 0.016704 159 153 155
0.036360 0.001236 0.008904 168 131 47
-0.063100 -0.038609 0.021504 85 95 81
-0.049633 -0.015278 0.025504 0 13 36
0.045482 0.002787 -0.015996 165 130 34
-0.035850 0.020365 0.006504 160 161 157
-0.047885 0.028232 -0.011096 158 163 170
0.026576 -0.001092 0.035104 159 119 36
0.046165 0.031039 -0.010496 164 128 39
-0.057659 -0.024095 -0.010996 168 180 182
-0.030970 0.041133 -0.002896 155 164 176
-0.031151 -0.031434 0.035904 105 107 96
-0.046971 -0.017994 0.031104 4 6 0
0.035568 -0.014270 0.005404 164 127 41
0.012614 -0.021530 0.057604 108 105 91
0.045972 -0.007887 -0.023896 168 133 46
-0.045506 0.010938 -0.015596 13 16 15
-0.059004 0.039788 -0.014796 164 177 188
0.047568 -0.013991 -0.031196 172 139 40
-0.022374 0.017293 0.016904 165 165 165
0.002147 -0.041201 0.043604 112 112 92
-0.017398 0.013233 0.019804 162 167 172
-0.055401 -0.004084 0.016604 3 4 0
0.052347 0.012897 -0.035296 160 130 44
0.043118 0.047593 0.007804 165 128 46
-0.050203 -0.029221 0.029904 86 93 85
0.029527 -0.040293 0.012504 159 127 33
0.006671 -0.041164 0.048604 112 110 89
0.003555 0.019209 0.010704 176 173 168
-0.067441 -0.038706 0.018604 74 87 74
-0.041002 0.040972 -0.007496 156 169 180
-0.010263 -0.005547 0.050604 132 139 143
0.040592 -0.013974 -0.011096 164 128 35
-0.047058 0.038011 -0.011596 161 170 182
0.000277 0.004998 -0.111096 0 7 1
-0.067721 0.018394 -0.015596 57 33 19
0.000276 0.004996 -0.111096 2 9 3
0.043149 0.002592 -0.010796 167 128 38
0.046103 0.033326 -0.010796 166 129 45
-0.022324 0.004146 0.023904 45 50 36
-0.045841 -0.002949 0.019604 60 7 1
-0.065360 -0.049216 0.017704 120 136 115
0.043548 -0.019000 -0.020496 165 130 34
-0.036664 0.006775 0.019804 94 29 20
-0.059968 -0.022019 -0.013696 120 108 90
0.034670 -0.004278 0.011704 166 129 45
0.047461 0.041697 -0.009296 166 128 51
-0.045035 -0.012496 0.029004 66 74 73
-0.021951 0.027171 -0.005996 160 167 175
0.049039 -0.017996 -0.037596 174 140 37
0.043818 0.008191 -0.011296 165 129 40
-0.013742 0.025953 -0.003096 160 162 170
0.026793 0.012759 0.030504 182 178 169
0.000276 0.005001 -0.111096 7 13 11
0.043334 -0.003636 -0.011396 162 123 31
-0.002720 0.015712 0.018304 181 180 180
-0.049109 0.033687 -0.011596 145 153 168
0.041371 -0.008786 -0.008596 164 128 37
-0.053738 -0.001300 -0.026096 2 8 6
0.048180 -0.001450 -0.028196 172 138 48
-0.048426 0.018963 0.010904 97 94 89
0.016442 -0.019827 0.058704 101 99 78
-0.021277 -0.015530 0.045904 124 127 128
0.037991 -0.009192 -0.000096 166 127 39
-0.041355 0.030042 -0.012096 166 173 181
-0.010255 -0.036499 0.045204 110 112 96
0.024120 -0.009529 0.040004 159 124 41
-0.063618 -0.019892 -0.013596 13 27 29
-0.020834 0.009839 0.016704 18 18 14
0.042023 -0.021466 -0.016696 165 131 37
0.027748 -0.033637 0.026404 166 133 46
0.012766 -0.033528 0.056304 114 112 91
-0.006105 0.018716 0.010304 176 173 170
-0.050817 -0.000652 -0.020396 0 6 4
0.044322 0.010460 -0.012796 165 129 38
0.041884 -0.032597 -0.021496 166 131 33
-0.053268 -0.044873 0.021804 105 115 92
0.026391 0.009584 0.032304 164 161 156
0.005767 0.033216 0.008104 161 160 167
-0.052499 -0.023913 -0.009296 76 65 42
0.046071 0.041699 -0.004496 166 129 47
-0.033048 0.038742 -0.005396 157 163 174
-0.046368 -0.011459 -0.022996 0 22 31
0.000267 0.005014 -0.111096 9 12 11
0.040236 0.013705 0.002104 169 129 48
0.023374 0.014812 0.021604 179 175 166
-0.048786 -0.002937 -0.022496 5 11 9
0.012715 -0.044065 0.050804 116 112 87
0.051787 0.013414 -0.033096 171 137 45
0.038430 -0.023661 -0.006096 161 127 37
-0.005420 -0.026936 0.051604 108 110 97
0.000286 0.005012 -0.111096 10 11 5
0.000275 0.004973 -0.111096 3 7 2
-0.008850 0.013533 0.023004 167 175 176
-0.016887 0.028540 -0.001796 117 115 131
0.050553 0.013010 -0.029596 167 132 45
0.027747 0.015879 0.021504 178 171 161
-0.035522 -0.011650 0.029704 1 5 0
-0.047927 0.003580 0.021104 2 6 0
0.046268 0.003685 -0.019996 171 135 57
0.041678 0.007126 -0.001796 168 129 41
-0.049867 -0.052534 0.023704 147 157 132
0.034253 0.016014 0.015204 180 183 184
-0.056027 -0.033632 -0.014796 155 174 178
-0.040392 0.026703 -0.007496 169 172 173
-0.029895 -0.040003 0.032504 103 106 90
0.036172 -0.024501 0.000604 164 129 42
0.036455 -0.024019 -0.000296 163 128 41
0.044746 0.007379 -0.014396 168 129 39
-0.027252 -0.040772 0.035304 105 108 90
0.051289 0.035932 -0.023696 164 134 46
-0.059835 -0.021562 -0.013796 108 91 73
-0.026331 0.040630 -0.001996 155 159 171
0.049825 -0.006438 -0.034096 173 138 42
0.013624 -0.052771 0.044704 121 114 81
0.022474 -0.048061 0.034304 178 144 50
0.041702 0.006386 -0.002996 169 130 42
-0.041790 0.005893 0.017804 29 30 24
0.033821 -0.034568 0.002104 162 130 40
0.000281 0.005008 -0.111096 9 13 8
0.041656 -0.008409 -0.010296 164 128 37
0.038989 0.006039 0.002604 170 131 43
-0.052368 -0.049178 0.023504 119 129 106
-0.053850 -0.001048 0.014104 21 10 1
-0.010554 -0.044114 0.035304 114 118 95
-0.036694 0.019146 0.012504 155 155 157
0.015232 0.032530 0.010904 160 159 163
-0.060113 -0.030194 -0.014496 153 172 174
-0.023664 -0.005936 0.035104 108 115 109
0.031539 -0.013395 0.018604 161 124 53
0.028832 -0.028742 0.021104 164 131 48
-0.030947 0.035706 -0.005396 155 164 174
0.014086 -0.023830 0.054404 109 106 92
-0.000015 0.033154 0.005304 159 161 169
0.052910 0.028738 -0.029196 162 131 50
-0.010815 -0.030469 0.045004 113 114 101
0.037239 0.047577 0.022304 151 119 72
-0.055394 -0.033487 0.030704 84 91 83
-0.057512 -0.028644 -0.012996 151 170 174
-0.060579 -0.031924 -0.014996 154 172 181
0.014478 -0.061648 0.044004 140 135 102
0.032997 -0.028453 0.009204 164 130 40
0.037766 -0.025245 -0.007296 163 129 39
-0.032658 0.036956 -0.005896 153 164 175
0.000276 0.004995 -0.111096 4 7 6
-0.044257 -0.024916 0.037404 84 93 86
-0.023123 -0.020241 0.043604 126 132 132
0.036684 -0.025739 -0.002296 162 126 37
-0.001266 0.047563 0.009204 153 154 167
-0.001196 0.005753 0.026904 163 166 165
0.017546 -0.044067 0.048104 168 140 69
0.050292 0.036932 -0.021796 166 133 48
0.024137 0.013219 0.026004 179 177 167
0.041812 0.019737 -0.000796 165 128 44
-0.039426 -0.016899 0.035704 1 4 3
-0.057025 -0.034901 -0.015496 153 172 176
-0.062774 0.034658 -0.016896 139 148 160
-0.047402 -0.033478 0.029904 93 101 90
-0.043634 -0.013019 -0.021696 3 19 27
0.051105 0.036215 -0.022896 166 132 42
-0.012699 0.013503 0.021004 157 167 172
0.037676 0.017405 0.010604 162 128 68
0.014493 0.026920 0.009204 160 159 161
0.000281 0.005016 -0.111096 11 15 10
-0.012178 -0.032944 0.042004 110 112 101
0.038430 0.014081 0.009304 165 127 50
0.000287 0.005013 -0.111096 8 11 10
-0.043599 -0.010734 -0.022696 7 14 8
-0.048952 -0.011543 -0.022196 3 7 2
-0.030488 -0.011756 0.033304 52 46 50
-0.047231 -0.011710 0.022704 0 4 4
-0.023454 0.018739 0.011304 169 169 169
0.002845 -0.047427 0.044504 114 113 85
0.038700 0.003228 0.000304 168 128 43
-0.047542 0.031315 -0.013596 166 175 185
0.006543 0.043077 0.011304 162 161 165
0.003864 -0.053540 0.044004 126 125 99
-0.007587 0.028962 0.002104 143 145 155
-0.061956 0.001375 -0.022596 6 12 10
-0.039459 0.002746 0.024404 4 5 0
0.028366 0.033284 0.015904 163 156 148
0.029752 0.018669 0.012304 180 173 163
0.046791 -0.027218 -0.033096 174 138 31
0.045102 -0.000316 -0.018096 167 128 36
0.048639 -0.018899 -0.035596 174 140 48
0.052162 0.025664 -0.029896 163 130 47
0.042419 -0.015288 -0.014996 164 130 36
0.048604 -0.000785 -0.028096 171 137 45
0.034590 -0.038908 0.000004 159 127 35
0.029526 -0.046051 0.010604 156 124 32
0.050651 0.030627 -0.022896 168 135 50
0.017106 -0.036211 0.051804 148 127 81
-0.028005 -0.039872 0.033104 107 110 92
-0.022280 0.017387 0.016904 165 165 165
0.035973 -0.002238 0.007904 166 129 47
-0.066316 -0.030452 -0.016096 152 162 167
0.040706 0.007936 -0.001596 169 130 40
0.010860 -0.060259 0.044504 146 145 117
-0.056648 -0.011128 0.018804 5 11 11
0.017222 -0.022126 0.059004 131 116 79
-0.045051 0.004741 -0.013396 2 6 1
0.023114 0.046429 0.019004 161 153 150
0.049472 0.010038 -0.029096 168 133 46
-0.048544 0.018857 0.009204 54 51 46
-0.049724 0.011781 0.011004 5 6 0
-0.053884 -0.030880 0.030304 82 89 81
-0.039654 0.024595 -0.001796 167 167 169
-0.017209 0.031679 -0.001796 156 160 172
-0.061928 0.002498 -0.023096 5 11 9
0.043582 -0.030047 -0.024696 168 134 33
0.020552 -0.031979 0.050604 172 138 48
0.035012 -0.000702 0.012604 171 136 53
-0.037818 -0.035020 0.031704 99 107 94
-0.039009 -0.009731 0.029204 5 11 11
0.021033 -0.015202 0.048804 160 125 42
0.023947 -0.025991 0.038904 168 135 52
0.017451 -0.034533 0.052804 158 134 78
0.047742 -0.016532 -0.031596 173 138 42
-0.021465 0.040074 -0.000196 154 158 170
-0.010750 -0.028781 0.045704 109 114 102
0.000280 0.004986 -0.111096 8 9 3
0.043530 0.022372 -0.003596 165 128 42
-0.036715 0.010714 0.031504 16 20 15
-0.037794 0.021066 0.005304 158 158 154
0.051108 0.020664 -0.028496 166 133 48
-0.021643 -0.011698 0.043604 103 127 113
0.043654 -0.027916 -0.022196 170 133 31
-0.059025 -0.021935 0.030904 64 72 69
-0.159150 0.043245 0.135804 8 14 12
-0.011964 0.001025 0.045004 120 138 134
0.026234 0.045600 0.018804 158 154 145
-0.044409 -0.052347 0.022804 145 156 126
0.047044 0.005879 -0.022096 168 132 41
-0.024151 -0.034758 0.037404 108 110 99
-0.061506 0.018171 -0.019596 10 11 7
0.020454 0.021586 0.007804 164 160 161
0.032379 0.037497 0.019304 164 156 144
0.049129 -0.020102 -0.037296 176 141 45
-0.046613 0.028186 -0.011296 163 165 173
0.045346 -0.020330 -0.025696 171 136 38
-0.052807 -0.024034 -0.010696 180 188 189
0.046046 0.033160 -0.010596 166 129 45
-0.042090 -0.001987 0.019604 41 37 38
-0.048609 -0.025051 0.031304 85 93 90
0.041859 -0.021648 -0.015796 165 131 39
0.037830 -0.038287 -0.008996 164 130 40
0.006093 0.023616 0.004104 165 164 171
0.019005 0.002264 0.040004 132 129 115
0.034081 -0.024388 0.007104 166 130 39
-0.031714 -0.030713 0.036504 102 104 91
0.008913 -0.056822 0.044504 133 132 104
0.050180 0.029313 -0.021996 164 129 42
0.049503 0.018902 -0.023896 167 128 36
0.048596 0.014686 -0.022496 169 129 44
0.010209 -0.041928 0.048804 115 110 88
0.034668 -0.001319 0.014004 168 133 50
0.029893 -0.030465 0.018504 164 129 42
0.050695 0.025696 -0.024496 166 130 39
0.020186 0.044879 0.017404 161 156 152
-0.063102 -0.042248 0.021304 94 107 90
-0.043079 0.036206 -0.009596 161 170 180
-0.011225 -0.042503 0.037004 111 114 96
0.037140 0.045318 0.022304 141 113 85
-0.055241 -0.034561 -0.015296 158 177 181
0.024872 -0.025792 0.033304 166 133 48
0.006169 0.050877 0.014904 160 159 166
0.047188 0.015395 -0.017896 166 130 41
0.007279 -0.017168 0.054704 134 135 122
0.049533 0.005924 -0.029696 170 135 50
-0.034472 0.038537 -0.005796 147 160 185
0.033734 0.000550 0.018604 170 135 52
-0.023399 0.025069 -0.003996 175 174 176
0.021354 -0.043683 0.039304 179 146 47
0.008888 0.015627 0.019604 179 176 171
-0.056435 0.031689 -0.016596 173 183 190
0.042031 0.007767 -0.004996 168 129 41
0.000266 0.004994 -0.111096 5 13 12
-0.020601 -0.042211 0.037804 109 114 100
-0.062995 -0.038610 0.022104 87 100 87
0.000272 0.004995 -0.111096 7 13 11
0.007050 -0.012494 0.052104 154 155 146
0.049659 -0.019687 -0.039296 176 141 43
0.034659 -0.011917 0.010704 162 125 43
-0.038622 0.030372 -0.010496 164 171 179
0.050480 0.000761 -0.034996 173 137 48
-0.058749 -0.019802 0.026604 30 34 27
-0.012191 0.023000 0.000804 176 175 175
0.042763 -0.017178 -0.016596 165 129 36
0.047700 0.013550 -0.022096 164 125 35
-0.027209 -0.014253 0.040404 75 73 61
-0.044611 0.001567 -0.022496 7 10 9
0.042038 0.022840 -0.000196 162 126 35
-0.044979 -0.014229 -0.022796 110 145 158
0.046443 -0.005091 -0.022496 168 131 45
0.043658 -0.003904 -0.012496 164 126 31
0.001865 -0.032744 0.049804 113 112 95
0.045618 0.006543 -0.017596 168 129 37
0.051035 0.016266 -0.029496 170 136 46
-0.019839 -0.030239 0.042004 108 110 101
0.048029 0.019163 -0.018396 166 127 39
0.000211 -0.040496 0.044704 113 113 91
-0.019428 -0.017379 0.045904 120 98 45
0.008851 0.022007 0.004704 165 165 169
-0.056061 0.001530 -0.019796 6 14 11
-0.022519 -0.050886 0.033304 122 129 105
0.015776 0.048023 0.016904 158 154 157
-0.058546 -0.041806 0.026604 88 99 80
0.051059 0.010790 -0.033596 168 134 44
0.000276 0.005016 -0.111096 8 14 12
-0.043199 -0.036356 0.028404 94 102 89
-0.051631 -0.013251 0.023904 29 31 39
0.008600 0.011175 0.027704 183 186 189
0.025137 -0.042347 0.028804 174 140 46
-0.021772 0.025819 -0.004996 165 167 175
-0.042794 -0.044034 0.030104 100 109 89
-0.040716 -0.011074 0.030104 133 143 148
-0.054938 0.030911 -0.016896 172 182 189
-0.040055 -0.014796 0.030704 147 159 163
-0.003377 0.028289 0.003304 131 135 147
0.011760 0.014194 0.024004 182 182 178
-0.065286 -0.024368 -0.013996 157 171 177
0.042847 -0.028595 -0.019996 166 133 34
0.049318 0.029641 -0.018796 167 130 46
0.046135 -0.000703 -0.021696 170 132 35
0.006743 0.030195 0.006704 161 160 167
0.000563 -0.006220 0.050004 147 149 140
-0.067271 -0.046282 0.016304 101 118 100
-0.041219 -0.003779 0.020504 157 150 142
-0.032747 0.026259 -0.007796 174 174 174
0.040474 -0.015801 -0.010096 165 130 34
0.016539 0.043077 0.015504 162 158 159
0.048093 -0.006325 -0.029596 173 138 42
0.047745 -0.010832 -0.030796 174 138 45
0.038313 -0.034899 -0.010896 163 131 37
0.043262 0.034356 -0.000196 168 127 49
-0.059626 -0.034878 -0.017696 142 165 170
-0.006866 0.035102 0.003904 153 154 167
0.002502 -0.052812 0.044504 125 124 98
0.039321 0.017289 0.006904 166 129 47
0.029191 -0.045734 0.010704 155 123 31
0.047655 -0.021200 -0.034396 174 140 37
0.002610 -0.006620 0.052304 149 151 142
-0.043727 0.010259 -0.012496 13 16 15
0.045784 0.015432 -0.013696 166 130 39
0.034669 0.013020 0.016404 168 168 170
0.050216 0.021581 -0.023996 167 130 44
0.007429 -0.023503 0.049804 114 108 95
0.033905 -0.023764 0.007404 166 131 46
-0.047131 0.025060 -0.008096 20 24 19
0.036469 0.011961 0.012604 172 168 161
-0.038669 0.039822 -0.006596 46 84 127
-0.054524 -0.047376 0.023204 111 120 100
0.045079 0.017562 -0.011596 165 129 40
-0.013964 0.037130 0.001804 153 155 165
-0.008975 -0.009843 0.046904 134 137 136
0.000268 0.004998 -0.111096 6 14 13
0.042948 -0.022604 -0.020496 164 129 33
-0.005744 0.039438 0.005104 153 154 167
0.003787 -0.010954 0.051104 154 155 146
0.010873 0.047158 0.014604 159 158 162
0.047551 -0.021467 -0.032596 173 139 45
0.051071 -0.004917 -0.037396 176 140 47
0.044520 -0.030252 -0.026196 167 132 36
-0.047677 -0.010704 -0.022496 1 9 6
-0.122335 0.042299 0.103204 7 15 14
-0.000338 -0.057194 0.039304 155 156 129
0.000282 0.005013 -0.111096 10 13 12
0.000264 0.004987 -0.111096 1 5 0
0.039032 -0.023185 -0.008396 161 129 39
0.044620 -0.025659 -0.025396 171 132 31
-0.059941 0.030787 -0.017096 175 187 193
-0.036949 -0.051012 0.027304 134 141 117
-0.010329 -0.002258 0.051604 128 138 141
0.048575 -0.022675 -0.037396 179 140 37
0.048277 -0.009116 -0.030796 174 138 49
-0.051952 0.000417 -0.020396 5 12 6
0.000279 0.005006 -0.111096 8 12 7
-0.031126 -0.051384 0.029504 133 141 112
0.022898 0.052743 0.021104 156 152 153
-0.001930 -0.052184 0.042204 125 125 101
0.048327 -0.004087 -0.029196 173 137 44
0.044894 0.015258 -0.008996 166 130 41
0.004897 0.035989 0.008304 163 155 154
-0.042368 -0.007325 0.027704 132 138 138
0.021191 0.018029 0.014904 179 172 162
0.046688 -0.024604 -0.032096 176 139 35
0.030034 0.018209 0.013104 180 171 162
0.043622 0.019421 -0.005496 165 128 44
0.050867 0.010210 -0.031096 171 154 115
0.033267 0.019294 0.012204 171 164 158
0.048505 0.005272 -0.027096 166 131 44
0.011516 0.050945 0.015604 159 157 164
-0.042674 -0.047596 0.027704 113 120 98
-0.018864 0.030907 -0.001996 153 159 170
-0.057062 -0.017303 0.026204 3 4 0
0.000286 0.004975 -0.111096 37 41 34
-0.012507 -0.054596 0.036704 138 146 117
-0.049466 -0.011299 -0.022096 5 6 2
-0.014023 0.020535 0.007804 175 175 171
0.044689 -0.015403 -0.023896 169 131 34
0.020171 -0.034785 0.045704 173 140 55
0.000306 0.004986 -0.111096 0 6 4
0.049765 -0.015814 -0.038596 176 142 39
-0.025160 0.016449 0.019104 155 155 155
-0.003733 0.026596 0.001504 120 118 129
-0.032512 -0.029114 0.035704 97 98 87
0.045359 0.007184 -0.016696 166 127 37
0.039824 -0.030774 -0.015796 167 133 43
-0.055414 -0.005563 0.018604 2 3 0
0.015257 -0.054035 0.043804 121 117 81
0.044211 -0.020966 -0.021996 167 131 40
0.011657 -0.007891 0.056304 164 167 166
-0.039514 0.011533 0.028804 13 16 15
-0.037556 -0.023177 0.031904 86 93 85
-0.000385 -0.023776 0.050004 137 138 134
-0.015251 -0.052186 0.033904 125 137 111
0.049352 0.030871 -0.019496 166 131 44
0.030259 -0.031956 0.016404 165 130 43
0.049630 0.000131 -0.031096 171 135 42
-0.008724 -0.049076 0.038904 119 122 97
-0.012129 -0.037642 0.038704 107 109 96
0.000307 0.004994 -0.111096 2 8 6
0.052222 0.022765 -0.031096 166 134 44
-0.004012 0.004502 0.036304 121 135 141
-0.029116 0.028117 -0.007996 164 171 179
-0.057024 -0.042041 0.023504 91 99 84
-0.041490 -0.029775 0.033504 89 98 89
0.049288 -0.012344 -0.035796 174 140 48
0.049794 -0.014854 -0.037196 173 140 41
-0.039593 -0.000914 0.019304 131 62 57
0.043371 -0.027310 -0.021696 167 134 37
0.035520 -0.005771 0.011204 163 128 45
0.000650 -0.001432 0.035504 155 159 152
0.000286 0.004975 -0.111096 37 41 34
0.000266 0.004980 -0.111096 1 7 7
-0.034576 -0.028241 0.028404 170 178 177
-0.060040 -0.019939 -0.013696 22 32 35
-0.062128 -0.045270 0.021304 100 111 90
-0.022761 -0.040395 0.037604 106 111 97
-0.034075 0.030096 -0.008596 159 169 176
-0.056439 -0.021369 -0.012096 111 119 118
0.040306 0.006985 -0.000696 169 129 44
0.047091 -0.026682 -0.034396 180 143 41
-0.017911 -0.038490 0.038204 105 111 94
-0.035886 0.025298 -0.003196 171 171 171
0.045698 -0.016774 -0.026796 171 135 46
-0.045446 -0.014486 -0.023396 104 138 156
0.041422 -0.026566 -0.015996 166 133 36
0.034468 0.015015 0.016704 171 174 177
0.032428 0.002879 0.022304 175 138 56
-0.048111 0.041777 -0.009696 164 172 187
-0.043064 0.011117 0.022004 15 18 17
-0.062032 -0.033846 -0.017696 154 171 174
-0.070207 0.027192 -0.011796 64 66 74
-0.044486 0.027230 -0.010296 163 165 171
-0.005343 0.021720 0.003904 175 174 174
0.020030 -0.001055 0.048304 151 152 139
-0.025499 0.041896 -0.001096 154 160 173
-0.011753 -0.036813 0.040904 110 112 96
0.041125 0.043539 0.010204 166 126 41
0.046903 0.011188 -0.020196 166 130 41
0.034219 -0.036166 0.002604 160 126 34
-0.026288 0.020825 0.006704 166 166 166
0.027400 -0.012178 0.031504 164 131 48
-0.001571 -0.003890 0.040604 134 142 139
0.045331 -0.027533 -0.028496 171 133 36
-0.010309 0.037304 0.003604 150 154 166
0.040441 -0.011809 -0.006696 166 127 37
-0.057920 -0.014488 0.024904 0 4 0
0.034911 -0.009910 0.009704 160 125 40
-0.043452 -0.000996 0.021104 3 3 0
0.012584 0.008006 0.027704 183 186 185
-0.053942 0.033107 -0.014596 147 156 166
0.044030 -0.020103 -0.022496 167 131 38
-0.054485 -0.029072 -0.012596 146 164 171
-0.026926 0.011281 0.019304 65 60 58
-0.057927 -0.006424 -0.027096 0 3 4
-0.055830 0.007127 0.017804 17 21 14
0.021018 -0.002341 0.040904 155 154 139
0.031483 0.013135 0.024604 182 182 178
0.050496 0.010803 -0.029396 164 132 42
-0.062725 0.006598 -0.018396 6 12 12
0.046980 -0.017793 -0.031896 172 138 48
0.050948 0.027559 -0.025896 164 130 40
0.036799 0.035057 0.018304 131 108 76
0.049866 0.004434 -0.031096 170 135 48
0.052141 0.017452 -0.032996 168 136 46
-0.036507 -0.043407 0.030704 108 116 101
-0.010842 0.019009 0.011304 177 177 173
-0.065733 0.029339 -0.014596 153 163 170
-0.046792 0.024057 -0.008996 16 22 20
-0.037426 0.023676 0.000904 168 168 168
-0.032855 -0.044138 0.030704 109 113 92
0.001340 -0.054251 0.042004 133 132 106
-0.052026 -0.033162 0.029504 89 97 86
0.044850 -0.010823 -0.020696 166 128 33
-0.041796 -0.041242 0.029204 98 107 89
0.000287 0.004974 -0.111096 36 41 31
0.010317 0.022719 0.004904 165 165 169
-0.033701 -0.026628 0.035704 92 92 72
0.042314 -0.030591 -0.019696 170 132 35
0.052422 0.019867 -0.032396 166 136 52
0.045008 -0.013184 -0.022496 166 130 37
-0.030423 -0.042223 0.032504 108 114 95
0.025237 0.031988 0.013804 161 157 150
0.039936 0.028977 0.009304 166 129 45
0.045996 -0.008434 -0.024096 165 129 40
0.016427 -0.052266 0.045204 125 111 76
0.048602 0.021785 -0.018996 167 127 42
0.016238 0.003989 0.032104 184 184 180
0.047674 0.034218 -0.013496 168 131 47
0.021990 0.001901 0.036104 142 139 123
-0.030524 -0.045255 0.031504 113 120 98
-0.003293 0.028373 0.003304 151 155 167
0.050556 0.024721 -0.024296 165 130 43
-0.007312 -0.021056 0.048604 136 135 139
-0.065615 0.035954 -0.015896 154 162 179
-0.049903 -0.048221 0.024604 116 123 97
-0.040514 0.033730 -0.009096 157 168 177
0.042352 -0.009351 -0.012496 164 128 37
0.052365 0.014311 -0.034696 163 131 41
0.049894 -0.020197 -0.040096 182 145 41
-0.065114 -0.029268 -0.015296 146 162 170
-0.045406 0.042249 -0.008396 162 171 183
0.023836 -0.051010 0.027804 162 130 36
-0.048887 0.028485 -0.011896 160 165 170
-0.005154 -0.002580 0.050804 131 137 135
-0.039134 0.007697 0.017804 118 72 25
-0.060665 -0.026904 0.027504 44 49 39
0.045582 0.042098 -0.003796 166 129 47
0.041415 -0.025215 -0.016496 166 132 38
0.020202 0.045573 0.017504 158 155 152
0.035285 -0.024410 0.002804 162 129 42
0.043136 0.035608 0.001404 169 129 46
-0.052645 -0.012331 0.023704 14 48 68
0.027551 0.010007 0.032304 165 161 150
-0.026446 0.017774 0.017004 164 164 164
0.000297 0.004962 -0.111096 103 112 92
-0.003764 -0.007573 0.043304 132 140 137
0.007246 0.044574 0.012604 162 160 167
0.040286 -0.015878 -0.007496 167 128 36
-0.034632 -0.050222 0.026604 134 141 115
0.049983 0.003786 -0.031096 171 136 51
0.018223 -0.031504 0.055504 169 137 65
-0.003859 -0.004259 0.046904 132 140 139
-0.060285 0.003841 -0.021696 7 11 6
0.028004 0.018022 0.012204 179 170 161
-0.044837 -0.010327 0.026204 1 4 3
-0.044842 -0.046989 0.025304 113 120 98
0.032192 -0.018530 0.014404 163 128 43
-0.014905 -0.050842 0.035704 122 126 103
0.051466 0.003736 -0.035196 170 136 46
0.026493 -0.050322 0.020104 153 125 38
0.042018 0.016315 -0.000896 164 126 47
-0.063426 -0.048760 0.018204 116 130 110
0.048549 0.011442 -0.023996 165 130 43
0.046229 -0.022030 -0.029496 171 135 42
0.009537 0.016794 0.016604 177 172 168
0.001260 -0.039239 0.047604 113 111 92
-0.008443 -0.027361 0.047804 110 111 98
-0.042988 0.023032 0.001004 151 151 151
0.032699 0.000538 0.021804 173 136 50
0.022866 0.023982 0.011404 119 115 118
0.044015 -0.002281 -0.016596 164 125 35
0.000810 -0.019901 0.053404 132 102 45
0.008665 -0.033455 0.050804 114 112 93
0.047719 0.006706 -0.023396 165 130 47
0.035759 0.003545 0.015604 176 136 51
0.028234 -0.040574 0.015304 161 129 39
-0.041206 0.022183 0.003604 153 156 155
-0.052505 -0.010089 -0.021496 2 8 6
0.047190 0.038365 -0.009396 170 130 45
-0.011042 -0.039467 0.038904 112 113 100
0.003322 -0.030814 0.051804 112 111 96
-0.062812 -0.031298 -0.015896 145 162 165
-0.035344 -0.042518 0.029004 121 120 103
0.040713 0.008575 -0.001796 169 130 42
-0.003257 0.007233 0.024204 165 171 173
0.043650 0.030281 -0.003296 165 127 48
-0.043535 -0.014973 -0.021496 37 40 41
0.044691 0.009323 -0.012296 166 130 39
0.025123 -0.041689 0.029304 172 139 42
0.039040 -0.009525 -0.003096 164 127 43
0.039175 -0.003846 -0.002496 163 124 36
-0.017793 -0.001898 0.048804 68 73 80
-0.005909 0.021072 0.006604 175 174 174
0.048719 0.013830 -0.024496 168 132 43
0.051591 0.004635 -0.035996 168 134 42
0.047745 -0.016314 -0.031096 170 138 46
-0.012039 -0.030012 0.044504 110 112 99
-0.053814 0.001348 -0.020296 5 13 12
-0.007668 0.015547 0.019804 173 173 175
0.031194 -0.031659 0.014104 165 131 39
0.021911 -0.002520 0.037804 154 153 136
0.007193 0.001258 0.049804 145 149 142
0.031713 -0.000495 0.025604 172 137 50
0.031228 -0.038701 0.010604 158 126 36
-0.008714 0.043466 0.005904 151 152 165
-0.055024 -0.021308 -0.011496 104 116 118
-0.034301 -0.031750 0.027304 177 184 178
-0.061190 0.034218 -0.017196 138 149 160
0.042953 -0.017114 -0.018896 166 130 37
0.042288 -0.016707 -0.015296 167 131 42
0.050338 0.026996 -0.023896 165 130 47
-0.059074 -0.050369 0.019304 131 142 121
-0.056638 -0.030805 -0.013996 170 192 202
-0.035993 0.024385 -0.000696 169 169 169
0.004279 0.020060 0.008204 177 174 169
0.032828 -0.031375 0.008904 163 131 41
0.019005 0.008907 0.030704 183 186 187
-0.042655 -0.000757 -0.022896 4 8 3
0.000273 0.005019 -0.111096 15 22 16
0.049067 -0.009271 -0.033496 172 138 44
0.000267 0.004993 -0.111096 2 8 6
0.041447 -0.009541 -0.008596 162 126 33
0.038050 0.008254 0.007004 171 134 48
0.050997 0.028926 -0.025496 166 131 48
0.003008 0.024228 0.002704 165 164 171
0.042826 -0.030907 -0.021596 170 132 35
-0.063291 0.008244 -0.014096 7 13 13
0.049459 -0.017208 -0.037696 175 144 45
0.014142 0.050555 0.016604 157 152 160
0.026838 -0.023024 0.028004 165 132 47
0.049544 0.022054 -0.022196 168 129 37
-0.058488 -0.031224 -0.014596 136 149 158
0.008356 -0.009289 0.056804 162 163 157
-0.037095 0.037174 -0.006696 147 159 173
0.000278 0.005013 -0.111096 7 13 11
0.038693 -0.027374 -0.009496 162 130 36
-0.062195 -0.017922 0.027504 20 27 21
0.038833 0.015023 0.008904 166 130 50
0.052005 0.007408 -0.035796 166 134 44
0.022238 -0.015829 0.047304 162 129 44
0.043525 0.032908 -0.001396 167 127 42
-0.029645 0.018090 0.014604 160 160 160
0.037470 -0.015725 0.000304 164 128 35
0.043072 -0.025600 -0.021496 168 130 35
0.054868 0.031272 -0.032796 154 164 171
0.023235 -0.040485 0.033704 175 141 51
0.041993 -0.031655 -0.020396 171 133 38
-0.018055 0.021989 0.004004 174 173 173
0.032329 -0.028691 0.010704 165 130 43
-0.017338 -0.040957 0.038004 109 114 102
-0.039248 0.036989 -0.007296 147 159 173
-0.053480 -0.011690 -0.024496 43 128 214
0.031426 0.032420 0.015804 163 156 148
-0.006138 0.028564 0.003004 129 133 145
0.000275 0.004987 -0.111096 4 5 1
0.041996 0.003053 -0.007796 164 125 37
0.052853 0.025977 -0.032096 167 152 140
0.049747 -0.001455 -0.032596 174 138 45
0.025654 -0.044351 0.024404 166 134 44
-0.067028 -0.036292 0.023504 64 74 60
-0.038917 -0.052088 0.026704 137 144 120
0.045706 -0.019478 -0.026896 172 136 47
-0.016994 -0.048999 0.035104 116 120 97
0.010413 -0.037128 0.052104 114 112 91
-0.020108 -0.044866 0.038204 110 113 95
0.009975 -0.017439 0.054904 132 133 120
0.041441 -0.023861 -0.016596 166 132 38
-0.055217 -0.027243 -0.012196 155 184 196
-0.023905 -0.052454 0.032704 131 141 114
-0.009220 -0.026486 0.045204 109 111 98
0.028540 -0.033512 0.021104 164 131 44
0.047103 -0.026635 -0.034096 175 141 40
-0.054082 -0.015312 0.027104 0 5 5
-0.032751 -0.013021 0.030704 114 103 96
0.000666 -0.004138 0.042904 143 144 138
0.052345 0.023377 -0.030996 166 133 48
-0.014015 0.035637 0.000904 156 158 168
-0.135613 0.041668 0.115904 7 13 11
0.000283 0.005007 -0.111096 4 11 3
-0.026263 -0.032183 0.037604 108 110 97
-0.062180 -0.024688 -0.012696 159 171 175
0.018372 0.038757 0.014004 161 158 155
-0.040681 -0.043616 0.030704 100 109 89
-0.061478 -0.031968 -0.014696 152 171 175
-0.055775 -0.027073 -0.012496 143 174 188
0.032912 0.047491 0.023904 164 153 144
0.047712 0.009611 -0.022196 165 129 40
-0.035033 0.021910 0.005804 164 164 164
0.047917 -0.024351 -0.035596 173 139 38
0.027024 0.009690 0.032304 165 161 150
0.051960 0.014046 -0.033096 168 133 46
0.000283 0.005016 -0.111096 11 14 15
-0.065341 -0.041300 0.021104 85 95 79
0.000286 0.005015 -0.111096 10 14 9
-0.141648 -0.040154 0.096404 2 13 13
-0.052644 0.002030 -0.020696 7 14 8
0.049483 0.009931 -0.026796 166 133 50
0.021235 0.043224 0.016304 161 156 154
0.038337 0.051232 0.017704 168 132 54
0.019440 0.030117 0.011404 161 157 160
-0.023975 0.004241 0.024804 109 124 99
0.036960 0.004406 0.011204 173 136 52
0.007699 0.018684 0.014104 177 172 168
-0.065825 -0.032860 -0.016896 167 173 175
-0.044270 -0.010756 -0.023296 3 11 8
-0.047184 0.027876 -0.010396 159 161 167
0.000277 0.005003 -0.111096 4 12 9
-0.057981 -0.026186 0.028404 72 80 69
0.046375 -0.016891 -0.028696 168 134 44
0.044294 -0.011370 -0.019496 164 125 35
-0.065547 -0.033097 -0.016996 159 171 173
-0.036979 0.026418 -0.008496 169 172 171
-0.025635 0.016883 0.018604 155 155 155
-0.005226 -0.041785 0.042904 113 113 93
0.044261 0.017753 -0.008896 166 129 43
-0.031256 0.026153 -0.007196 175 175 175
-0.063040 -0.027494 -0.014696 119 136 139
0.000263 0.004979 -0.111096 0 6 6
-0.009200 0.008639 0.021004 167 172 177
-0.039821 -0.017206 0.032104 7 14 18
0.016001 0.048974 0.017204 161 157 160
0.004192 -0.012239 0.053104 154 155 146
-0.031657 -0.023240 0.033304 87 89 78
-0.034075 0.033325 -0.006996 160 163 180
-0.053925 -0.028448 -0.012296 158 168 173
0.048667 -0.021696 -0.037996 178 142 49
0.000272 0.005017 -0.111096 9 12 11
0.000267 0.004999 -0.111096 8 15 9
0.044571 -0.001933 -0.016596 164 125 35
0.000282 0.005014 -0.111096 9 16 10
-0.031812 -0.005816 0.030704 75 94 94
-0.013336 0.037383 0.002104 155 157 167
-0.029600 0.027075 -0.007896 165 170 179
-0.019760 -0.003861 0.044004 127 133 135
-0.020019 0.044504 0.002204 153 157 171
-0.047526 0.003000 0.020804 8 9 3
-0.052498 0.027434 -0.011696 154 159 168
-0.010454 -0.037997 0.038404 110 113 92
0.043995 0.005541 -0.011896 166 129 43
0.017557 -0.036288 0.049304 168 138 61
-0.060390 -0.026509 -0.012896 154 170 178
0.032864 0.046038 0.023704 164 155 146
-0.012206 0.040222 0.003204 151 156 165
-0.004575 -0.042629 0.043804 110 113 90
0.000266 0.005013 -0.111096 8 14 12
0.024689 -0.046378 0.028004 170 138 46
-0.052642 -0.013391 0.024204 18 35 47
-0.046792 0.023832 -0.008996 18 22 17
-0.051134 -0.024141 0.032504 76 85 76
0.046613 0.028151 -0.012696 164 127 41
0.044088 0.022240 -0.006796 165 129 40
-0.009755 0.047916 0.007004 149 153 165
0.049816 0.017819 -0.024696 166 131 44
0.000278 0.004991 -0.111096 2 9 3
-0.064831 0.007271 -0.018796 7 14 8
-0.029366 -0.027236 0.040604 103 108 98
-0.033738 -0.023712 0.030904 104 101 87
-0.000251 -0.039980 0.045704 112 111 94
0.010862 0.018124 0.012304 178 176 168
0.011336 0.044103 0.014604 161 160 164
0.048256 0.028084 -0.014496 166 126 43
0.000287 0.005001 -0.111096 11 15 10
0.052858 0.015985 -0.034796 163 129 35
-0.009917 0.042198 0.004904 151 152 165
0.040574 0.035110 0.008304 168 128 45
-0.056642 -0.043159 0.023304 93 103 87
-0.066700 -0.049677 0.017004 122 137 119
-0.010714 0.033613 0.001704 153 159 172
0.046860 -0.018849 -0.030896 168 133 35
0.025529 0.019294 0.009904 172 164 161
0.044991 0.026077 -0.007196 161 125 36
0.025560 0.015904 0.021804 178 172 159
-0.037470 -0.010878 0.026604 2 5 4
-0.050718 0.016655 0.014104 4 6 0
-0.049074 -0.048762 0.023704 123 130 104
-0.004995 -0.020864 0.049604 135 131 132
0.047865 0.037692 -0.011896 168 131 49
0.033502 -0.034072 0.006904 161 127 37
0.046535 0.011594 -0.019196 166 130 41
-0.010581 0.021069 0.004704 178 175 172
0.003086 -0.056476 0.038904 149 150 123
-0.054491 -0.006886 -0.023696 0 6 6
0.046106 -0.006735 -0.022896 168 133 37
0.042515 -0.001643 -0.009296 162 126 35
0.003049 -0.033099 0.049804 113 110 94
-0.029750 0.000056 0.021604 6 10 5
-0.041211 -0.031221 0.032904 91 100 91
0.028220 -0.041544 0.014404 159 127 33
-0.056693 -0.033332 0.024604 82 90 77
0.035956 -0.021558 0.002804 164 130 40
