ply
format ascii 1.0
element vertex 1214
property float x
property float y
property float z
property uchar blue
property uchar green
property uchar red
end_header
0.010564 -0.014704 0.080172 131 140 139
0.086500 -0.028881 -0.016828 175 181 180
0.030070 0.024766 0.067072 121 129 131
0.043600 0.005275 0.044772 143 151 153
0.032814 0.090203 0.077372 99 104 107
-0.012029 0.043643 0.077872 7 18 31
0.064025 -0.007928 0.011772 162 171 170
-0.034221 0.013182 -0.014428 42 51 42
0.062917 0.024660 -0.048628 49 61 63
0.044292 0.037980 -0.044028 80 38 3
-0.055557 -0.038476 -0.057728 137 85 21
0.047115 0.022337 -0.047528 91 47 3
0.080291 -0.025657 -0.006428 174 180 179
-0.054260 0.014159 -0.016828 82 103 112
-0.065441 0.043725 -0.038728 74 62 45
-0.055336 -0.035649 -0.038328 255 255 247
-0.021624 -0.088641 0.057672 122 138 136
-0.044625 -0.027765 -0.015528 107 103 84
0.047029 0.049856 -0.041028 168 165 162
0.022935 -0.071006 0.057272 137 146 144
-0.025534 -0.011212 -0.026728 179 117 0
0.038866 0.077596 0.059572 101 104 107
0.035457 0.021791 -0.017628 61 28 0
0.087537 -0.000416 -0.011628 174 180 179
-0.117736 0.060606 -0.001728 91 97 96
0.092756 -0.019649 -0.019828 177 183 183
0.085501 0.011906 -0.003528 162 171 169
-0.063540 0.039942 -0.039028 107 90 62
0.062987 0.023156 -0.040228 44 55 73
0.031546 0.044099 -0.014028 3 7 6
-0.041728 -0.020498 -0.026428 62 61 58
-0.045809 -0.042589 -0.048928 121 61 6
-0.070773 -0.032432 0.003272 216 199 152
-0.027684 0.040057 -0.008128 50 31 10
-0.064206 -0.039264 -0.037828 66 66 47
-0.070440 0.015751 -0.050128 30 47 48
0.033912 -0.072475 0.042272 140 151 150
-0.019454 -0.016104 -0.024028 40 29 16
-0.071622 0.035782 -0.056028 73 52 27
-0.066425 0.010275 -0.059128 82 75 65
-0.070338 0.043056 -0.054328 73 58 43
-0.048284 0.042669 -0.013528 204 179 134
-0.068276 -0.023684 -0.065328 133 78 15
0.018441 -0.037685 0.066572 139 148 147
0.087237 -0.000023 -0.010228 171 180 179
0.008010 -0.080985 0.068672 127 138 137
0.064744 0.039280 -0.057628 6 70 86
-0.027865 -0.050627 0.062572 150 151 148
-0.023549 0.000128 0.070772 129 138 137
0.087780 -0.033338 -0.018428 171 180 178
0.056422 0.000006 0.031372 156 161 164
-0.086131 -0.026148 -0.028728 47 81 72
0.086665 0.016854 -0.024328 36 73 41
-0.075716 -0.019326 -0.062328 87 66 41
-0.034711 -0.040001 -0.029128 59 64 44
-0.052756 0.058205 -0.021828 96 64 34
0.047940 0.016883 0.037072 139 147 149
-0.074054 -0.031214 -0.048328 220 197 159
-0.057544 0.034625 -0.047628 168 164 165
0.040687 0.021976 0.047772 129 138 142
0.026717 0.028180 -0.013828 11 12 9
0.081884 -0.050877 -0.009028 166 175 173
-0.059602 0.055339 -0.022828 71 56 36
-0.072749 -0.017767 -0.064128 102 80 58
0.030131 0.022636 -0.016828 72 39 4
-0.026176 -0.003735 -0.022028 50 48 42
-0.020372 -0.002715 0.077372 130 139 138
0.057186 0.023947 -0.048828 40 44 43
0.057295 -0.038836 0.014472 159 170 169
0.039743 0.043399 -0.023028 0 7 3
0.058556 -0.044215 0.020172 160 169 168
-0.050520 -0.012473 -0.032828 71 77 76
-0.053306 0.026520 -0.031328 130 82 32
0.055435 0.029742 -0.062828 11 18 61
-0.025405 -0.050580 -0.030028 166 158 49
-0.069790 -0.000412 -0.052928 254 255 250
-0.027658 -0.049413 -0.032328 112 52 4
0.072926 0.023747 -0.043728 172 180 182
-0.041400 -0.041729 -0.046228 36 13 2
0.024321 -0.055002 0.050372 141 152 151
0.052034 0.030927 -0.049628 7 15 8
-0.041039 0.014689 -0.009028 76 68 47
-0.074174 -0.009491 -0.061728 79 62 41
0.088840 -0.031733 -0.019628 173 182 181
0.039719 -0.037813 0.043872 155 161 160
-0.001818 -0.034744 0.084872 144 152 154
-0.057612 0.033196 -0.046728 164 162 163
0.028411 -0.028776 0.053472 148 154 154
0.061844 0.042957 -0.057228 7 18 17
0.079329 -0.010125 -0.001228 168 177 176
0.093329 -0.018346 -0.023028 172 181 180
-0.064930 0.017026 -0.042328 40 41 33
0.064828 -0.064010 0.000872 153 165 167
0.073596 -0.017012 0.005172 167 175 177
0.087547 0.017915 -0.026428 32 65 31
0.042231 -0.059967 0.039372 148 159 158
0.076514 -0.023492 -0.003028 169 178 176
-0.025575 -0.061806 0.063072 141 152 151
-0.068965 0.043165 -0.054728 97 53 4
0.034161 0.051057 -0.015928 6 12 5
0.048127 -0.015019 0.034372 155 163 165
-0.062394 -0.007153 -0.044028 97 94 72
0.044039 0.049574 -0.029428 0 3 2
0.026946 -0.009775 0.059172 137 143 143
-0.061934 0.029353 -0.051128 128 123 93
0.042466 -0.042924 0.037772 154 163 162
-0.074559 -0.033096 0.003472 208 191 144
-0.069455 -0.041202 -0.034828 61 59 35
0.092874 -0.000209 -0.013828 174 181 177
-0.018877 -0.067195 0.073472 134 146 148
0.034604 0.052463 -0.016328 5 11 10
-0.026549 -0.040717 -0.027328 42 42 31
0.030094 0.094199 0.079572 95 100 103
0.086991 -0.027222 -0.014028 174 180 179
-0.117777 0.038325 -0.003528 99 104 107
0.061633 -0.040688 0.010572 162 171 169
-0.067058 0.000993 -0.061128 132 80 21
-0.034143 -0.082763 0.054872 154 156 104
-0.035784 0.012877 -0.013828 71 73 55
-0.027573 -0.031567 -0.036428 15 22 18
-0.067896 -0.026260 -0.067228 140 78 14
-0.031903 -0.006079 -0.033828 128 71 6
0.000512 0.005989 0.092872 130 138 140
-0.061366 0.024317 -0.028728 114 96 64
0.050779 0.038141 -0.039928 2 3 0
0.040250 0.055750 -0.021028 2 8 1
-0.000868 -0.019265 0.087872 140 150 152
0.095672 0.015339 -0.018828 108 128 114
0.037657 -0.008949 0.049872 143 152 151
0.070136 0.018899 -0.030028 79 116 86
-0.081045 -0.028847 -0.006728 165 155 121
-0.002696 0.031623 0.095472 130 139 143
0.018379 0.065944 0.083072 97 100 103
0.031920 -0.068655 0.043072 140 149 147
0.006346 -0.071736 0.073972 132 141 140
-0.036034 0.056062 -0.005528 190 152 100
-0.057435 -0.003865 -0.038628 157 129 92
-0.075228 -0.020533 -0.029328 150 136 105
0.036455 -0.077507 0.038972 140 151 149
0.090843 -0.032936 -0.022228 173 182 181
-0.066929 -0.040031 0.004872 188 173 131
0.034161 0.044277 -0.015928 0 7 3
-0.056322 0.039881 -0.001728 97 74 63
-0.055565 0.055174 -0.028228 255 255 241
-0.092705 0.030326 -0.033028 116 111 101
-0.050464 -0.006990 -0.034328 255 255 241
-0.064351 -0.042500 0.000572 148 133 100
0.033873 -0.020782 0.049872 147 155 157
-0.065141 -0.036194 -0.063528 192 203 195
-0.064221 0.053657 -0.032728 76 69 51
-0.071795 -0.012207 -0.064228 103 81 47
0.091071 -0.007159 -0.014228 175 181 181
-0.023706 0.013059 -0.019428 77 49 25
-0.026529 -0.052800 0.062572 144 153 152
-0.032763 0.039247 -0.004228 101 76 45
0.053426 0.031677 -0.055828 7 44 61
-0.022638 0.069515 0.081372 94 101 105
-0.054949 -0.041190 0.002372 193 175 122
0.080121 -0.050653 -0.009328 162 171 170
-0.065267 0.019264 -0.039828 52 45 27
0.069478 -0.030997 0.005172 166 175 174
0.079449 -0.010004 -0.001228 167 176 175
0.071018 -0.026547 -0.000228 166 175 174
0.046532 -0.013527 0.038572 156 161 164
-0.087242 0.016092 -0.041628 103 85 59
-0.080692 0.001033 -0.052228 91 71 52
-0.068391 0.033197 -0.055828 158 163 150
-0.083894 -0.025891 -0.030628 53 77 70
0.077646 0.014324 0.007672 161 167 166
0.038351 0.036892 -0.034728 67 37 0
-0.051488 0.023966 -0.032828 254 255 250
-0.027157 -0.037944 -0.029628 101 45 3
0.074466 -0.048122 -0.005028 165 174 172
-0.066954 0.041327 -0.039028 83 64 61
-0.068545 0.015104 -0.055028 111 64 11
-0.070295 -0.000306 -0.062228 121 64 0
-0.053392 0.002576 -0.009728 168 166 142
-0.025241 0.036680 -0.008328 25 18 8
-0.058040 0.026703 -0.034528 254 255 249
0.025267 0.058833 0.072372 103 108 111
0.025727 0.057504 0.071872 105 110 113
0.030494 -0.072186 0.045572 138 147 146
0.049515 0.024480 -0.049228 10 15 11
-0.036570 0.034681 0.000072 153 114 69
-0.030656 0.041788 -0.005528 118 91 44
-0.071869 -0.016267 -0.064228 113 66 13
0.095837 0.001817 -0.018428 172 181 179
-0.066901 0.013119 -0.058328 117 64 8
-0.046890 -0.013184 -0.027128 64 72 74
-0.088316 0.050691 -0.032028 96 90 69
-0.023561 -0.004216 0.075072 130 138 140
-0.051198 0.054332 -0.023028 255 255 239
0.021845 -0.019826 0.063572 142 146 146
0.022159 -0.064068 0.053472 139 148 146
0.063415 0.034762 -0.068128 9 54 66
-0.046090 0.005986 -0.005528 126 114 90
-0.062928 -0.034226 -0.048028 76 75 67
0.035925 0.036812 -0.031328 65 35 3
0.072965 -0.036921 -0.001228 166 175 174
0.080277 -0.017861 -0.003328 171 177 177
-0.051708 -0.042464 -0.028928 82 79 62
0.066324 0.040796 -0.061328 1 65 81
0.065634 -0.013596 0.010272 165 173 175
-0.024377 -0.073315 0.059172 132 148 146
-0.067335 0.007315 -0.060428 120 63 0
-0.069704 -0.038096 -0.045228 64 58 30
0.056952 0.010182 0.028472 152 161 160
-0.061070 0.023322 -0.036928 46 46 46
0.036197 0.036622 -0.031728 67 37 5
-0.066158 0.037559 -0.052228 162 158 159
-0.030856 0.034382 -0.005728 158 131 91
-0.023252 0.048663 -0.019628 23 18 8
0.082664 0.020121 -0.027728 15 42 12
0.071776 0.017606 -0.018628 66 108 75
0.083401 0.022423 -0.039528 144 147 139
0.016222 -0.048956 0.062572 140 145 148
-0.020119 -0.015097 -0.024528 47 30 15
0.032709 0.025029 -0.026428 66 32 0
-0.066495 0.022139 -0.041728 46 44 32
-0.051093 -0.036493 -0.051328 101 47 9
0.069337 0.022331 -0.039528 162 167 170
0.073710 0.022400 -0.048928 120 132 140
0.049175 -0.070343 0.021572 145 156 155
0.081884 -0.048932 -0.009028 167 175 177
0.036661 0.030471 -0.034328 71 38 3
0.005486 -0.091000 0.065572 119 132 130
0.025615 0.057438 0.072372 106 111 114
0.026290 0.028434 -0.009728 8 13 9
-0.022004 0.087817 0.066572 65 73 75
-0.019332 0.042506 0.075072 9 18 29
-0.011539 -0.065369 0.068672 134 145 144
0.036108 0.065701 0.064572 105 110 113
-0.021309 -0.034586 -0.031828 22 24 18
-0.077285 0.004606 0.003772 188 171 129
-0.082437 -0.036584 -0.006028 212 195 146
0.094352 -0.014020 -0.021228 173 179 178
-0.062147 0.051626 -0.027128 88 75 69
-0.021871 0.012776 -0.016128 148 146 140
-0.075999 -0.000376 -0.058728 88 66 44
-0.061205 0.020633 -0.036628 40 46 45
0.093596 -0.021351 -0.022028 174 183 182
-0.029645 -0.011650 0.062072 128 133 136
-0.019989 -0.022902 -0.025628 36 27 16
0.081678 -0.004613 -0.006228 171 179 181
-0.049501 -0.004737 0.000872 199 184 135
-0.043978 -0.044343 -0.046828 125 62 3
0.006479 -0.090958 0.065072 121 134 133
-0.014146 0.047304 0.077372 12 20 34
-0.029892 -0.081392 0.053072 132 145 144
-0.008574 -0.072109 0.074572 130 140 142
0.067881 -0.051393 0.003472 159 170 169
0.068007 0.016244 0.017272 154 161 165
-0.092773 -0.003378 -0.038928 87 66 41
-0.104013 0.056833 -0.012028 74 63 50
0.063833 0.018490 0.012972 63 70 81
0.032988 -0.072016 0.043072 138 149 148
0.050171 0.045691 -0.048728 173 167 160
-0.068691 0.002881 -0.002528 184 183 161
-0.024921 0.030491 -0.014628 34 24 8
0.056805 0.029539 -0.067128 15 22 18
-0.065017 0.052929 -0.036328 56 54 40
-0.050195 0.058791 -0.016628 110 74 40
0.074062 0.012466 0.005372 164 173 172
0.091795 -0.052732 -0.027328 162 176 179
-0.061226 -0.002966 -0.043128 128 105 80
0.015377 -0.004040 0.075072 121 130 129
0.041199 0.007299 0.049472 140 148 150
-0.015796 -0.001798 0.081972 133 142 141
-0.070449 0.009998 -0.004028 243 209 170
0.075182 0.018153 -0.026028 73 118 82
0.052716 -0.066712 0.017972 151 162 161
-0.043293 0.001814 -0.010928 188 173 131
0.067493 0.018349 -0.024928 71 110 80
-0.024441 0.000580 -0.022428 67 50 27
0.043446 0.027200 -0.044828 61 29 0
-0.022092 -0.044216 0.067672 143 153 155
0.092581 0.006988 -0.016328 170 175 171
0.090243 0.007139 -0.008628 170 176 175
-0.067060 -0.007222 -0.063428 127 69 0
0.060292 -0.006617 0.022872 160 168 170
-0.076783 0.003002 0.003472 171 166 141
-0.043505 -0.035703 -0.018428 176 156 103
0.055760 0.036435 -0.034228 2 3 0
-0.063708 0.022659 -0.039828 58 52 38
0.073057 -0.030451 0.001572 167 173 173
-0.068895 -0.027540 -0.005228 168 150 118
-0.061070 0.038251 -0.036928 159 139 112
0.026828 0.031745 -0.020628 63 29 9
-0.020256 -0.077734 0.063572 129 142 141
-0.042661 0.042430 -0.016328 50 40 50
0.030689 0.026185 -0.024728 64 32 2
0.041804 -0.037202 0.037472 156 162 162
0.058619 0.035310 -0.051328 1 66 86
0.057353 -0.052994 0.013872 158 169 168
-0.061519 0.047808 -0.000228 50 40 50
0.052308 0.020202 -0.026928 52 29 4
0.089435 -0.040135 -0.020028 173 180 176
0.028103 -0.075224 0.043072 134 145 144
-0.083197 0.004986 0.002672 216 193 150
-0.033413 -0.025974 -0.038028 129 70 0
0.002124 -0.056862 0.073472 137 146 145
-0.057961 0.049898 -0.020828 80 60 46
-0.065154 -0.036374 -0.063628 192 202 197
-0.059857 0.046809 -0.028028 60 45 37
-0.047288 -0.037349 -0.047928 89 46 22
-0.056140 -0.037230 -0.056528 184 190 190
-0.023905 0.036686 -0.010628 81 46 10
0.089400 0.013157 -0.010028 166 172 171
-0.066572 0.025521 -0.042628 83 67 41
0.065610 0.023816 -0.037428 138 148 155
-0.076892 0.008824 -0.054828 85 63 43
-0.028744 -0.044878 -0.031728 124 69 13
0.084743 -0.010027 -0.009028 174 180 179
0.003092 -0.034121 0.076772 140 146 146
0.059901 0.043915 -0.055828 7 14 10
0.091655 0.002342 -0.013828 175 181 180
0.070775 0.012269 0.010572 159 164 167
-0.049569 -0.032152 -0.006028 178 166 144
-0.001796 0.028282 0.087872 131 140 144
-0.023879 0.008494 0.076772 130 138 140
-0.043211 0.067046 0.006272 110 49 0
-0.069082 0.020375 -0.057828 114 58 0
-0.021302 0.007424 -0.016328 74 56 44
0.094497 0.011200 -0.014228 168 174 174
-0.026200 -0.009918 -0.032328 188 129 3
-0.066067 0.030668 -0.053128 169 165 165
-0.055433 -0.036892 -0.049828 68 49 28
-0.021180 0.090626 0.069172 78 81 89
-0.086562 0.014936 -0.042628 100 83 55
0.013070 -0.002537 0.077372 121 129 131
-0.062446 0.013608 -0.021228 216 192 151
-0.114207 0.034517 -0.006928 98 102 101
0.067035 -0.000901 0.014472 160 169 168
-0.069829 0.014601 -0.049728 29 54 51
0.061666 -0.039371 0.009972 164 173 172
-0.072283 -0.006654 -0.062628 95 82 67
-0.004573 0.012451 0.086072 130 138 140
-0.090087 0.000370 -0.008628 201 188 153
-0.068123 0.020152 -0.057728 111 55 0
-0.026965 -0.045842 0.063572 144 153 151
-0.047163 0.020328 -0.023628 103 97 85
0.042179 0.035746 -0.041128 84 44 4
-0.023384 -0.019369 -0.034228 170 147 122
0.007628 0.065679 0.095472 93 99 106
-0.021884 0.058232 -0.009528 90 43 0
-0.070012 -0.023640 -0.066428 132 72 3
0.026999 0.027488 -0.012428 11 13 7
0.044429 0.023969 -0.045228 77 40 4
0.089770 -0.053585 -0.022428 164 174 176
0.017597 0.025677 0.076272 114 121 125
0.051236 -0.004175 0.031372 153 161 163
0.000125 0.025264 0.092272 132 139 143
0.044812 -0.020819 0.033972 155 163 165
0.081077 -0.058007 -0.012728 162 171 169
-0.066182 0.051455 -0.037028 55 50 33
-0.047450 -0.040613 -0.050628 76 40 6
-0.038340 -0.009225 -0.024528 165 102 0
0.095950 0.014116 -0.017628 164 173 171
0.011916 -0.081857 0.065572 126 137 136
0.025547 -0.001777 0.061072 129 138 137
-0.059852 -0.007783 0.009972 255 255 234
-0.026704 0.005488 0.072972 124 134 136
0.061247 -0.039271 0.010572 166 172 172
0.063019 -0.049899 0.011172 160 169 168
0.083468 -0.049498 -0.016628 166 175 173
-0.064285 -0.034663 -0.050628 62 57 34
0.049918 0.043358 -0.044128 151 150 142
-0.041535 -0.015105 -0.027128 57 62 58
0.076092 -0.021159 -0.005528 170 176 176
0.000508 -0.057148 0.081372 137 146 145
0.056741 0.036582 -0.046028 0 54 76
0.017761 0.071907 0.080172 96 99 107
0.028375 -0.002473 0.057672 134 140 140
-0.045887 -0.036045 -0.015328 188 173 119
0.082541 0.019032 -0.025328 39 78 41
-0.044926 0.034767 0.000572 142 66 0
0.023295 0.015067 0.063072 114 121 125
-0.009521 -0.020516 0.077372 134 144 146
-0.040170 0.053340 -0.014928 255 255 244
0.077357 -0.025621 -0.006028 171 177 177
0.049691 0.025803 -0.055128 22 25 17
-0.030896 0.015275 0.072972 128 126 127
0.089260 -0.031894 -0.020628 175 181 180
0.018082 -0.020783 0.064572 138 144 144
0.031511 0.023408 -0.024728 63 31 0
-0.026837 0.070252 0.070772 97 102 105
0.096864 0.009536 -0.019428 166 175 173
0.060310 0.043433 -0.055128 6 13 9
-0.046481 -0.013701 -0.028428 64 72 74
0.047746 0.021265 -0.014228 83 49 17
0.086028 -0.045232 -0.021228 166 175 174
-0.026493 0.009375 0.076272 128 137 136
-0.033908 0.033801 -0.005028 165 133 87
-0.028574 0.066313 0.015772 23 19 7
0.086168 -0.035811 -0.018428 168 177 175
0.068915 -0.063290 -0.002228 155 165 160
0.040552 0.031193 -0.039828 89 48 3
0.069473 -0.035170 0.004872 165 174 173
-0.067269 0.008184 -0.031828 254 227 182
0.050906 -0.030284 0.027672 160 166 166
0.039640 -0.033247 0.037772 153 162 161
-0.031954 0.059373 -0.000728 137 108 63
-0.041767 -0.044860 -0.045628 127 62 3
-0.007804 0.070945 0.070772 108 120 128
0.088346 -0.030077 -0.016828 173 182 181
-0.078389 0.006958 0.003472 195 177 133
-0.054703 -0.006540 -0.037828 189 143 60
-0.057651 -0.005898 -0.039628 254 255 252
-0.023436 0.052577 -0.011628 44 31 11
-0.063187 0.052549 -0.030028 84 77 72
-0.050704 0.032151 0.006572 226 187 137
-0.056463 -0.038822 -0.041328 61 63 45
-0.040672 0.023416 -0.019428 255 255 247
0.088603 0.011134 -0.005528 168 174 173
-0.056196 -0.041690 -0.005728 153 131 99
-0.010445 -0.069644 0.072372 133 144 143
0.035527 0.022349 0.006772 130 136 136
0.069036 -0.029836 0.007972 167 173 173
0.065179 -0.025756 0.012072 164 172 174
0.055215 0.002162 0.031672 153 162 161
-0.067216 -0.026213 -0.009328 159 148 128
0.054885 -0.008296 0.030572 155 163 165
-0.068672 -0.002089 -0.057728 86 59 28
0.039745 0.055973 -0.018828 3 9 8
-0.073268 -0.033197 -0.000728 211 194 147
-0.085508 0.022781 -0.042328 100 87 60
-0.031588 0.043301 -0.003528 110 87 44
0.069745 -0.023036 0.010572 166 174 176
-0.049595 -0.039742 -0.051328 127 68 2
0.056509 0.026809 -0.062528 12 18 11
0.055406 0.036680 -0.035628 2 3 0
-0.072511 -0.016727 -0.063828 112 73 37
0.092268 0.015351 -0.018628 68 102 73
0.040892 0.021620 -0.018228 58 30 6
-0.082242 0.037625 -0.044028 108 107 99
0.085857 0.019468 -0.028228 46 78 49
0.072359 -0.046265 -0.003528 166 175 174
0.045698 0.035406 -0.045128 72 37 1
-0.060872 0.026212 -0.048028 168 165 169
-0.054702 -0.011866 -0.036428 92 90 78
0.060701 -0.008253 0.020872 163 169 169
0.019766 -0.024155 0.064572 141 147 147
-0.066863 0.040391 -0.054028 129 104 86
-0.087801 -0.038082 -0.011328 194 175 120
-0.053199 -0.005407 -0.035928 132 106 84
-0.003473 -0.088709 0.077872 118 134 132
0.043747 0.046965 -0.032728 0 5 4
-0.072359 0.041033 0.005672 153 131 97
0.041828 0.005567 0.049472 140 149 148
0.068032 -0.047550 0.002672 160 171 170
0.025069 0.019794 0.066572 115 123 125
0.050187 0.020846 -0.034728 64 30 0
-0.019045 -0.023460 -0.024928 116 68 24
-0.118619 0.055056 0.000572 97 98 95
-0.004033 0.058479 0.094872 98 107 111
0.010070 0.001422 0.084272 119 128 127
-0.001961 0.017272 0.090972 131 141 143
0.034752 0.044124 0.060572 118 124 124
0.038879 0.032421 -0.037428 71 35 0
-0.021834 -0.057582 0.066572 142 153 152
0.040108 -0.068737 0.030572 141 154 153
-0.070754 -0.041599 -0.034528 66 61 38
-0.021473 -0.029545 -0.031328 145 90 20
-0.066806 0.026132 -0.055528 164 170 170
-0.006906 -0.020778 0.081372 135 145 147
-0.080227 0.004906 -0.015328 222 195 155
-0.008944 -0.002584 0.083672 131 140 139
-0.064403 0.002698 -0.005028 218 198 171
-0.084147 -0.016471 -0.028028 121 111 77
-0.000190 -0.093545 0.070772 113 128 129
-0.052162 0.034948 0.003772 225 179 130
-0.034714 -0.023991 -0.033728 108 64 10
0.096437 0.003770 -0.019428 169 177 179
0.088971 -0.023528 -0.014228 176 182 181
-0.031137 0.010594 0.075072 125 129 128
0.067621 -0.059861 -0.002728 158 167 166
0.079034 -0.036301 -0.007928 171 177 176
0.007379 -0.026749 0.081372 138 146 148
0.013387 0.019787 0.081972 117 124 128
-0.021022 -0.037610 0.067072 137 148 147
0.065719 0.025735 -0.050328 51 60 64
0.055647 0.044500 -0.052228 176 169 164
0.035224 0.024856 0.050372 123 133 135
0.076021 0.021167 -0.032728 29 51 37
0.038328 -0.075755 0.035072 138 149 147
-0.048203 -0.039565 -0.038028 90 89 67
-0.003099 -0.087681 0.086072 124 137 136
0.001045 -0.012810 0.090972 129 138 137
-0.060988 0.016968 -0.025528 83 70 37
0.045335 0.024226 -0.046428 72 37 1
0.071181 0.019758 -0.033228 62 97 85
-0.067653 0.050892 -0.037828 45 49 26
0.064942 -0.042794 0.005372 161 170 168
-0.007761 -0.089123 0.078472 122 135 134
0.074295 -0.028529 0.000572 170 176 176
-0.048178 0.053720 -0.016828 157 112 66
-0.042489 -0.016083 -0.027328 69 76 72
-0.043798 0.013610 -0.007628 85 83 57
-0.056679 -0.007021 0.006772 222 190 144
-0.061265 0.025572 -0.047228 172 168 169
-0.012755 -0.055218 0.083072 140 151 150
-0.104111 0.050010 -0.012728 89 76 56
0.005593 -0.030095 0.081972 138 147 146
0.085769 -0.000591 -0.007628 169 178 177
-0.037256 0.048202 -0.006928 88 65 35
-0.031923 -0.074750 0.049072 137 148 147
-0.014525 -0.078757 0.073972 127 140 139
-0.070379 0.012029 -0.039528 44 101 123
-0.064802 -0.035548 -0.055528 67 64 42
0.022879 0.024407 0.071272 114 123 122
-0.101614 0.045134 -0.016828 85 71 59
-0.043514 0.017122 -0.006928 94 94 70
-0.008811 -0.033650 0.086072 143 151 153
-0.067154 0.030273 -0.056028 159 163 163
-0.068376 -0.023950 -0.066828 131 72 1
-0.068626 0.012977 -0.059328 120 62 2
-0.055367 0.055324 -0.025528 228 186 112
0.081885 0.000735 -0.002528 166 175 173
-0.034680 -0.027074 -0.037028 127 105 57
-0.027055 0.067404 0.086072 102 106 111
0.070098 0.025566 -0.050828 118 127 125
-0.063289 0.033682 -0.050128 132 128 128
-0.071857 -0.029476 -0.051128 254 227 162
-0.090979 -0.037364 -0.018628 187 164 112
-0.004716 -0.078157 0.076772 128 139 138
-0.005351 0.034335 0.092272 123 131 138
0.037851 0.049137 -0.019828 3 8 4
0.089224 -0.000528 -0.011628 175 179 178
-0.019470 -0.063743 0.071872 137 148 147
0.075492 -0.061661 -0.006028 158 169 168
0.038418 0.016720 0.052172 135 143 145
-0.027736 -0.017014 -0.034528 191 161 124
0.053932 0.040077 -0.037828 0 4 0
0.069571 -0.053665 0.000872 162 171 170
0.017321 0.043327 0.087872 110 115 118
-0.083791 0.007536 -0.046828 88 67 42
-0.076194 -0.016159 -0.061328 90 67 49
0.044536 0.031305 -0.045828 64 31 0
0.033348 0.062266 -0.009728 5 10 6
0.048832 -0.016055 0.033172 155 163 165
0.056542 -0.005447 0.026272 157 165 167
0.062336 -0.055466 0.009372 159 170 169
0.029176 -0.046905 0.052172 146 155 154
0.055989 0.006493 0.031372 150 158 160
-0.024133 -0.036831 -0.031228 84 37 0
-0.001191 0.056372 0.092872 94 101 105
-0.001804 -0.022840 0.086672 143 151 153
0.028537 0.047943 0.067072 114 120 120
-0.049587 -0.038311 -0.050728 143 107 73
-0.020184 -0.061368 0.069672 140 151 150
-0.055013 -0.018791 -0.032728 81 86 89
0.047855 -0.027390 0.030572 158 166 168
-0.074285 0.007261 -0.058028 85 61 39
-0.000201 0.033418 0.096172 132 139 143
0.084174 -0.011287 -0.010028 172 181 179
0.038321 0.008900 0.051672 136 145 144
0.005369 0.097432 0.102172 31 37 37
-0.081120 0.044506 -0.042728 72 48 28
0.008405 -0.019205 0.080172 135 144 143
-0.066552 0.027757 -0.055828 160 169 168
0.026949 -0.069571 0.047772 138 149 148
-0.022957 -0.022561 -0.033228 183 156 123
0.061267 -0.003241 0.016372 160 169 168
0.090304 0.009116 -0.013328 170 174 173
0.090805 -0.018901 -0.019228 176 182 182
-0.071482 -0.027767 -0.067828 110 75 34
0.051124 0.026764 -0.056428 16 22 15
-0.061736 0.017710 -0.037728 33 33 22
0.049158 0.021819 -0.046228 60 23 0
0.048561 0.014705 0.041872 136 143 147
0.040152 0.021919 -0.035328 70 30 0
0.080770 -0.037265 -0.010228 170 177 173
0.016920 -0.017038 0.074572 133 141 143
-0.078780 -0.001023 -0.000528 232 203 156
-0.001541 -0.073692 0.074572 126 139 138
0.053927 0.020169 -0.037428 60 30 0
-0.068070 -0.036141 0.004272 200 184 140
0.030758 0.044702 -0.011628 118 123 126
0.036033 0.017404 0.053072 130 138 140
-0.021684 0.039155 0.071272 8 16 30
-0.078466 -0.005190 -0.003028 254 255 250
-0.049083 0.010007 -0.021828 129 149 161
-0.008824 -0.033191 0.086672 144 153 152
0.056596 0.029559 -0.065828 10 16 9
0.085168 0.021042 -0.029428 34 73 36
0.035822 -0.039187 0.045972 150 159 158
-0.020043 -0.037382 0.067672 140 150 152
0.085765 -0.016788 -0.012728 175 181 181
-0.042872 0.049204 -0.015528 48 35 20
-0.044029 0.019109 -0.006728 111 96 63
0.055702 -0.024654 0.021872 161 169 171
-0.047440 0.003697 -0.008628 187 170 133
-0.063600 0.027576 -0.055528 166 165 169
-0.067780 0.044422 -0.054128 106 55 0
-0.064583 0.008152 -0.034028 229 202 162
-0.090684 0.028912 -0.035028 109 110 97
-0.029211 0.040367 -0.007228 123 98 53
0.001233 0.008059 0.090972 122 130 132
0.088753 -0.051034 -0.020428 165 176 175
0.057582 0.016512 0.022172 143 152 156
0.075299 -0.025690 -0.003328 170 176 176
-0.021447 0.046355 -0.011328 92 41 0
-0.039355 0.051955 -0.011828 183 136 68
-0.006593 -0.012767 0.085472 130 141 140
-0.059985 0.026388 -0.035328 182 129 20
-0.057388 0.055471 -0.021228 135 114 89
-0.068804 -0.002868 -0.063028 124 65 0
0.086277 -0.004298 -0.012428 171 177 177
-0.014368 0.017815 0.082472 130 138 140
-0.066875 0.006396 -0.060428 123 68 12
-0.046387 0.000027 -0.005728 173 163 134
-0.071922 -0.042710 -0.032828 64 59 36
0.086301 -0.011579 -0.013328 174 180 179
0.081409 0.004073 -0.002528 166 175 173
0.084792 -0.012202 -0.010928 173 179 178
-0.047708 -0.037429 -0.048628 166 144 122
0.014512 0.083611 0.082472 77 84 88
-0.030454 -0.005002 -0.023228 148 133 100
-0.054038 0.055324 -0.025528 169 114 24
0.047351 0.049276 -0.041128 173 169 169
-0.011054 0.095253 0.093572 61 68 72
0.031850 0.049564 -0.012728 3 9 8
-0.032099 0.003225 -0.023828 83 88 73
-0.064731 0.014160 -0.040728 28 50 68
-0.086175 -0.034672 -0.009728 215 192 140
-0.070811 -0.005045 -0.062928 116 64 0
-0.054288 0.032702 0.009372 195 155 108
0.020671 -0.017308 0.063572 137 146 145
0.011495 0.049594 0.089772 102 110 112
0.053973 -0.008932 0.031372 157 165 167
-0.023548 0.047289 -0.011628 53 29 7
-0.026009 0.056613 0.076772 77 85 92
0.044954 0.018280 0.045972 138 145 149
-0.078803 -0.032159 -0.045128 226 199 154
0.084433 -0.040387 -0.014428 171 180 179
0.036734 0.085810 0.069172 98 103 106
-0.038449 -0.040071 -0.025328 64 65 52
0.072568 0.014801 0.007072 155 164 163
0.084305 -0.028648 -0.013128 172 176 175
0.058480 -0.026455 0.014472 166 172 172
-0.005974 -0.084831 0.078472 122 135 134
0.052102 -0.004953 0.029872 155 162 166
-0.061840 0.032716 -0.048828 166 164 164
0.037158 0.085471 0.067672 98 103 106
-0.020946 -0.019175 -0.025328 133 92 41
-0.008330 0.043637 0.080172 6 17 30
-0.077039 -0.035564 -0.025328 154 134 95
0.092533 -0.003412 -0.015728 173 179 178
0.016402 -0.036325 0.066572 141 147 147
0.071449 -0.006756 0.008272 164 171 175
0.033607 -0.006618 0.058672 139 145 145
-0.064483 0.037139 -0.050728 164 160 161
0.033638 0.000136 0.052172 139 145 145
0.091308 -0.052978 -0.022628 164 175 173
-0.019313 0.062061 -0.009028 95 72 54
0.057612 0.017830 0.016972 44 47 50
-0.025502 -0.011693 -0.026928 181 121 0
0.000667 -0.084028 0.080172 122 135 134
-0.070425 -0.027768 -0.068428 134 75 9
-0.046097 0.043680 -0.016128 46 29 35
0.076533 -0.039460 -0.002028 167 175 177
0.089138 -0.039028 -0.019828 173 179 178
-0.060039 -0.016467 -0.039628 82 91 89
0.070012 -0.051228 -0.005528 161 170 169
-0.068985 0.019754 -0.049728 26 38 40
0.068149 0.000214 0.012672 160 170 172
-0.013503 -0.018553 0.079072 131 141 143
0.089764 0.008627 -0.016128 175 176 173
-0.006162 0.063954 0.098072 97 104 108
0.060696 0.010806 0.024872 155 163 165
-0.080796 -0.020732 -0.029328 166 149 107
-0.068356 -0.014903 -0.065428 123 67 0
-0.065446 -0.012407 -0.042728 110 110 91
0.084557 -0.042837 -0.014028 172 176 175
0.045293 -0.023869 0.037772 155 163 165
-0.060680 0.025606 -0.034828 255 255 230
0.001409 0.028313 0.090372 124 131 135
0.058953 -0.053681 0.013572 156 167 166
0.068100 0.007921 0.014172 159 165 165
0.081185 -0.030774 -0.006928 171 177 177
-0.065692 0.008317 -0.006228 154 154 154
-0.066892 0.012188 -0.014428 231 199 155
0.027797 -0.049309 0.050372 146 152 151
-0.068884 0.045801 -0.042328 48 45 28
0.052589 -0.061404 0.018872 154 163 161
0.091820 -0.045150 -0.024328 171 181 183
0.069616 -0.023036 0.010572 165 173 175
-0.110165 0.040127 -0.010428 96 98 92
0.039847 0.043607 -0.023028 2 7 3
-0.005385 0.070388 0.071272 111 121 128
-0.105395 0.056454 -0.011128 67 53 43
-0.041880 -0.000859 -0.009328 146 135 103
-0.016782 0.044361 0.076772 7 16 27
0.050804 -0.014066 0.035072 155 162 166
-0.042999 0.050125 -0.014628 43 33 17
0.091290 -0.037919 -0.022028 175 181 180
0.065243 -0.058552 0.002172 158 169 168
0.068477 -0.033300 0.004872 167 173 173
0.062841 -0.016724 0.016672 164 173 172
-0.072783 0.004779 -0.059828 71 59 50
0.068275 0.020999 -0.038328 84 148 170
-0.047923 -0.037088 -0.030128 217 199 160
-0.046064 0.038112 -0.006928 106 81 68
0.074531 -0.012697 0.002372 167 175 177
-0.069631 0.010303 -0.060428 115 60 0
-0.067052 0.011147 -0.058728 119 64 8
-0.031303 0.010040 0.073472 131 131 131
0.068350 -0.017547 0.009072 163 174 173
-0.055078 -0.014317 -0.036428 88 93 80
-0.074774 -0.035266 -0.027328 145 126 89
-0.027396 -0.063290 0.058172 143 152 151
-0.072058 -0.033967 -0.001028 214 194 146
0.060698 0.042718 -0.053628 6 17 15
0.076506 0.022210 -0.047828 68 67 82
-0.057591 0.016407 -0.015728 129 107 66
0.083552 0.016076 -0.019028 43 83 43
0.014782 0.062983 0.083672 95 99 104
-0.054094 0.010657 -0.017628 114 133 147
0.034341 0.040217 -0.020628 4 6 0
-0.038581 -0.014014 -0.030328 41 32 19
-0.046830 -0.042209 -0.049828 121 62 11
0.020101 0.079830 0.080172 82 92 94
-0.059406 -0.015579 -0.042028 84 91 87
-0.068693 0.018292 -0.041328 16 27 25
0.062041 0.026344 -0.067328 28 36 29
0.065862 -0.042562 0.004572 164 173 171
-0.118316 0.059252 -0.000728 90 95 98
0.059508 0.015743 0.020572 148 158 160
-0.116350 0.046862 -0.003028 95 100 103
0.028154 0.017736 0.059572 121 129 131
0.027213 0.025448 0.071272 117 125 127
-0.008773 -0.064869 0.075672 135 145 147
-0.022197 -0.081020 0.058672 129 142 140
-0.068635 -0.029163 -0.066328 134 74 5
-0.083454 0.004186 -0.048328 93 71 51
-0.015925 0.043388 0.077372 5 16 29
-0.008824 -0.010825 0.086672 134 145 144
0.032911 0.082720 0.075672 77 85 87
0.027013 -0.038527 0.057272 147 153 153
-0.065964 -0.003861 0.008772 209 191 147
-0.002975 0.070223 0.065072 112 124 132
0.036973 -0.050142 0.038572 154 158 158
0.014754 0.006542 0.078472 119 126 130
-0.031513 -0.027952 -0.038628 37 27 11
0.053531 -0.051690 0.020172 156 167 166
-0.011337 0.011994 0.090372 130 138 140
-0.050707 0.040692 -0.005728 112 97 82
0.046106 0.043551 -0.039928 128 125 115
0.096299 0.000361 -0.019628 174 180 179
0.080970 0.013858 0.002972 160 171 170
0.049918 0.049206 -0.044128 174 169 159
-0.066952 0.004108 -0.060928 123 68 5
0.072029 -0.061108 -0.003728 160 169 167
-0.085164 0.026493 -0.041628 114 115 107
-0.065012 -0.018493 -0.040528 175 165 129
-0.054690 -0.035738 -0.036928 218 208 179
0.072346 0.021349 -0.037728 56 119 144
0.006648 0.056952 0.094872 98 105 109
0.006195 -0.072461 0.074572 131 140 139
0.046329 0.044774 -0.039828 93 92 89
0.046642 0.027399 -0.047628 13 7 0
-0.012670 -0.006271 0.080772 131 140 139
-0.063468 0.049321 -0.033528 97 84 57
-0.055415 0.023933 -0.027828 198 172 118
0.070826 -0.013357 0.005972 166 175 174
0.010924 -0.005160 0.080172 123 132 131
0.090637 0.009450 -0.013328 171 175 174
0.078031 -0.012701 0.000272 169 178 177
-0.017666 -0.049566 0.070772 141 151 153
-0.060576 0.052199 -0.002228 162 135 104
-0.052005 -0.016015 -0.035328 72 79 75
0.077367 0.021970 -0.043728 57 43 33
0.039187 0.052288 -0.019628 2 7 3
0.020176 0.017764 0.070272 111 119 121
-0.060865 0.024191 -0.025828 123 104 67
0.053262 -0.065748 0.017572 150 161 160
0.065990 0.019495 -0.009028 60 97 67
-0.038434 -0.043627 -0.041328 51 21 0
-0.077399 -0.002631 -0.057828 91 72 51
0.045389 0.010646 0.043872 142 149 153
0.026579 0.079290 0.080172 93 99 99
-0.063680 -0.038777 -0.038928 66 66 47
0.094038 -0.000841 -0.019028 176 181 177
-0.106862 0.050471 -0.011128 64 53 40
0.040569 0.018165 0.049472 135 143 145
-0.046171 -0.041488 -0.049328 29 17 0
-0.023435 0.005485 -0.020628 149 142 132
-0.024088 -0.016402 -0.035828 190 164 122
-0.029814 -0.010336 -0.035128 174 131 46
0.056974 0.045400 -0.053428 172 165 166
0.050240 -0.023514 0.032472 160 166 166
-0.060889 0.042109 -0.003028 103 81 93
0.001734 -0.049679 0.079572 138 147 146
-0.072168 0.007783 -0.032728 214 201 168
0.057248 0.008637 0.029872 152 160 162
-0.069430 -0.006863 -0.063328 124 69 0
-0.069544 -0.000671 -0.054028 171 150 134
0.036218 -0.050664 0.037772 148 157 155
0.047303 -0.057284 0.024272 154 163 161
-0.020572 0.044199 0.070272 7 16 27
-0.026595 -0.009014 -0.031728 154 107 27
-0.086504 0.009794 -0.043628 102 85 64
-0.042109 0.051237 -0.014228 63 44 23
0.057488 -0.068002 0.010872 151 159 161
-0.070776 -0.027060 -0.068228 125 75 9
-0.081097 0.005391 -0.003728 219 196 153
-0.048613 -0.032746 -0.006928 107 97 75
-0.062607 0.029625 -0.052228 133 125 104
0.039427 -0.045080 0.037472 154 160 159
-0.114985 0.026541 -0.007628 102 102 103
-0.058780 0.017606 -0.017228 141 123 89
0.008453 -0.091207 0.064072 123 134 132
-0.068472 -0.011435 -0.062728 125 67 0
0.054074 -0.037147 0.020172 163 169 169
0.052760 -0.050653 0.022572 155 166 165
-0.041471 -0.006153 -0.027728 179 152 126
-0.070629 0.030991 -0.056728 32 26 24
0.066153 0.038073 -0.063228 2 68 90
0.080258 0.009303 0.003272 165 174 173
-0.058108 -0.000179 -0.003528 201 183 149
-0.108457 0.017636 -0.016828 81 60 51
-0.051182 -0.042650 -0.003728 169 149 101
0.068301 0.023901 -0.036128 169 175 182
0.074954 0.010204 0.004872 160 168 170
0.081291 -0.040798 -0.010928 169 175 174
0.047972 -0.023968 0.035472 157 165 167
-0.021502 -0.007824 0.073472 130 140 142
0.045413 0.016894 0.019272 121 128 132
0.044005 0.028488 -0.044528 62 32 2
-0.023362 0.050301 -0.011328 59 34 9
-0.073322 -0.036474 -0.017628 199 185 134
-0.021148 0.059072 0.080772 96 105 109
0.084564 -0.009776 -0.008128 173 179 179
-0.061906 -0.034361 -0.029328 156 138 104
0.087502 -0.054511 -0.020228 167 176 175
-0.035189 -0.022597 -0.031728 97 61 17
-0.019979 0.060427 -0.008128 87 45 5
-0.007285 0.071534 0.041472 120 129 138
-0.025382 0.051908 0.068172 9 16 27
0.062842 0.019243 -0.023028 44 61 55
-0.038749 -0.046095 -0.042128 119 55 0
-0.067911 0.031117 -0.055828 138 131 121
-0.011834 0.049262 0.077372 8 16 30
-0.061214 -0.016555 -0.041628 78 84 83
0.046794 -0.010778 0.041472 155 160 163
-0.053957 0.044489 -0.011128 60 46 56
-0.064921 0.029728 -0.052528 113 102 82
0.064962 -0.013874 0.013872 164 172 174
0.088566 0.012845 -0.009328 167 173 172
-0.007002 -0.009837 0.088572 132 141 140
-0.005141 0.049575 0.088572 89 98 102
0.038958 0.025688 -0.038028 71 36 0
0.081152 -0.013499 -0.005028 173 179 178
-0.067628 0.021367 -0.058028 112 54 0
-0.067207 0.008018 -0.059628 122 67 4
0.037587 0.023821 -0.035328 65 28 0
0.016742 -0.037175 0.066572 139 148 147
0.038116 0.032836 -0.036328 71 37 0
-0.086269 0.002246 -0.046628 90 65 47
0.044463 0.005896 0.041872 145 153 155
-0.021337 0.051128 0.071272 9 18 29
-0.000311 0.048527 0.087872 119 129 136
-0.046378 0.043502 -0.015528 59 36 32
-0.026860 0.026068 0.074572 123 127 132
0.031253 0.025595 -0.024528 54 26 0
0.032574 0.051783 -0.012028 3 10 6
-0.069093 -0.042839 -0.034028 66 61 38
0.088407 0.003057 -0.010928 173 179 178
0.043249 -0.027821 0.041872 154 162 164
0.081389 -0.050470 -0.014928 167 172 175
-0.052582 0.025896 -0.032228 255 255 230
-0.067356 0.028077 -0.056228 164 168 167
-0.022715 -0.021223 -0.032228 176 154 120
-0.007104 -0.090741 0.070272 117 131 134
-0.055429 -0.006861 -0.038328 196 152 83
-0.053854 -0.020622 -0.033728 90 90 102
0.042088 0.037653 -0.041128 78 41 5
-0.070725 0.025024 -0.056828 94 60 30
0.051868 -0.066563 0.018272 149 160 159
-0.076716 0.011896 -0.054728 88 62 40
-0.041776 0.049094 -0.015528 36 27 16
0.088742 -0.053353 -0.024928 166 174 176
0.095292 -0.009657 -0.020628 172 181 179
0.075154 0.021887 -0.047028 55 55 49
-0.067354 -0.004442 -0.051128 254 255 249
0.042182 0.021386 -0.002228 32 38 37
-0.084454 -0.027212 -0.021628 197 181 130
0.045009 -0.012853 0.040972 155 159 164
-0.021480 -0.004545 -0.021028 80 51 25
-0.069077 0.010344 -0.040428 126 140 130
-0.004226 0.060513 0.095472 100 104 109
-0.058264 -0.038998 0.004272 191 171 123
-0.021149 0.023737 -0.012928 89 41 9
0.095248 0.011615 -0.018028 167 176 175
-0.024164 -0.008077 0.071872 131 139 141
0.087242 0.001674 -0.010028 172 181 179
-0.086352 -0.000259 -0.001528 223 198 151
0.043041 0.017677 0.025572 134 142 149
0.092720 -0.000932 -0.014928 173 179 178
-0.007484 -0.014456 0.083672 133 142 141
0.020543 0.071366 0.088572 98 102 107
-0.068378 0.043036 -0.054628 107 54 0
-0.007449 0.071806 0.060072 110 119 128
0.031971 -0.052748 0.045172 147 153 153
0.017844 0.022138 0.079072 112 120 122
0.057120 -0.034023 0.013572 163 168 171
0.029104 0.045049 0.065072 116 121 124
-0.056091 0.034886 0.004872 207 177 135
-0.003815 0.070576 0.058672 112 125 131
-0.081257 0.035239 -0.044728 114 114 103
0.076393 -0.004734 0.002672 166 175 174
-0.059177 0.028947 -0.047628 117 113 85
0.039789 -0.038647 0.043472 154 160 160
0.053152 -0.034136 0.023872 160 169 168
0.055980 -0.038841 0.016072 160 169 168
-0.044968 0.047574 -0.017428 42 33 22
-0.023535 -0.000302 -0.021428 134 131 128
-0.068458 -0.020119 -0.065828 128 69 0
-0.062133 0.026415 -0.051228 173 171 171
-0.027789 0.013591 0.075072 127 131 136
0.069689 -0.047544 0.005372 162 173 172
-0.103881 0.061361 -0.012228 57 44 38
-0.063385 -0.034349 -0.030028 155 140 105
0.009780 0.026342 0.089172 115 122 126
-0.018079 -0.035040 0.071872 142 151 150
0.081744 -0.013419 -0.011128 173 179 178
0.091624 -0.008155 -0.014228 174 180 179
-0.007385 0.080933 0.056272 90 96 103
-0.021795 0.003693 0.077372 134 140 140
-0.052785 0.041360 -0.006928 133 111 91
-0.074177 -0.034966 -0.029628 150 129 86
0.033863 0.012069 0.057272 133 138 141
0.024696 -0.016637 0.063572 139 145 145
0.090498 -0.025567 -0.020028 176 182 181
0.055470 0.045048 -0.053028 194 190 183
-0.050767 -0.002487 -0.000228 163 150 110
0.041108 0.026442 -0.040828 67 32 0
0.070912 -0.047682 0.000072 164 174 169
0.028842 0.008192 0.062072 128 136 138
-0.063745 0.043262 -0.030328 119 102 79
0.032886 0.070471 0.066572 120 124 129
-0.059455 0.027741 -0.036328 98 62 18
0.058907 -0.061936 0.010872 151 164 163
-0.020766 0.061206 0.083072 99 108 112
-0.074127 -0.019471 -0.063528 64 54 45
0.005357 0.071907 0.058172 125 134 143
0.092531 -0.011431 -0.018228 176 182 181
0.033810 0.058431 -0.012928 5 10 6
0.073689 -0.040001 -0.002228 169 175 174
-0.057197 0.042490 -0.005528 107 88 99
-0.083975 -0.024087 -0.030328 50 102 86
0.023670 -0.082381 0.047772 132 144 146
-0.020082 0.058185 -0.009328 90 44 0
-0.031178 -0.042938 -0.034528 132 74 0
-0.004714 -0.066996 0.076272 133 144 143
0.002629 -0.008976 0.086672 125 134 133
-0.070285 -0.039364 0.005172 202 187 140
0.041624 -0.075314 0.028472 143 153 155
-0.060357 0.050528 -0.003528 105 82 64
-0.024336 -0.002138 -0.022428 65 45 18
-0.055557 0.055018 -0.021628 173 146 113
0.084755 -0.013411 -0.012928 171 177 177
0.017781 0.062891 0.082472 101 101 102
0.049667 -0.011289 0.033572 155 163 165
0.045450 0.021102 -0.039028 107 65 11
0.059870 -0.056040 0.013572 158 167 166
0.092590 -0.029782 -0.021028 176 180 180
-0.030593 0.005194 -0.024128 136 134 122
0.028675 0.023591 -0.017028 71 33 0
0.088260 -0.036387 -0.019028 173 182 180
0.016847 0.024022 0.077872 114 119 122
0.068032 -0.054932 0.002672 162 171 169
0.040959 0.030747 -0.040228 87 46 3
-0.068091 0.008467 -0.003728 169 169 158
0.024848 -0.052740 0.050772 145 151 151
0.060913 -0.045958 0.009672 161 170 168
-0.044513 -0.009906 -0.026628 138 107 72
0.049850 -0.016491 0.033172 159 168 167
-0.059407 0.025943 -0.035128 186 126 23
-0.021509 -0.014420 -0.024928 178 142 90
-0.047232 -0.017246 -0.034828 70 77 73
-0.032349 -0.021640 -0.036128 123 63 1
-0.028025 -0.024239 -0.035528 195 163 119
-0.031505 0.024117 -0.008628 137 117 85
0.032569 -0.047074 0.047772 148 154 154
0.095050 0.010494 -0.015728 169 175 174
-0.049773 0.004171 -0.017628 234 204 167
0.072012 -0.054998 -0.001728 159 170 168
-0.064053 0.020212 -0.038728 37 29 13
0.060050 -0.018391 0.020172 161 170 169
-0.026260 0.008837 0.075672 129 137 139
0.025295 -0.041056 0.055372 145 150 153
0.033066 0.054446 0.065572 112 115 118
0.066654 -0.030638 0.010572 167 173 173
-0.084073 -0.027410 -0.016128 217 200 153
0.091297 -0.029508 -0.020428 175 181 180
-0.022931 0.075880 0.052172 55 58 61
-0.029607 0.039504 -0.006928 127 102 57
0.018130 -0.062023 0.061572 136 145 144
-0.021951 -0.088478 0.057672 123 139 137
-0.075985 -0.038564 -0.003528 209 193 142
0.056273 -0.053094 0.014172 157 168 167
-0.069455 0.023446 -0.041428 40 48 41
0.035517 0.077178 0.064072 87 94 98
-0.033926 -0.044579 -0.037828 87 43 8
-0.029544 0.017076 -0.014028 66 51 23
0.089515 -0.021920 -0.015128 174 180 180
0.070492 -0.033361 0.004072 167 173 173
0.089009 -0.045791 -0.023428 169 178 177
-0.072942 -0.037346 -0.029328 170 150 111
0.068867 0.021171 -0.039228 104 159 176
0.062930 0.000239 0.019872 159 167 169
-0.063375 0.008520 -0.008328 158 167 171
-0.088789 -0.037531 -0.015128 191 172 117
0.035138 -0.014400 0.050772 148 154 154
-0.052647 -0.007320 -0.036628 244 186 105
-0.033525 -0.016335 -0.035128 114 48 0
-0.081652 -0.000908 -0.005728 227 200 153
0.052192 -0.031562 0.026272 160 169 168
0.072706 -0.022263 0.010572 167 176 175
-0.070011 0.013099 -0.059828 115 59 0
0.043001 0.011403 0.043472 138 145 149
0.088196 -0.001745 -0.012028 173 179 178
-0.006592 -0.091121 0.070772 116 130 133
0.036876 -0.051752 0.035872 146 157 155
0.029495 -0.032713 0.052172 147 156 155
-0.066350 0.039099 -0.052328 115 100 72
-0.057686 0.026486 -0.032828 204 150 57
-0.053889 -0.037029 -0.048328 73 64 46
0.037252 -0.074770 0.036272 138 149 148
-0.036100 0.024057 -0.014928 148 117 77
0.060322 -0.009421 0.020172 163 169 169
0.080506 -0.050944 -0.015128 167 173 172
0.072321 -0.001789 0.010872 165 174 173
-0.016517 -0.020280 0.078472 132 141 140
-0.066232 0.027678 -0.055828 144 148 147
-0.056845 0.043146 -0.006228 95 77 72
0.055894 0.046235 -0.052228 186 181 176
0.022610 0.060519 0.076772 102 107 110
0.036692 0.024162 -0.034228 77 40 4
-0.062404 0.006220 -0.006928 98 146 169
-0.070729 -0.022370 -0.066328 131 73 4
0.056155 0.008506 0.030972 152 160 162
-0.024893 0.040881 0.066572 9 16 27
-0.051951 -0.036745 -0.036728 115 97 78
-0.004417 0.035832 0.095472 123 131 138
0.042423 0.037179 -0.041928 78 40 1
0.005313 -0.002972 0.084272 119 128 127
-0.023227 0.011823 -0.018228 125 122 112
0.063754 -0.037220 0.009072 165 174 173
0.061330 0.028563 -0.070928 13 15 9
-0.055784 0.031722 0.009672 239 208 160
0.085301 -0.034165 -0.013328 172 176 175
0.012882 0.055626 0.090972 100 107 111
0.064700 -0.015449 0.013872 164 172 174
0.070836 -0.037600 0.006572 168 174 174
-0.019148 -0.023152 -0.024928 106 61 22
-0.061092 0.015809 -0.024528 76 59 36
-0.040282 0.015015 -0.009328 92 86 65
0.011077 0.038870 0.092272 109 118 122
0.071946 -0.013072 0.005672 167 173 173
-0.037329 0.004138 -0.015328 129 118 91
0.025103 0.036004 -0.027828 112 118 118
-0.047973 0.012474 -0.023028 84 92 99
-0.030660 -0.033605 -0.035628 24 25 17
0.075935 -0.038982 -0.002028 171 180 179
-0.030660 0.015663 0.073972 127 130 133
0.086091 -0.039915 -0.018028 171 177 176
0.029124 0.004867 0.060572 132 138 138
0.014352 0.069988 0.060072 132 141 150
0.052350 0.026890 -0.057428 16 17 45
-0.070857 -0.000924 0.005672 201 186 144
-0.019110 0.076706 0.056772 72 81 85
-0.061882 0.004267 -0.008328 195 188 170
0.044181 -0.018770 0.037472 157 165 167
0.086664 0.011971 -0.005028 164 174 169
0.007022 0.075775 0.055372 104 114 121
0.032721 0.004888 0.057272 134 140 140
0.043565 0.019873 0.002672 21 27 26
0.060897 -0.057242 0.006572 157 168 166
0.090119 -0.035998 -0.019628 177 184 180
0.045990 0.022794 -0.046728 81 41 1
0.085614 -0.003627 -0.005228 171 180 179
-0.058736 0.024738 -0.030028 181 151 100
0.066268 -0.015176 0.010572 165 173 175
0.086848 -0.011889 -0.013528 175 179 178
-0.073864 0.007023 -0.058428 80 63 40
-0.048495 -0.005354 -0.032228 136 106 82
0.078297 0.014801 0.004572 157 166 165
-0.061888 0.044791 -0.001228 64 51 58
0.070912 -0.042958 0.000072 165 174 173
0.009007 -0.072588 0.071272 130 141 139
0.041549 0.009606 0.045972 139 147 149
0.072577 0.006213 0.010572 162 168 168
0.062708 -0.002057 0.016672 161 170 169
0.014029 0.068572 0.088572 90 97 101
-0.024553 -0.014727 0.066572 132 137 140
0.019030 0.072517 0.074572 90 97 101
0.082304 0.004916 -0.003528 169 175 174
0.026708 -0.015223 0.061072 140 146 146
0.075142 -0.058045 -0.006028 160 171 169
-0.063783 0.018790 -0.038128 44 36 20
0.061006 0.043279 -0.054628 6 13 4
-0.000670 -0.092972 0.073972 117 132 133
0.066630 -0.037882 0.007672 165 174 172
-0.072309 0.038516 0.009672 168 141 96
-0.038383 -0.013619 -0.030328 41 30 17
0.074675 -0.021105 0.003472 169 175 175
0.086385 0.000611 -0.005728 171 180 179
-0.107462 0.058734 -0.009728 89 89 89
-0.021761 0.004200 -0.019628 78 58 26
0.051753 -0.016030 0.031672 159 168 167
0.034911 0.047888 0.057672 113 118 121
0.056975 -0.044871 0.021572 159 170 169
-0.037046 -0.045818 -0.040428 120 55 1
-0.011914 0.062899 0.096772 96 105 109
0.062066 -0.019747 0.016372 165 174 173
0.049116 0.025330 -0.049728 7 11 10
-0.064434 0.037720 -0.025128 142 104 65
-0.043432 -0.039873 -0.044028 131 79 20
-0.029788 -0.046281 -0.033828 115 56 5
0.050085 -0.037928 0.025272 159 167 169
0.029120 0.066308 0.075072 100 105 108
0.028468 -0.068951 0.046472 138 149 148
0.055656 0.021327 0.001072 40 46 45
-0.023740 0.017963 -0.016828 83 45 11
0.014712 -0.047925 0.064572 139 145 145
-0.013765 -0.025421 0.076772 136 145 144
0.020167 -0.018315 0.063572 137 146 145
-0.049445 0.034062 0.005172 149 87 30
0.046851 -0.037439 0.030572 159 165 165
-0.039601 -0.008247 -0.024028 157 97 1
0.028890 0.020626 0.063572 119 127 129
0.066173 -0.046764 0.009372 162 171 170
-0.000115 -0.005926 0.088572 132 141 140
-0.070372 -0.037533 -0.024928 230 203 163
-0.025610 -0.029725 -0.033528 178 126 20
-0.039025 -0.042582 -0.040528 135 79 12
0.034901 -0.074601 0.041872 135 148 147
0.033989 0.082729 0.070272 86 91 94
0.065137 0.039333 -0.061628 1 67 84
0.084877 -0.005459 -0.004228 173 179 178
0.081831 -0.019021 -0.005728 173 179 179
-0.021964 -0.031600 -0.032028 17 18 15
0.076782 -0.028547 -0.002728 168 177 175
-0.068344 -0.029536 -0.051728 240 209 156
0.012749 0.030338 0.086072 117 122 125
0.082149 -0.012193 -0.008128 174 180 179
0.003319 0.006367 0.091672 121 129 131
-0.085072 0.002698 -0.047228 89 70 49
0.096480 -0.000695 -0.019828 174 180 179
0.011088 -0.061483 0.071272 136 145 144
-0.068980 0.018221 -0.041128 18 29 27
-0.017427 -0.002161 0.081972 131 140 139
-0.116970 0.045957 -0.003328 99 103 102
0.035383 0.022570 -0.029128 65 28 0
-0.030839 -0.041163 -0.026028 70 69 52
0.047604 -0.074489 0.024872 142 155 154
0.079866 -0.023180 -0.007228 171 177 176
-0.004951 0.026982 0.087872 128 137 141
-0.053057 -0.042642 -0.006428 173 154 112
-0.050170 -0.034918 -0.007928 196 181 134
0.043017 -0.043696 0.033172 157 163 163
0.038865 0.014897 0.054472 135 143 145
0.076414 0.001868 0.004272 166 175 174
-0.025078 -0.029898 0.072372 133 139 139
-0.002902 -0.010889 0.090372 131 142 141
0.059085 0.042205 -0.050328 4 19 20
-0.023692 -0.012125 -0.028228 185 139 43
-0.086583 0.014840 -0.042728 105 85 58
-0.060925 -0.013409 -0.042628 80 85 81
0.008615 -0.023961 0.080772 137 146 145
0.002052 0.068798 0.063572 117 124 133
-0.046919 -0.039976 -0.048228 114 56 14
-0.070571 0.030380 -0.057328 52 47 37
0.084545 -0.037793 -0.015728 173 177 177
0.039640 -0.033545 0.037772 152 160 162
-0.054720 0.027827 -0.031728 97 63 24
0.043396 -0.020700 0.038572 156 161 164
0.027619 0.079319 0.078472 96 101 104
-0.076623 0.038824 0.006572 191 164 119
0.070979 -0.031309 0.003772 166 175 174
-0.043368 -0.012328 -0.026728 71 78 69
-0.094392 0.030236 -0.030828 116 114 108
0.080489 -0.011772 -0.004728 173 177 176
-0.002013 0.070760 0.058172 117 126 135
0.041672 0.035707 -0.040528 84 44 4
0.094383 -0.014154 -0.021028 175 179 178
-0.081171 -0.006870 -0.036428 142 127 85
-0.023660 -0.041662 0.066072 144 152 154
-0.084583 -0.012057 -0.033028 105 100 61
-0.066214 0.037090 -0.052128 163 159 160
0.061411 0.033877 -0.066228 13 32 34
-0.066677 0.003796 -0.060628 121 77 23
-0.068603 -0.028980 -0.065828 143 84 18
0.019108 0.092056 0.089172 78 87 91
0.039362 -0.018845 0.048172 151 160 159
0.071921 -0.055905 -0.006428 162 173 172
-0.060722 -0.012091 -0.043628 76 84 77
0.055660 -0.014812 0.022172 160 168 170
-0.052484 0.032744 0.007972 135 84 28
0.048634 0.027434 -0.050228 18 20 9
-0.084631 -0.016137 -0.028228 118 105 70
-0.073537 -0.010903 -0.062328 53 43 34
-0.022278 0.011861 -0.017228 108 126 123
0.028848 0.039176 -0.017228 118 118 112
0.010655 -0.065048 0.067072 135 144 142
-0.019268 -0.007108 0.079572 131 140 139
-0.048166 -0.016954 -0.034328 68 75 71
0.080660 0.006215 0.004572 164 172 174
-0.047784 -0.037937 -0.032028 109 92 69
0.096071 0.006440 -0.019028 171 180 179
-0.047267 0.020224 -0.023628 120 107 92
-0.077438 -0.038251 -0.004228 212 195 146
