ply
format ascii 1.0
element vertex 1227
property float x
property float y
property float z
property uchar red
property uchar green
property uchar blue
end_header
0.000891 0.003553 -0.060889 171 182 178
0.021876 0.004861 0.016811 159 159 155
0.026660 0.003093 -0.021289 185 188 187
-0.040042 0.007046 0.005011 40 43 22
-0.050857 -0.013428 0.016411 24 32 47
0.008417 -0.016342 0.046611 39 39 41
0.023901 -0.021279 0.012511 108 109 105
0.019812 0.015760 0.019211 155 152 147
0.000825 0.003583 -0.060889 141 140 142
-0.016381 -0.000791 0.020811 39 45 45
-0.033521 0.019121 -0.012589 61 54 44
0.023794 0.010393 -0.008489 176 174 166
0.016951 -0.020482 0.046011 64 65 61
-0.054520 0.015005 0.052011 68 66 56
0.025977 -0.000465 -0.010389 174 173 173
0.027132 -0.001307 -0.019389 181 184 183
0.014569 -0.019624 0.053011 72 68 57
0.026707 -0.001309 -0.015689 178 189 185
0.024885 0.016005 -0.024389 189 188 190
-0.030559 0.002932 0.014811 93 100 108
-0.034771 -0.006183 0.021611 34 42 41
0.025346 0.000868 -0.007289 162 169 161
0.000808 0.003604 -0.060889 24 24 24
0.001579 0.019730 -0.003889 91 85 91
0.029285 -0.013878 -0.019989 58 45 34
-0.007681 -0.011813 -0.012189 190 196 198
-0.043886 -0.011750 0.020511 38 37 44
-0.014417 -0.011836 -0.012789 188 194 194
-0.024149 -0.000802 0.013811 119 117 124
-0.024640 0.014163 -0.009689 88 98 101
-0.027143 0.015504 -0.011789 100 107 99
-0.025516 -0.016202 -0.014289 158 178 173
0.024646 0.010489 -0.015489 181 182 178
0.025846 -0.020240 0.001911 122 127 115
-0.045532 -0.008791 0.019211 81 88 96
-0.003406 0.004917 0.016711 12 13 9
-0.026268 0.018724 -0.013389 46 44 58
-0.028342 0.003435 0.014411 91 101 104
0.022381 -0.007387 0.017611 129 130 124
0.017906 0.018457 0.028711 162 160 148
0.018784 0.009987 0.027511 101 98 84
0.023800 0.017176 -0.016289 191 186 182
0.027024 -0.008485 -0.006089 162 164 153
-0.039812 0.009532 0.005111 27 36 29
-0.020708 -0.014381 -0.014289 190 194 208
0.021149 0.008688 0.020311 153 153 149
-0.037187 -0.008015 0.022111 32 40 41
0.027783 -0.014610 -0.008689 138 149 145
0.025190 0.015392 -0.025889 197 186 179
0.002027 -0.000692 0.004511 164 167 168
-0.029002 0.013123 -0.009189 67 69 79
0.000820 0.003600 -0.060889 36 37 31
-0.023309 -0.012621 -0.015089 186 191 198
0.025667 0.000827 -0.009489 175 174 174
0.019801 0.008529 0.025911 151 147 140
0.026464 -0.014496 -0.001889 144 148 141
0.025092 0.008523 -0.015089 186 185 187
0.025504 0.010767 -0.022589 192 186 188
0.025086 0.013031 -0.021989 189 194 199
0.000819 0.003592 -0.060889 43 39 40
-0.002587 0.007987 0.012611 19 18 18
0.022446 0.013041 0.001311 170 170 166
-0.015768 -0.013745 -0.013489 201 213 217
0.000811 0.003608 -0.060889 28 32 27
0.024443 0.013207 -0.016989 188 185 182
0.024688 0.004243 -0.005889 168 164 165
-0.004645 0.017790 -0.002889 37 37 33
-0.040647 0.003387 0.011311 83 90 96
-0.050335 -0.003652 0.012011 68 87 87
-0.030001 0.018842 -0.013889 37 47 52
-0.051045 -0.016162 0.018711 13 24 24
-0.011815 -0.022459 0.035011 10 13 14
0.000815 0.003612 -0.060889 52 50 59
0.024826 0.011915 -0.019089 186 183 178
0.021320 0.012231 0.011411 164 159 155
0.024075 -0.013982 0.009911 122 127 117
0.000829 0.003608 -0.060889 83 78 74
-0.029820 -0.001379 0.019611 32 38 38
0.006949 0.015221 0.026711 141 138 133
-0.051848 -0.023543 0.021911 12 29 15
0.027251 -0.006864 -0.012489 163 162 166
0.000802 0.003599 -0.060889 30 29 29
-0.042372 0.007862 0.005611 56 57 48
0.025000 -0.018917 0.006111 122 121 121
0.027085 -0.004635 -0.014789 179 173 175
0.020671 -0.035042 0.030511 69 70 61
-0.029510 -0.014026 -0.016489 201 203 209
0.028915 -0.014724 -0.014289 151 157 159
-0.023430 0.003094 0.015711 102 108 119
0.000809 0.003609 -0.060889 33 33 33
0.000798 0.003603 -0.060889 30 30 34
-0.027567 0.012883 -0.008389 67 86 90
0.000413 0.004356 0.031611 160 163 166
-0.031622 0.000769 0.016011 95 107 109
0.022028 0.021760 -0.007089 183 183 177
0.026644 0.000538 -0.019089 189 184 192
-0.019043 -0.017557 -0.011689 136 146 153
0.025345 0.005498 -0.013889 171 177 175
0.024847 -0.016121 0.006511 108 113 103
-0.005184 -0.018765 -0.007589 110 115 105
0.017500 -0.012398 0.042111 88 89 83
-0.030491 -0.022954 0.027911 3 13 20
0.023213 0.011439 -0.004289 176 175 175
-0.025423 0.018218 -0.010289 30 49 49
0.026084 0.004130 -0.017889 186 188 177
0.025032 0.015039 -0.024289 198 190 187
0.018065 0.026028 0.020711 157 153 144
0.021323 0.010157 0.015811 165 162 157
-0.006353 0.001009 0.021011 32 33 27
0.012691 0.016066 0.027211 153 148 144
-0.020749 -0.013270 -0.014789 203 213 218
0.000800 0.003596 -0.060889 39 45 43
0.024796 0.005450 -0.009489 177 176 176
-0.018006 0.014416 0.001311 53 54 48
-0.028857 -0.014935 -0.015789 196 192 195
-0.009282 -0.013357 0.029411 17 20 19
-0.042466 -0.023691 0.028611 21 21 15
-0.020135 -0.012422 -0.014189 178 189 189
-0.009963 0.008256 0.010911 189 188 192
-0.008508 0.018527 -0.005089 22 26 21
0.001741 -0.014544 -0.008989 167 175 176
-0.002179 0.006605 0.014611 55 54 58
0.007598 -0.005433 0.041411 125 120 116
0.021162 0.022514 -0.001889 183 180 177
0.016920 -0.002789 0.041311 104 106 95
0.023795 0.018709 -0.018889 195 191 192
-0.028273 -0.022063 0.030811 9 13 6
0.018941 0.007920 0.030611 140 136 129
-0.026299 0.012081 -0.006589 84 99 98
0.000793 0.003613 -0.060889 104 112 113
-0.038228 0.000120 0.015311 92 104 106
-0.016909 0.018325 -0.009789 28 31 32
0.000809 0.003603 -0.060889 27 27 23
0.013864 -0.033200 0.052711 70 63 55
-0.025415 0.019639 -0.014589 62 61 68
0.017717 -0.008804 0.042511 111 109 97
0.022647 0.011951 0.000711 167 170 169
0.020522 -0.006284 0.025711 127 124 119
0.022209 -0.013566 0.018911 112 110 98
0.022518 0.021113 -0.011489 186 185 187
0.022283 0.005559 0.015011 161 158 153
-0.030493 0.007087 0.008711 175 172 169
-0.023909 0.016079 -0.010789 119 125 127
-0.054801 0.024291 0.087611 91 91 87
0.026813 -0.000278 -0.017889 183 186 187
0.025372 -0.013079 0.003211 142 144 133
0.022442 -0.009494 0.017411 120 123 122
0.003506 -0.006460 -0.003089 176 179 180
-0.009358 -0.000484 0.021911 59 70 66
-0.027852 0.014658 -0.011689 105 103 114
0.019335 0.021841 0.016711 147 143 144
-0.001212 0.002154 0.011811 43 49 47
-0.015003 0.001290 0.019611 98 112 114
0.000824 0.003600 -0.060889 97 93 94
0.018876 -0.027039 0.038411 69 71 62
0.028329 -0.007910 -0.020289 183 180 175
-0.042395 -0.009155 0.020411 58 68 71
0.023047 -0.015121 0.016111 112 114 105
0.000810 0.003598 -0.060889 26 26 28
-0.046295 -0.011380 0.019811 42 55 50
0.006210 0.000732 0.036711 140 137 134
0.000760 0.003585 -0.060889 33 32 43
-0.016279 -0.000420 0.020611 41 41 43
-0.037545 0.003872 0.012811 79 90 90
0.023855 0.017120 -0.016689 193 188 184
-0.022319 -0.016656 0.028411 11 34 39
-0.019431 0.000589 0.019311 103 111 112
0.008551 0.009441 0.031211 133 135 126
-0.035681 -0.014347 0.024011 11 22 18
0.027796 -0.013970 -0.017989 151 160 142
-0.007535 -0.013253 0.029211 17 16 18
0.023916 0.017291 -0.018089 197 194 191
0.023105 -0.022735 0.016311 98 103 91
-0.024099 -0.012653 -0.015189 182 189 193
0.007015 0.018968 0.028611 158 151 145
0.024113 0.007217 -0.006289 173 173 167
-0.026935 -0.008535 0.018311 62 72 75
0.018644 0.026713 0.014511 161 156 152
-0.005608 0.009878 0.010111 58 49 52
0.026708 -0.000928 -0.016489 179 185 187
-0.028082 0.018685 -0.014689 52 51 51
-0.016287 -0.008283 0.026811 29 30 26
-0.060334 0.024452 0.084911 78 79 70
0.011252 0.017738 0.027111 168 164 157
0.027605 -0.002834 -0.021489 186 188 177
-0.041065 -0.020025 0.026511 11 10 10
-0.047839 0.004484 0.009711 182 183 174
0.023585 0.015143 -0.012089 186 183 180
-0.047700 0.004329 0.009811 102 105 104
0.008672 0.016482 0.026511 148 145 142
-0.006993 -0.016796 -0.009389 125 142 147
0.008984 0.022461 0.031511 122 116 103
0.025991 -0.022790 0.001811 114 120 118
0.000794 0.003588 -0.060889 118 109 102
-0.010275 0.005569 0.017611 43 43 47
0.019978 0.015879 0.017711 160 158 150
0.008259 0.000357 0.037211 130 124 126
-0.019273 -0.017987 0.030711 16 20 15
-0.040343 -0.024011 0.029011 18 26 23
0.026672 0.004014 -0.022489 176 183 175
0.025862 0.007998 -0.020789 192 193 189
-0.025027 -0.007982 0.022311 50 58 57
0.010376 0.027209 0.028611 127 123 116
-0.022891 -0.021483 0.031411 15 18 19
0.000800 0.003589 -0.060889 66 65 65
0.019674 -0.021940 0.033611 82 83 70
0.000807 0.003601 -0.060889 23 23 23
0.023812 0.017387 -0.017389 191 187 190
0.000761 0.003543 -0.060889 27 23 26
0.000827 0.003564 -0.060889 77 76 80
-0.012097 -0.005035 0.024711 49 57 58
-0.019380 0.016397 -0.004689 43 44 40
0.010198 0.023664 0.031411 128 121 115
0.000817 0.003611 -0.060889 45 54 47
0.000796 0.003547 -0.060889 28 23 19
0.024869 -0.006749 0.004411 154 155 151
-0.008343 0.003544 0.018911 103 113 118
0.028151 -0.014389 -0.010289 148 156 157
0.014362 0.016895 0.027111 159 154 150
0.023230 -0.002837 0.011911 155 155 151
0.012378 -0.014422 0.048911 79 81 70
0.024768 0.011799 -0.018089 189 186 181
-0.025765 0.016002 -0.011389 111 105 109
0.021895 0.017874 -0.001289 176 177 168
-0.047442 -0.006365 0.016411 81 94 93
0.022779 0.018353 -0.009689 179 178 178
0.021234 0.018952 0.003411 174 174 170
-0.012083 0.005381 0.017011 52 54 60
-0.025210 -0.007403 0.022111 24 34 37
0.027428 -0.015082 -0.006989 140 144 139
0.028082 -0.018586 -0.009289 133 142 133
-0.016593 -0.013043 -0.014089 210 216 227
0.019783 -0.027946 0.034511 72 73 64
0.024923 0.014099 -0.022389 183 191 188
-0.017320 -0.019375 0.031411 14 20 20
-0.000085 0.004081 0.011611 169 169 173
0.023192 0.005750 0.004011 163 163 157
0.025076 0.005108 -0.010789 174 173 173
0.025158 0.009655 -0.018289 184 189 179
0.021067 -0.016911 0.026411 95 96 90
0.020875 -0.028395 0.029611 80 82 69
0.011703 -0.008990 0.044711 103 101 91
0.022030 0.006585 0.015511 158 154 155
0.016291 0.005880 0.035511 135 128 120
0.010781 0.008005 0.032411 131 131 125
0.018046 -0.004436 0.036611 120 120 114
-0.002878 -0.007810 0.021511 31 34 33
-0.023223 -0.013799 -0.015189 192 199 205
0.000962 -0.003414 0.002111 92 89 84
0.025447 0.008684 -0.019289 190 186 187
-0.033826 -0.001071 0.017411 46 49 48
0.021007 -0.001477 0.023211 141 140 140
-0.041926 0.000050 0.014411 84 102 98
0.000816 0.003590 -0.060889 38 39 33
-0.024601 0.020214 -0.014889 114 118 113
-0.021673 -0.022247 0.031711 20 20 22
0.023297 -0.024018 0.015611 97 107 93
-0.031173 0.018354 -0.011089 45 44 51
0.006935 0.032109 0.024711 125 123 115
0.000813 0.003599 -0.060889 24 23 23
-0.021279 -0.014205 -0.014389 197 205 204
-0.027798 0.012425 -0.007889 84 95 95
0.026712 -0.013903 -0.002989 143 147 142
0.025274 0.010487 -0.020589 188 191 192
-0.015597 0.002615 0.017911 100 110 113
-0.005157 -0.009953 0.025511 22 28 26
0.026255 0.005498 -0.021689 185 187 178
0.024747 0.005151 -0.008089 171 172 166
-0.026974 -0.016382 0.025511 4 4 8
-0.004910 0.019436 -0.004489 32 36 31
-0.043461 -0.011468 0.020611 48 54 54
0.000812 0.003596 -0.060889 29 30 24
-0.050695 -0.007031 0.011611 105 111 111
-0.002452 -0.011742 -0.011489 187 190 189
0.000820 0.003612 -0.060889 105 99 103
-0.039740 -0.009359 0.021711 29 32 31
-0.007143 0.008201 0.011711 252 255 254
0.000821 0.003550 -0.060889 27 27 29
0.007654 0.019204 0.029211 164 157 149
-0.009827 -0.010365 0.027311 23 23 25
0.000769 0.003585 -0.060889 49 46 43
0.027468 -0.013445 -0.007389 146 158 150
0.018898 0.025129 0.014411 165 161 152
0.023381 0.009581 -0.002889 173 174 168
0.025750 -0.001146 -0.008189 167 167 163
-0.004070 -0.000361 0.018211 40 41 37
0.013013 -0.039695 0.048811 73 71 50
0.007755 0.029751 0.026311 122 120 112
0.002240 -0.016523 -0.007489 137 137 139
0.023897 0.017228 -0.017889 186 187 176
0.003422 -0.019936 -0.004889 60 64 59
0.025270 0.011876 -0.022289 191 188 185
0.028104 -0.017577 -0.009889 132 143 141
-0.045393 -0.011813 0.020211 29 43 45
0.026486 0.001076 -0.016589 178 184 184
-0.017215 -0.007869 0.026611 34 35 29
0.026405 0.001294 -0.016389 178 180 186
0.000827 0.003609 -0.060889 95 86 77
-0.034765 0.001879 0.014511 88 100 102
-0.021471 0.020055 -0.013689 62 61 65
-0.046100 -0.023356 0.027511 5 18 17
-0.002870 -0.019668 -0.006389 81 86 76
0.026058 0.005847 -0.020089 185 186 182
0.021243 0.009122 0.018811 160 158 150
-0.006209 0.017190 -0.001589 25 29 24
-0.041547 -0.019393 0.026311 21 22 13
-0.011903 -0.008872 0.026411 32 35 34
0.000812 0.003598 -0.060889 24 25 19
0.000779 0.003585 -0.060889 51 52 46
0.025397 0.011002 -0.021489 192 189 184
0.000826 0.003552 -0.060889 17 17 21
-0.019846 0.015116 -0.001689 53 61 58
-0.021340 0.015486 -0.003689 53 53 55
-0.044995 0.007740 0.006811 54 46 62
0.028108 -0.008761 -0.017389 164 175 175
0.026246 -0.007516 -0.002689 161 163 154
-0.037206 -0.012687 0.023511 49 62 61
-0.019608 0.015863 -0.000589 50 51 45
0.024240 0.012209 -0.013389 186 186 180
0.000817 0.003593 -0.060889 33 34 30
0.023007 -0.010845 0.014811 122 123 117
0.000791 0.003591 -0.060889 87 94 88
-0.022931 -0.004052 0.022911 41 46 51
0.020851 -0.011556 0.026311 110 108 100
0.024887 0.013569 -0.020389 192 189 186
-0.014670 -0.018695 0.031411 26 26 22
-0.023186 0.000564 0.012711 110 120 125
0.027776 -0.004725 -0.020489 181 187 185
0.000825 0.003591 -0.060889 81 74 68
0.020323 0.021242 0.007711 158 159 155
-0.017376 -0.017018 -0.011589 156 162 162
-0.040336 -0.008318 0.020011 32 32 28
-0.020075 -0.017320 -0.011989 133 144 142
-0.035740 0.002837 0.013111 92 94 100
0.000810 0.003606 -0.060889 20 28 25
0.025064 0.013644 -0.022389 195 192 189
0.022749 0.008905 0.003411 170 164 166
-0.018601 -0.017218 -0.011889 135 141 139
0.028808 -0.012230 -0.017989 97 104 112
0.021978 -0.014149 0.020511 110 111 102
-0.005840 0.006768 0.014511 143 144 140
0.023278 -0.011981 0.013311 127 122 118
-0.021317 0.002106 0.017211 97 104 110
0.026757 -0.011926 -0.004289 157 162 148
-0.027266 0.015624 -0.011889 108 115 109
0.006539 0.025425 0.029411 123 115 103
0.026721 -0.002067 -0.015489 183 182 184
0.000760 0.003543 -0.060889 15 8 28
0.000808 0.003594 -0.060889 29 33 28
-0.018173 0.013420 0.000811 66 62 55
-0.035447 -0.013080 0.023611 38 60 59
-0.001390 -0.016532 -0.008189 144 151 157
-0.047376 0.003968 0.010411 57 47 47
0.000800 0.003580 -0.060889 102 104 110
0.018773 0.022043 0.020111 161 157 150
0.001769 0.019241 0.006711 78 75 70
-0.016743 -0.011964 -0.013589 185 192 196
-0.021732 -0.003549 0.022811 44 45 41
0.022770 0.008399 0.003611 159 162 165
-0.025737 -0.011238 0.025211 35 38 37
0.019539 0.011235 0.024711 41 45 38
-0.044180 0.007021 0.006411 52 50 59
0.022950 0.004812 0.007711 162 158 149
0.007631 0.021732 0.031611 122 114 111
-0.020460 0.003029 0.016811 103 108 113
0.000814 0.003594 -0.060889 29 32 35
-0.003425 -0.015389 0.026511 15 19 12
-0.016360 -0.013638 -0.013589 198 210 216
0.019708 0.020707 0.012811 163 160 155
-0.024545 -0.015109 0.027011 24 23 23
0.000383 0.021622 -0.011089 144 147 148
0.024107 0.013111 -0.014289 182 183 179
0.023009 -0.014798 0.015011 116 121 109
-0.015999 -0.018072 -0.010489 127 134 140
0.021353 0.023350 -0.004589 180 181 177
0.020485 0.022510 0.003911 168 168 164
-0.031001 0.013552 -0.010489 97 103 101
0.023715 0.015221 -0.013389 187 182 178
0.000803 0.003599 -0.060889 25 23 32
0.015482 0.016114 0.028011 140 135 133
-0.009233 0.005591 0.018511 53 52 61
0.023950 0.006011 -0.003389 170 169 171
0.000797 0.003601 -0.060889 32 28 31
-0.042870 -0.015773 0.023411 6 23 26
0.018739 0.019167 0.023611 134 127 121
0.026257 -0.018129 0.000011 130 140 126
0.026681 -0.017902 -0.002089 130 131 127
0.000817 0.003606 -0.060889 36 33 28
0.028365 -0.007948 -0.020889 180 189 180
0.008578 0.017447 0.026911 170 162 159
0.000802 0.003581 -0.060889 158 157 157
0.000786 -0.011255 -0.010289 174 177 180
0.025758 -0.018832 0.002511 114 123 116
0.027279 -0.001863 -0.019589 186 189 190
0.000802 0.003595 -0.060889 34 38 31
0.000806 0.003612 -0.060889 40 46 46
-0.028581 0.013917 -0.009789 50 56 67
0.018194 0.028830 0.015711 158 155 150
-0.003329 0.006409 0.015311 46 50 45
0.024821 0.016490 -0.024689 189 188 188
-0.025840 0.015661 -0.011589 103 102 109
-0.030296 0.019365 -0.015089 59 57 71
0.000817 0.003600 -0.060889 29 32 35
0.027635 -0.014720 -0.017789 56 45 36
-0.030552 0.001629 0.015611 98 108 111
0.020712 0.013126 0.016511 160 157 154
0.012255 -0.027131 0.057711 57 53 44
0.024210 0.016355 -0.019089 192 194 185
-0.012773 -0.006807 0.025811 32 40 39
0.023467 0.012330 -0.007989 175 174 174
0.000810 0.003594 -0.060889 32 35 34
-0.011587 -0.013788 -0.012489 199 207 208
0.004182 -0.010121 -0.008489 179 182 185
0.017293 0.013131 0.030811 135 132 127
0.000771 0.003587 -0.060889 28 40 42
-0.026914 -0.016451 -0.014189 159 170 170
-0.033480 0.007318 0.007311 100 104 99
-0.001206 0.009637 0.011611 125 125 125
0.019198 -0.002478 0.031911 124 121 116
0.023564 0.013351 -0.009789 180 180 174
0.028233 -0.007675 -0.019389 181 189 188
0.000769 0.003585 -0.060889 41 48 42
0.021269 -0.005552 0.022511 130 130 126
-0.051371 -0.021356 0.023811 26 20 26
0.005098 0.013783 0.027111 135 133 125
-0.031770 0.007021 0.007411 189 185 186
-0.025590 -0.014601 -0.015289 191 199 200
0.025511 0.006896 -0.017389 188 181 173
-0.003474 -0.013977 0.026211 25 31 29
-0.051355 -0.011216 0.013311 36 45 55
0.028819 -0.013197 -0.015989 154 155 144
-0.036458 -0.001430 0.017611 35 41 39
-0.018439 -0.005466 0.024611 36 40 33
0.000811 0.003548 -0.060889 20 29 41
-0.044886 -0.016988 0.023811 24 23 27
-0.014466 -0.018559 0.031411 26 26 22
0.000786 0.003589 -0.060889 115 108 98
0.018868 -0.011310 0.036011 103 104 95
-0.022032 -0.010721 0.026311 40 51 49
0.003528 0.008684 0.031011 136 133 130
-0.031624 0.050432 0.094911 26 26 26
0.000802 0.003547 -0.060889 29 38 29
0.027081 -0.005658 -0.013189 164 167 168
-0.014422 -0.007547 0.026111 18 21 20
-0.003985 -0.010916 -0.010689 72 93 99
0.000821 0.003612 -0.060889 125 125 127
0.017852 0.005446 0.035111 137 128 121
0.011513 0.013241 0.029311 143 140 135
0.027252 -0.001380 -0.020789 188 189 185
0.021441 0.014510 0.006411 172 164 161
0.027064 -0.000756 -0.019689 185 188 189
-0.019677 0.017868 -0.007989 51 52 48
-0.028816 0.020036 -0.015289 81 97 105
0.018466 0.025757 0.016411 156 157 148
0.019749 -0.029591 0.035411 69 71 62
0.023012 0.018702 -0.012789 178 181 182
-0.020898 -0.013750 -0.014689 196 207 205
0.019984 0.022416 0.008311 170 165 163
-0.028332 -0.018102 0.025011 12 33 41
0.023441 -0.006161 0.010711 142 139 136
0.025761 -0.003774 -0.004089 155 152 147
-0.025572 0.014301 -0.010289 88 87 96
0.025677 0.000897 -0.010089 164 164 164
0.026957 -0.003899 -0.014289 172 172 172
-0.022975 0.006182 0.009211 168 165 160
0.028105 -0.012596 -0.010989 157 160 161
0.028659 -0.013582 -0.018789 153 159 142
0.000873 0.003558 -0.060889 162 158 149
0.000823 0.003553 -0.060889 14 17 18
0.025993 0.004489 -0.018889 178 184 184
0.015062 -0.040502 0.047811 79 82 64
-0.029951 0.013370 -0.009889 84 94 97
0.000879 0.003552 -0.060889 157 154 151
0.000964 0.019325 0.002811 94 94 88
0.024832 0.011652 -0.017689 179 183 176
0.023474 -0.025678 0.014511 99 100 87
0.017822 0.027083 0.020411 157 149 146
-0.051859 -0.020515 0.022411 10 15 35
0.029136 -0.013439 -0.019589 80 47 58
-0.047774 0.001808 0.010611 85 103 110
-0.023607 0.015929 -0.010189 82 88 88
0.000823 0.003563 -0.060889 13 16 19
0.000795 0.003607 -0.060889 34 40 40
0.000782 0.003591 -0.060889 55 66 62
-0.015146 0.007477 0.010211 180 175 173
0.026241 0.001075 -0.015389 172 172 166
0.023512 0.010947 -0.006089 171 172 166
-0.020812 -0.022426 0.032111 16 19 20
-0.030698 -0.012000 -0.016289 27 26 33
0.020677 0.020481 0.005511 165 165 159
0.018724 0.001438 0.034111 135 133 123
0.024376 0.011009 -0.013889 185 181 182
0.000789 0.003591 -0.060889 92 99 93
0.023708 0.016494 -0.015089 190 188 180
-0.049635 -0.013926 0.020311 21 19 26
0.021099 -0.024012 0.027111 82 83 72
-0.048229 -0.018490 0.024311 12 17 24
0.022857 0.018943 -0.011789 189 187 179
0.000794 0.003589 -0.060889 100 104 97
-0.023760 0.014622 -0.008589 70 80 83
0.000759 0.003585 -0.060889 44 50 52
-0.015252 -0.003414 0.023411 35 41 43
-0.014584 0.006179 0.012011 173 173 173
0.026872 -0.018106 -0.003389 133 140 134
0.022492 0.006291 0.010711 159 153 157
0.024432 0.013132 -0.016889 186 183 180
0.026100 0.003655 -0.017589 181 184 185
-0.031614 0.015001 -0.012989 109 121 123
-0.038440 0.006755 0.005011 189 189 185
-0.027822 0.015419 -0.011989 83 106 98
0.026340 0.005307 -0.022089 189 188 190
-0.025177 -0.012250 -0.014889 185 195 200
0.022238 0.014357 0.000711 176 176 170
-0.029386 -0.023579 0.030911 5 11 9
0.023353 -0.008158 0.012311 139 140 127
0.013622 0.011468 0.031111 138 138 132
0.022158 -0.026288 0.021911 86 93 85
-0.020353 -0.012593 -0.014389 190 193 196
0.001528 0.014269 0.026311 139 139 135
-0.023075 0.019875 -0.014889 82 81 83
0.028080 -0.010078 -0.018089 66 46 38
-0.003553 -0.000028 0.017311 36 36 36
0.023592 0.005797 0.001311 162 165 164
-0.023239 -0.003249 0.022911 48 47 47
0.020564 0.002346 0.024511 143 147 142
0.000794 0.003547 -0.060889 10 18 15
-0.001749 -0.017037 -0.007989 138 144 146
-0.052753 -0.013122 0.014511 45 38 49
0.000801 0.003613 -0.060889 116 111 107
0.000794 0.003591 -0.060889 79 79 79
-0.032736 -0.013029 0.024311 36 39 40
0.002153 -0.020727 -0.004489 61 68 60
-0.027707 0.014766 -0.011689 114 113 120
0.000822 0.003560 -0.060889 11 14 13
0.026158 0.005454 -0.020789 189 189 183
0.022246 0.021942 -0.009789 188 184 187
0.022585 0.017100 -0.006689 179 174 170
0.018485 0.002974 0.034711 129 126 121
0.013934 -0.035413 0.054811 40 40 34
-0.044449 0.005769 0.009211 206 207 203
0.026095 -0.019695 0.000711 125 132 124
0.000798 0.003603 -0.060889 32 31 38
0.014924 0.011273 0.031211 130 131 122
0.028077 -0.014121 -0.018389 168 159 162
0.028850 -0.016275 -0.013289 139 141 132
-0.014986 -0.023222 0.033711 16 19 18
0.023481 0.014837 -0.010889 182 183 179
0.027493 -0.008300 -0.012889 156 159 158
-0.001248 0.001209 0.011211 12 18 18
0.019501 0.005601 0.029411 141 141 135
-0.027581 0.013158 -0.008789 82 95 92
0.014507 0.000130 0.039611 113 114 103
0.024852 0.015501 -0.023689 185 191 191
0.000338 -0.019313 -0.005989 67 75 76
0.025323 -0.009961 0.002111 148 147 151
0.002656 0.011670 0.028111 133 128 126
0.018109 -0.011612 0.039911 99 99 93
-0.009483 -0.012408 -0.012989 205 211 213
0.026245 -0.003257 -0.008689 165 165 165
0.018510 -0.022284 0.038411 74 75 64
-0.017745 -0.014017 -0.013789 192 202 209
-0.040035 0.008763 0.004611 35 41 41
-0.043377 -0.011904 0.021011 45 48 47
0.000761 0.003586 -0.060889 43 42 49
0.026645 0.004896 -0.023989 192 190 182
0.024974 0.003322 -0.008189 175 176 167
0.015482 0.022823 0.032611 153 145 142
0.028360 -0.011676 -0.015489 152 167 153
0.000798 0.003592 -0.060889 46 53 45
0.025671 0.002369 -0.012089 171 175 170
-0.021065 0.020506 -0.013889 114 115 111
-0.033132 0.015496 -0.012989 114 126 140
0.011206 0.024862 0.030711 122 115 107
0.025647 -0.011556 0.001411 143 144 140
-0.031262 -0.002521 0.019811 69 67 59
0.022497 -0.026751 0.020211 92 93 80
0.028713 -0.012050 -0.016889 146 157 157
-0.051494 -0.021790 0.024011 13 11 22
0.027700 -0.009058 -0.013889 155 158 157
-0.022718 0.017897 -0.010889 32 43 39
0.024887 0.011406 -0.017989 200 190 188
0.005535 0.006751 0.031911 139 136 133
-0.000559 -0.019885 -0.005689 62 57 55
-0.005295 0.019297 -0.004389 34 35 31
-0.003069 -0.014572 -0.010089 185 193 194
0.000761 0.003587 -0.060889 44 46 56
0.000091 -0.012917 0.005411 48 49 45
0.021524 0.021789 -0.003889 176 174 166
0.000788 0.003580 -0.060889 143 143 139
-0.028835 -0.023416 0.031511 9 9 9
0.008372 0.022393 0.031511 121 114 106
0.001302 -0.008253 -0.001789 22 26 21
0.027031 -0.006898 -0.011489 153 159 157
0.000825 0.003558 -0.060889 12 12 14
-0.020796 0.008441 0.009011 105 105 101
-0.003753 -0.011784 -0.011589 187 187 189
-0.045009 0.008225 0.006611 43 48 57
0.019000 0.006514 0.030911 139 138 138
0.005981 0.027999 0.026711 122 116 103
-0.013377 -0.013362 -0.013189 199 209 214
-0.031329 0.018398 -0.011189 38 27 33
0.028253 -0.009545 -0.018889 165 177 181
-0.017657 -0.013317 -0.014189 201 208 212
-0.050091 -0.002728 0.012511 84 92 93
0.027610 -0.013872 -0.007889 154 155 146
-0.009943 -0.014437 -0.011689 191 197 197
0.021226 0.013886 0.009611 164 159 155
-0.049949 0.000815 0.010411 103 116 115
0.024394 0.010296 -0.012789 176 177 173
0.021225 0.009218 0.018511 155 153 145
0.025325 0.006370 -0.014389 180 183 184
-0.001051 -0.016959 -0.007889 143 146 149
-0.039474 -0.020576 0.027111 25 14 22
0.024837 0.004532 -0.007889 173 173 167
0.000803 0.003586 -0.060889 56 54 42
-0.013028 -0.014143 -0.012689 193 204 204
0.022825 0.013848 -0.003889 185 179 183
-0.052632 -0.013985 0.015611 43 30 38
0.000800 0.003602 -0.060889 22 28 28
0.022278 -0.017512 0.019611 101 102 89
-0.006643 0.010700 0.011011 49 46 41
0.021281 0.019046 0.003411 172 172 168
0.000822 0.003564 -0.060889 15 21 21
0.003861 -0.012469 -0.009989 196 203 207
-0.014519 -0.011682 0.027411 45 48 47
0.006206 0.025092 0.029411 122 115 105
0.014323 0.027712 0.029011 149 140 133
-0.022803 0.013316 -0.001489 97 99 86
0.005401 0.027935 0.026711 124 118 105
0.027037 -0.000652 -0.020389 182 188 190
-0.026277 -0.013727 -0.015989 187 210 206
0.016947 -0.028419 0.049211 63 59 48
0.000826 0.003555 -0.060889 48 48 44
0.003760 0.009619 0.029811 134 129 127
0.003236 0.017020 0.025411 164 160 149
0.023031 0.000929 0.011611 159 159 153
0.000811 0.003609 -0.060889 28 31 30
-0.033762 -0.010628 0.024211 24 27 30
0.000799 0.003604 -0.060889 22 31 22
-0.006662 0.008682 0.011711 167 157 171
0.026757 -0.017909 -0.002889 139 140 136
-0.053335 -0.017509 0.017611 22 15 28
0.022080 -0.000789 0.016511 153 148 144
0.025389 0.006598 -0.016089 181 180 180
0.000797 0.003588 -0.060889 85 86 77
0.024224 0.010079 -0.011189 173 175 166
-0.012406 0.003660 0.017911 105 112 118
0.018287 0.011671 0.026011 100 93 83
-0.022603 -0.005474 0.023511 33 39 41
-0.024292 0.012686 -0.005089 82 83 74
0.024879 0.012564 -0.019789 188 187 191
-0.047452 0.000711 0.011711 101 111 116
-0.052520 -0.016831 0.017011 16 11 42
0.000824 0.003559 -0.060889 10 13 14
-0.029889 0.018795 -0.011089 39 47 34
0.000773 0.003588 -0.060889 53 55 44
0.010103 0.006470 0.033911 123 124 115
0.007913 -0.000084 0.037411 130 125 121
0.026471 0.004568 -0.021889 180 189 182
-0.044771 -0.008039 0.018911 62 78 88
0.022857 -0.005186 0.014111 141 137 138
0.027371 -0.015203 -0.006289 146 146 140
0.021456 0.008461 0.017611 156 157 148
-0.038687 -0.009820 0.022311 34 37 36
0.021952 -0.013768 0.020411 112 111 111
0.025019 -0.008628 0.003911 155 149 151
0.021065 0.022149 -0.000089 175 171 164
-0.005941 0.009686 0.010311 56 52 53
0.027687 -0.003354 -0.020489 187 187 187
-0.015670 -0.004773 0.024611 27 33 33
0.009213 0.032584 0.024811 125 127 111
0.022539 0.018985 -0.009089 179 180 176
-0.022450 -0.020156 0.031011 14 18 13
0.025385 0.000112 -0.006589 169 169 163
0.026890 -0.003841 -0.013789 165 171 173
0.024352 0.007674 -0.008189 174 170 171
0.025758 0.007211 -0.019989 194 194 194
-0.016796 0.019854 -0.011989 48 52 47
0.019367 -0.038092 0.037911 65 67 58
0.005818 0.015782 0.026111 142 138 139
0.008943 -0.007661 0.043211 120 116 107
-0.015439 -0.022539 0.033511 24 13 17
-0.041002 -0.018828 0.026111 19 19 15
0.000824 0.003588 -0.060889 74 67 61
0.018487 0.021157 0.022711 153 150 147
-0.023354 0.014554 -0.002589 26 33 27
0.026932 -0.002700 -0.015989 182 181 181
0.023161 -0.000188 0.011511 159 159 155
0.019039 -0.029235 0.039311 61 71 55
0.022143 -0.030312 0.022811 84 88 81
0.017659 -0.037175 0.046011 65 67 54
0.027590 -0.012740 -0.008389 156 156 152
-0.013901 -0.020672 0.033011 15 17 25
0.024738 0.014954 -0.022089 191 190 194
-0.033510 0.000189 0.016311 93 103 108
-0.016201 -0.000610 0.020811 37 40 41
0.001574 0.005523 0.032011 151 151 151
-0.037859 -0.008688 0.022111 28 36 33
-0.027325 0.014333 -0.010489 86 93 99
-0.034746 0.002890 0.013311 91 101 104
0.029518 -0.012365 -0.018389 75 59 64
-0.002022 0.002670 0.013411 9 11 17
0.025171 -0.023045 0.006311 110 111 100
0.000801 0.003608 -0.060889 34 33 33
0.014074 -0.025251 0.056811 62 59 45
0.026926 -0.005658 -0.011689 162 158 159
-0.022897 0.018642 -0.011589 33 39 37
0.003131 -0.017147 -0.006889 112 115 114
-0.050742 -0.014072 0.019611 19 23 37
0.023837 0.007900 -0.004189 171 166 164
0.022815 -0.008606 0.015111 132 128 121
0.018755 0.026046 0.014511 166 159 153
-0.009147 0.009149 0.011511 46 46 46
0.018591 0.028257 0.012011 168 168 164
0.023229 -0.005119 0.012611 145 145 145
-0.002427 0.006293 0.015211 35 29 31
0.024075 0.007506 -0.006189 176 171 167
0.025928 -0.005808 -0.000989 166 162 155
0.000761 0.003543 -0.060889 37 28 35
0.021195 -0.003849 0.022711 137 137 131
-0.041293 -0.016372 0.024111 18 35 49
0.004439 0.032121 0.023811 94 85 88
0.027017 0.001616 -0.022689 190 194 189
0.019646 -0.002494 0.030111 125 125 119
0.003967 0.011998 0.028111 134 130 133
0.025892 -0.020332 0.001911 118 126 115
0.023363 0.016699 -0.011789 185 181 182
-0.034607 -0.004403 0.020811 47 55 52
-0.028129 0.014033 -0.009589 62 73 71
0.014768 -0.040343 0.048011 75 77 61
-0.011515 0.004410 0.017411 108 113 118
0.023147 0.013070 -0.005489 177 177 171
0.000823 0.003610 -0.060889 64 58 60
-0.008302 0.019412 -0.005589 23 29 27
-0.006782 -0.019288 0.033011 13 16 17
0.000783 0.003586 -0.060889 65 67 56
0.028514 -0.013579 -0.018489 167 160 141
0.022829 0.020045 -0.012489 188 185 180
0.014421 -0.005182 0.042911 108 106 94
-0.034585 0.011859 -0.008989 79 101 100
0.024626 0.012820 -0.017889 188 188 188
0.000760 0.003588 -0.060889 50 56 56
-0.018921 -0.016218 0.029411 9 29 44
0.003328 0.008215 0.031111 133 128 124
0.024520 0.010610 -0.014689 186 186 186
0.000826 0.003610 -0.060889 86 75 68
-0.025661 -0.023444 0.032311 14 18 13
-0.025943 0.007826 0.008211 42 51 44
0.000817 0.003597 -0.060889 25 31 29
0.000973 0.000989 0.007211 163 166 169
0.000825 0.003604 -0.060889 85 77 74
0.009568 -0.041871 0.045211 77 82 68
0.019607 0.007913 0.027711 146 143 140
0.004405 0.015768 0.026011 144 140 133
-0.024657 0.007577 0.008311 127 125 117
-0.038192 -0.009085 0.021911 33 39 37
0.021094 0.017337 0.006411 174 165 168
-0.046770 -0.009011 0.019111 75 86 97
0.025162 0.012897 -0.022189 200 195 193
-0.016675 -0.007637 0.026811 35 35 29
0.000818 0.003601 -0.060889 38 41 42
0.001618 0.015388 0.006611 116 115 115
-0.017384 0.017619 -0.006689 37 37 37
0.025173 -0.001819 -0.002589 160 159 159
-0.025929 0.016174 -0.011289 104 111 105
0.022079 0.015503 -0.000389 179 176 173
0.024129 0.017529 -0.019989 197 193 194
-0.015191 0.008171 0.010411 112 111 118
-0.007139 0.003308 0.019211 93 99 112
-0.007638 -0.014072 -0.011389 195 201 203
-0.030195 0.019264 -0.015089 55 60 67
0.021254 0.021197 -0.000589 171 167 168
0.018783 -0.036098 0.041211 56 66 50
0.000805 0.003580 -0.060889 53 49 52
0.024766 0.014098 -0.020189 193 191 183
0.000763 0.003589 -0.060889 31 41 48
-0.034712 0.012200 -0.009689 91 98 106
0.026216 0.002293 -0.016889 188 191 190
-0.020915 0.020125 -0.013689 49 63 65
-0.022811 0.015667 -0.005189 38 34 27
-0.042545 0.004546 0.010411 92 101 94
-0.005340 0.017857 -0.002789 32 33 29
0.026051 -0.000949 -0.010389 165 165 161
0.000785 0.003593 -0.060889 89 98 89
0.000794 0.003588 -0.060889 113 109 100
0.024062 -0.014713 0.009711 125 126 120
0.023038 0.007856 0.002611 165 165 161
0.022199 0.009639 0.007411 158 154 157
-0.013881 -0.013080 -0.013489 205 211 213
-0.030360 0.000878 0.016111 89 99 102
0.016215 0.016594 0.027711 144 136 133
0.019248 0.026544 0.008611 161 161 161
-0.029255 0.006373 0.008811 165 166 155
0.024107 0.013463 -0.013589 178 184 182
0.016916 0.027236 0.028711 245 223 227
-0.037907 -0.002459 0.018211 40 49 40
0.015974 0.033804 0.024511 244 223 232
0.024025 0.017835 -0.019089 186 189 190
-0.018890 0.003202 0.016711 94 108 112
0.027839 -0.008642 -0.015689 159 171 147
0.021663 -0.021546 0.023611 92 97 87
0.012802 0.033163 0.025211 137 130 124
-0.018739 0.018598 -0.010889 35 34 38
0.017465 0.027673 0.021611 153 146 140
-0.009574 -0.016656 0.031411 17 18 14
0.008981 -0.006234 0.042711 119 116 111
0.017896 0.011281 0.029711 130 116 112
0.023646 -0.002331 0.009711 158 153 151
-0.022208 0.007594 0.008611 147 152 140
-0.030678 -0.015383 -0.015989 186 190 183
0.028361 -0.013314 -0.018289 151 151 151
-0.042488 -0.003650 0.016611 64 83 87
-0.041692 0.000856 0.013611 81 96 91
0.016292 0.004970 0.036411 132 130 122
0.004077 0.015804 0.025811 139 140 131
-0.011279 0.006534 0.011511 195 201 203
0.023429 -0.013855 0.012911 125 123 115
0.000823 0.003598 -0.060889 122 117 113
0.025008 0.015876 -0.024689 188 189 180
-0.049497 -0.013004 0.019611 42 44 54
0.019399 0.022778 0.011811 165 158 150
-0.044402 0.010711 0.002611 49 64 48
-0.040714 -0.023751 0.028811 15 24 17
-0.017709 0.002149 0.018011 94 105 116
-0.039763 0.009532 0.005111 27 36 29
-0.000167 -0.017903 -0.007089 110 113 112
-0.027641 0.016487 -0.011489 123 127 122
0.003890 -0.008066 -0.005389 169 177 176
-0.038937 0.001332 0.014211 92 104 106
-0.015779 -0.016706 0.030411 13 32 34
-0.040125 0.009320 0.004911 39 32 24
-0.010731 -0.011705 -0.012189 186 192 194
-0.042421 -0.000771 0.014211 94 99 104
-0.044678 -0.001855 0.012411 88 107 109
0.022334 0.016761 -0.004189 174 175 169
0.018532 0.029132 0.012211 168 164 167
0.023075 -0.020139 0.016011 97 104 98
0.023950 -0.019330 0.011311 114 116 105
-0.007035 0.009550 0.011211 47 45 52
0.011097 0.000910 0.038111 125 121 114
0.027222 0.000181 -0.022389 186 189 188
0.024302 0.015831 -0.019089 190 189 191
-0.060924 0.016344 0.041411 36 38 44
-0.018521 -0.012138 -0.013589 187 194 198
0.000817 0.003610 -0.060889 36 42 42
-0.049115 -0.010491 0.018811 66 69 72
0.026673 0.001106 -0.018789 183 186 187
0.000801 0.003589 -0.060889 61 61 57
0.010893 -0.040142 0.047711 73 75 62
-0.006695 0.018684 -0.004189 23 22 22
-0.039717 0.001806 0.012911 81 103 104
0.023956 0.018035 -0.019489 185 189 184
0.024043 0.005738 -0.003889 171 167 168
-0.004946 -0.014284 -0.010689 192 198 200
-0.021155 -0.016971 -0.012389 157 160 163
0.000002 0.009240 0.013411 44 49 58
0.000789 0.003594 -0.060889 85 79 85
-0.018006 0.016046 -0.004589 38 39 35
0.021064 0.009459 0.020211 161 154 148
-0.029753 0.003267 0.014611 91 98 106
-0.013905 0.016826 -0.004089 27 27 27
0.000827 0.003608 -0.060889 80 69 62
0.000815 0.003599 -0.060889 18 24 22
0.018125 0.013425 0.026811 97 86 77
0.024533 0.007961 -0.010689 176 177 171
0.025222 0.013553 -0.024489 190 191 182
-0.035647 -0.023099 0.029511 17 20 23
0.003849 -0.007984 -0.005389 169 175 175
0.000802 0.003602 -0.060889 20 23 26
-0.023667 0.013823 -0.005389 19 25 23
0.017904 0.013662 0.030111 129 126 121
-0.024889 -0.005089 0.016711 90 100 105
-0.052139 -0.021651 0.021511 13 16 17
-0.040473 0.011166 0.002111 52 56 51
-0.032180 -0.011032 0.024011 33 45 35
0.021584 -0.002161 0.020611 145 142 137
0.024624 -0.005958 0.005611 154 154 150
-0.001732 -0.018901 -0.006689 93 97 92
-0.017623 0.019929 -0.012089 56 59 58
-0.008149 -0.013785 -0.011789 198 203 208
-0.019516 0.018849 -0.010789 37 41 36
-0.042227 -0.022307 0.027711 16 14 25
0.000817 0.003594 -0.060889 31 31 31
-0.045670 -0.004346 0.014011 91 100 110
0.025247 -0.002580 -0.001889 157 157 157
0.004559 0.007822 0.031411 142 134 131
-0.045831 -0.019548 0.025211 17 17 21
-0.030090 -0.015551 -0.015589 182 189 193
0.025159 0.001179 -0.006289 164 165 159
0.024312 0.012832 -0.015489 183 182 184
0.023377 -0.004718 0.011011 152 152 146
0.023063 0.019880 -0.014389 190 187 184
-0.033689 0.011339 -0.007289 97 104 110
0.000804 0.003601 -0.060889 15 23 24
-0.016420 -0.012697 -0.014089 186 192 194
0.028980 -0.014602 -0.014689 141 146 151
0.020897 -0.017965 0.026511 89 94 84
-0.016923 -0.002479 0.022511 39 39 39
0.000807 0.003586 -0.060889 49 47 39
0.019653 0.019050 0.015911 161 160 145
0.011700 -0.033316 0.052811 67 65 55
0.012960 -0.019691 0.051311 64 63 46
0.021591 0.018013 0.000811 181 174 166
0.023541 0.002899 0.006911 158 158 154
-0.004054 -0.012725 -0.011489 216 223 227
-0.015566 -0.013781 0.028511 18 21 20
-0.007701 -0.002310 0.023611 28 31 32
-0.023954 0.013979 -0.006289 66 59 51
-0.034627 0.012602 -0.010189 85 97 103
0.022334 0.005538 0.014211 161 157 158
0.000778 0.003546 -0.060889 15 15 19
-0.057840 0.025125 0.085111 86 91 77
0.028777 -0.013418 -0.014289 161 167 165
0.020196 -0.020239 0.030811 80 86 84
0.004510 0.027111 0.027011 119 109 107
-0.030385 -0.006747 0.020311 64 75 75
0.017723 -0.019731 0.043011 76 73 70
0.003782 0.020776 0.030511 116 112 101
0.023440 0.018187 -0.015289 194 195 191
0.019542 -0.030227 0.035811 66 70 65
-0.044296 -0.009365 0.019111 70 84 90
-0.019862 -0.013212 0.026911 19 25 27
-0.021572 -0.014911 -0.013989 179 190 188
0.000781 0.003593 -0.060889 64 70 68
-0.002209 0.011281 0.005511 51 47 38
-0.047780 -0.012748 0.019811 32 44 34
0.025661 -0.007726 0.000311 147 154 148
0.024822 0.015814 -0.023989 195 191 196
-0.034887 -0.010714 0.023611 29 36 30
-0.020248 -0.012283 -0.014089 184 186 192
-0.031965 0.014266 -0.011989 97 101 113
0.000811 0.003593 -0.060889 34 33 33
0.025456 0.009745 -0.020189 189 190 186
0.026820 -0.005006 -0.011889 174 170 173
0.000813 0.003587 -0.060889 59 51 48
0.000825 0.003600 -0.060889 92 89 86
-0.036710 -0.002461 0.019011 32 40 29
0.014657 -0.001929 0.040711 116 112 103
-0.009245 0.016267 0.031511 48 49 43
-0.010530 -0.011900 -0.012589 188 194 196
-0.021938 0.015779 -0.004089 34 45 41
0.000809 0.003587 -0.060889 49 44 40
0.029263 -0.014488 -0.015489 140 133 114
-0.031666 -0.010998 0.023811 45 54 47
0.024038 0.007763 -0.005989 176 171 167
-0.038105 -0.006861 0.021211 35 39 32
0.004827 -0.009217 -0.007089 171 177 177
-0.055635 -0.023655 0.023011 11 14 17
0.026412 -0.007951 -0.003089 160 158 146
-0.036306 -0.004266 0.019411 36 44 43
0.024847 0.004230 -0.006989 176 173 170
0.017454 -0.034490 0.046211 62 65 49
-0.051305 -0.017499 0.019111 16 27 23
-0.049289 0.002874 0.009411 98 109 109
-0.025264 -0.001366 0.014011 100 117 122
0.025838 0.007407 -0.021389 186 190 183
-0.036695 -0.003396 0.019611 41 49 46
0.000784 0.003585 -0.060889 99 92 84
0.027601 -0.008387 -0.013389 156 160 153
-0.006833 0.008850 0.011811 45 41 64
0.021660 -0.009716 0.020911 115 115 115
-0.002491 0.002662 0.014111 22 27 34
-0.003686 0.008637 0.010311 26 27 21
0.029021 -0.012026 -0.018289 88 69 44
-0.011837 -0.011540 -0.012489 189 196 188
0.010878 0.021013 0.031411 134 120 114
-0.029512 0.008277 0.008111 52 55 56
-0.018162 -0.021151 0.032211 17 18 14
-0.036820 -0.008076 0.022111 35 42 46
0.011822 -0.013745 0.048211 84 85 74
-0.037995 -0.009039 0.022011 28 36 33
-0.048567 0.003079 0.009711 82 91 101
0.000807 0.003601 -0.060889 24 25 21
-0.000389 0.006246 0.013911 131 136 141
0.024832 -0.005436 0.004311 153 153 153
-0.026542 -0.012220 0.023011 24 34 39
0.019646 -0.035986 0.035611 72 70 62
0.014168 -0.010219 0.046411 98 94 83
0.002232 0.002126 0.034911 157 152 150
-0.020007 0.014397 -0.000589 66 66 68
0.023785 0.014696 -0.013389 188 188 182
0.000093 0.002765 0.009911 167 170 171
0.017263 0.029068 0.021211 160 161 157
0.024677 -0.003284 0.004411 160 161 155
0.024686 -0.009076 0.005511 160 160 156
0.000787 0.003579 -0.060889 139 140 129
0.019399 -0.035525 0.037311 72 73 64
0.025504 -0.019179 0.004311 130 131 122
0.022257 -0.013297 0.019311 116 111 107
0.000798 0.003612 -0.060889 75 83 84
-0.025641 -0.013699 -0.015889 196 203 207
0.028228 -0.009327 -0.018689 175 183 180
0.000776 0.003584 -0.060889 69 70 64
0.015945 -0.013777 0.048411 69 65 56
-0.042723 -0.006485 0.018711 56 83 92
0.024359 -0.000994 0.006111 156 160 155
-0.017152 0.015973 -0.002789 46 46 40
0.026906 -0.005859 -0.011589 163 169 167
0.012322 0.032533 0.025411 130 120 118
0.019040 0.027098 0.010611 165 161 162
0.026824 -0.001178 -0.016289 172 182 185
-0.025496 0.015347 -0.011689 117 116 120
0.018406 0.029722 0.012811 160 156 159
-0.045405 0.003442 0.010611 48 60 74
-0.025109 0.018484 -0.011389 34 42 29
0.021558 -0.001195 0.020511 146 143 140
-0.043018 0.004493 0.010411 68 64 65
0.025214 0.002037 -0.008089 162 165 164
0.007596 0.006235 0.033011 132 129 126
0.023498 0.012180 -0.008189 190 184 188
0.028958 -0.011691 -0.020589 99 100 87
-0.050283 -0.004046 0.012711 83 77 83
0.019159 -0.006156 0.033111 114 112 104
0.015176 -0.035548 0.055211 33 34 28
0.025398 -0.000171 -0.007689 167 164 161
-0.020947 -0.012857 -0.015089 177 185 186
0.017050 -0.028061 0.048811 58 59 46
-0.024759 0.004709 0.014311 136 136 132
-0.032330 0.017554 -0.012089 107 91 100
-0.002464 0.022263 0.030211 55 52 49
-0.046938 -0.008375 0.018411 78 86 83
0.022564 -0.003576 0.015211 143 144 140
0.024700 0.001103 -0.002589 164 168 161
0.000799 0.003595 -0.060889 44 48 43
0.000811 0.003596 -0.060889 26 27 23
0.022329 0.020083 -0.008389 186 183 178
0.018601 -0.008682 0.036111 105 103 95
0.023650 -0.028960 0.014911 101 94 84
-0.011222 -0.011304 -0.012089 50 44 59
0.021160 -0.017449 0.025711 89 93 88
-0.000927 0.018881 -0.006889 107 102 100
-0.035451 -0.001733 0.017811 32 35 36
0.018253 0.006129 0.034211 135 133 123
0.021874 0.020648 -0.004189 179 179 179
0.000787 0.003590 -0.060889 103 105 89
0.023623 0.011146 -0.006689 180 182 173
0.000785 0.003588 -0.060889 112 107 103
0.025708 -0.003419 -0.004589 155 154 154
0.027746 -0.007318 -0.015789 169 170 164
-0.050190 -0.005957 0.012811 68 78 85
-0.001829 -0.012776 -0.010889 201 207 218
0.014100 0.019377 0.030211 185 178 170
0.009938 0.004668 0.035111 126 121 117
0.024282 0.012416 -0.014689 184 180 181
0.001194 -0.002996 0.002111 170 169 171
0.000788 0.003593 -0.060889 74 75 66
0.000757 0.003591 -0.060889 90 103 98
0.011498 0.034020 0.024411 128 124 115
0.024569 0.004651 -0.005789 170 170 164
0.000367 0.013283 0.007911 76 65 56
0.022085 -0.029149 0.023311 91 89 70
-0.022622 -0.003681 0.022911 40 46 44
0.012545 -0.021792 0.053711 60 58 46
0.000805 0.003602 -0.060889 22 22 22
-0.007561 -0.016033 -0.010089 166 174 175
0.000788 0.003592 -0.060889 87 89 80
0.025029 -0.006940 0.003811 149 150 144
-0.000589 0.002344 0.010111 157 160 161
0.018744 0.022665 0.019711 155 152 149
-0.012600 -0.018916 0.032611 13 20 14
0.000825 0.003609 -0.060889 88 78 76
0.024891 -0.002553 0.002811 157 158 152
-0.014961 0.000372 0.020311 114 117 118
-0.024502 0.013406 -0.008489 85 97 103
0.022312 0.016624 -0.003689 173 177 172
0.019631 0.021503 0.012511 165 163 155
-0.041204 -0.000481 0.015011 95 106 102
0.025235 0.007920 -0.015389 186 183 178
-0.016292 -0.006481 0.025211 31 32 28
0.026551 -0.017349 -0.001689 128 131 130
0.027337 -0.019397 -0.005689 130 134 129
0.019276 -0.012978 0.033711 88 90 81
0.027638 -0.004490 -0.018589 173 182 175
0.000804 0.003598 -0.060889 26 27 21
-0.003136 0.004111 0.015911 15 21 21
-0.010801 -0.012100 0.028311 24 23 25
-0.006071 -0.009170 0.025811 14 17 18
0.000824 0.003560 -0.060889 16 16 18
0.007923 0.030301 0.026011 126 116 104
0.001400 -0.015110 -0.008689 159 167 166
0.000783 0.003586 -0.060889 67 68 62
0.019057 -0.034070 0.039411 66 64 45
0.022108 0.020270 -0.007289 183 179 172
-0.013455 0.001519 0.019911 100 112 116
0.021166 0.021179 -0.000189 173 173 173
-0.001835 0.010810 0.008511 100 96 99
0.000797 0.003609 -0.060889 35 35 31
-0.031282 0.012488 -0.008889 72 98 100
0.026959 -0.006278 -0.011489 157 169 175
-0.009607 -0.011557 0.028211 21 26 31
0.000786 0.003613 -0.060889 103 104 98
0.020926 0.009886 0.021111 152 153 144
0.022848 -0.014247 0.016011 113 118 108
0.001721 0.004369 0.033111 153 153 157
0.022285 -0.024156 0.020311 98 95 90
-0.010751 -0.005319 0.025011 27 33 35
-0.036571 -0.009238 0.022511 39 39 41
-0.010054 0.008091 0.010811 201 203 211
0.002882 -0.007861 -0.004989 168 173 178
-0.007253 -0.012036 -0.012389 190 198 199
0.000635 -0.002619 0.003011 72 72 76
-0.028189 0.018958 -0.014789 48 42 44
0.028344 -0.016382 -0.011089 132 143 141
0.000755 0.003546 -0.060889 18 13 21
0.005231 0.012562 0.028511 132 129 126
-0.021168 -0.001913 0.022311 52 52 52
-0.036449 -0.009177 0.022511 38 38 38
0.012165 -0.037484 0.051611 78 80 62
-0.050319 -0.015702 0.021511 11 14 15
0.021174 0.013677 0.010711 164 161 158
0.010102 0.021156 0.031811 132 121 114
0.027952 -0.005589 -0.020089 181 188 180
0.028115 -0.007855 -0.019289 182 189 181
0.011480 -0.025461 0.055911 66 66 60
0.024074 0.017191 -0.018889 184 183 185
0.027131 -0.014669 -0.005089 145 153 138
0.017973 -0.008887 0.041311 102 98 91
0.025604 0.011240 -0.023589 194 194 194
-0.008055 0.018856 -0.005089 30 37 31
-0.042637 -0.000925 0.014011 98 94 95
-0.004781 0.019238 -0.003689 42 46 41
-0.020007 0.014263 -0.000589 69 68 72
0.010770 -0.009223 0.044711 104 102 90
0.017025 0.030338 0.023111 170 163 157
0.029034 -0.015022 -0.014489 139 132 145
0.000806 0.003609 -0.060889 30 36 38
0.000822 0.011801 0.027411 134 130 131
0.024976 0.008703 -0.014989 190 184 188
-0.060288 0.017758 0.054111 42 49 41
0.020354 0.025475 0.001211 182 169 173
0.026752 0.000237 -0.017989 181 187 185
-0.004089 0.006673 0.014911 64 65 61
0.028226 -0.010772 -0.015489 155 162 154
0.000767 0.003580 -0.060889 198 205 197
0.000785 0.003586 -0.060889 119 118 118
-0.008075 0.002049 0.020211 78 83 92
0.000779 0.003587 -0.060889 53 54 50
-0.018169 -0.016129 0.029311 11 31 42
0.008133 0.004803 0.034611 134 129 125
0.021881 -0.033100 0.025011 85 86 77
0.014484 -0.004792 0.042811 112 108 101
0.013270 -0.006309 0.043511 104 102 92
0.000806 0.003587 -0.060889 44 45 39
0.019039 0.018017 0.021311 142 145 144
0.020870 0.024775 -0.002489 182 176 180
0.000781 0.003592 -0.060889 66 74 75
0.026912 0.002187 -0.022089 190 189 189
-0.025069 -0.022644 0.031911 14 23 16
0.022169 0.016360 -0.001989 178 174 167
0.000827 0.003561 -0.060889 55 54 61
0.005213 -0.013249 -0.009089 172 172 174
-0.042493 0.009624 0.002011 54 47 60
-0.026567 0.003601 0.014411 93 102 112
0.015974 0.024888 0.031411 165 157 145
0.024911 0.002237 -0.005089 162 161 163
-0.040634 -0.008378 0.020011 39 39 35
0.026454 -0.000655 -0.015189 175 186 184
0.000820 0.003590 -0.060889 32 36 31
0.021981 0.009429 0.008511 156 156 152
0.000818 0.003591 -0.060889 43 40 37
0.000823 0.003591 -0.060889 108 104 97
0.000800 0.003587 -0.060889 71 64 58
0.027786 -0.005372 -0.018989 177 185 184
0.022831 0.012221 -0.001489 175 167 166
-0.050430 -0.007590 0.017411 88 88 92
0.016232 -0.015867 0.049311 70 71 62
-0.012947 -0.005015 0.024511 57 64 58
-0.043046 -0.007461 0.019411 73 86 85
0.024250 0.008053 -0.009189 171 171 171
0.018259 0.011396 0.026511 97 88 81
0.026714 -0.016156 -0.002889 125 140 135
-0.019774 -0.015437 -0.013189 180 188 187
0.027147 0.001364 -0.023189 186 193 187
-0.037869 -0.005542 0.019711 42 55 52
0.022930 -0.013286 0.015511 121 121 121
-0.025564 0.012946 -0.007589 103 103 105
0.027524 -0.012267 -0.008289 153 156 155
-0.019802 0.019638 -0.013689 49 52 55
0.001148 -0.002950 0.002111 176 170 174
-0.009222 -0.007855 0.026011 21 27 25
-0.032875 -0.015383 0.025311 24 18 20
-0.007670 -0.018388 -0.008489 118 124 122
-0.030922 -0.009055 0.021711 38 38 38
-0.028329 -0.014654 -0.015989 188 201 198
0.012263 0.000692 0.038111 121 119 111
-0.021762 0.018587 -0.011289 34 39 44
0.018802 0.022015 0.020511 158 156 148
0.026058 -0.018035 0.000511 119 126 118
0.026689 0.002751 -0.021689 191 188 185
-0.009640 0.001449 0.020311 86 98 102
-0.001787 0.005434 0.014511 93 91 105
0.000799 0.003592 -0.060889 52 52 54
-0.003547 0.018547 -0.004389 56 55 55
-0.030941 -0.002274 0.020511 73 67 69
0.000789 0.003591 -0.060889 87 94 88
0.024540 -0.011391 0.006911 139 141 130
0.015100 -0.002482 0.041211 111 109 99
-0.022742 0.016307 -0.006489 36 43 37
0.025490 -0.001680 -0.004989 161 161 161
-0.010848 -0.008651 0.026211 22 25 24
0.026390 -0.002021 -0.012089 169 175 173
0.027056 -0.007629 -0.009289 157 164 156
0.024432 0.005242 -0.006389 172 171 171
0.021454 -0.003199 0.020811 137 132 130
0.024758 -0.000796 0.003211 156 156 150
0.024359 -0.001142 0.006111 160 164 159
0.025232 -0.000087 -0.005389 174 175 164
-0.029166 0.013710 -0.009689 72 79 83
0.008041 0.002034 0.036211 130 131 127
0.020245 -0.036097 0.033011 63 68 54
0.024704 -0.012616 0.006811 133 131 121
0.018765 -0.023876 0.038611 76 74 66
0.000827 0.003610 -0.060889 79 72 66
0.004562 0.018190 0.026711 161 153 150
0.000778 -0.006688 0.000311 33 32 34
0.013892 0.000905 0.038311 115 115 111
0.010269 0.031198 0.025811 125 116 107
0.000789 0.003585 -0.060889 130 132 116
-0.003110 0.003658 0.015411 27 27 29
0.023508 -0.025626 0.014811 96 97 84
0.018031 0.011927 0.026011 93 82 73
-0.022001 0.019951 -0.013889 55 58 57
0.024815 0.016062 -0.023489 191 187 192
0.007464 0.015286 0.026711 138 138 132
-0.038553 -0.004621 0.019411 47 47 43
0.025266 -0.008844 0.002811 143 146 147
0.023152 0.003801 0.007711 156 157 148
