ply
format ascii 1.0
element vertex 1216
property float x
property float y
property float z
property uchar blue
property uchar green
property uchar red
end_header
0.029156 -0.007376 -0.032444 124 125 122
-0.043987 0.007025 0.027956 63 69 68
0.029344 -0.009325 -0.034844 161 158 148
0.028669 0.021990 -0.011044 107 112 115
-0.020635 -0.032127 0.012456 23 27 26
-0.044260 0.004580 0.013556 6 9 12
-0.016056 -0.003915 0.018656 67 89 102
-0.052464 -0.015541 0.004156 127 127 121
0.035660 0.010076 -0.025144 179 180 177
-0.014883 0.024062 -0.001044 122 144 164
0.028723 0.008095 -0.021544 121 125 125
0.028613 -0.015068 -0.022444 116 125 124
-0.039546 -0.023018 0.016056 123 130 126
-0.051115 0.001422 0.010456 95 116 145
0.029297 0.005907 -0.027244 153 158 161
0.028524 0.021210 -0.006744 90 99 98
-0.048419 -0.010320 0.019356 33 80 112
-0.052107 0.013961 0.018756 71 76 72
0.029379 0.005240 -0.027644 168 172 171
0.008805 -0.028227 0.015756 128 133 129
0.028310 -0.018515 -0.013544 112 121 119
0.024686 -0.019041 0.001056 10 10 10
-0.011093 -0.004025 0.018156 115 116 82
-0.033002 -0.026507 0.014256 135 141 134
-0.047691 0.025790 0.000956 172 173 170
0.042707 0.010183 -0.024944 182 182 182
0.012362 -0.011205 0.009256 29 36 47
0.031721 0.000724 -0.029844 178 179 176
0.021359 -0.012501 0.007756 17 32 33
-0.006439 0.002472 0.014256 82 83 75
-0.059410 -0.026937 0.013456 143 148 144
-0.052102 -0.011909 0.002956 68 73 69
0.028649 0.005147 -0.017544 115 119 119
-0.054175 0.011603 0.017356 41 47 40
-0.049140 0.018654 0.016356 144 147 139
0.035648 0.008190 -0.026144 181 181 181
0.012568 -0.007136 0.017856 81 74 51
0.029029 -0.006903 -0.029744 116 122 121
-0.058691 -0.029602 0.012156 140 148 141
0.028139 -0.014296 -0.001044 96 105 103
-0.019470 0.007475 0.030956 13 12 9
-0.026952 0.021685 0.009056 171 167 167
-0.037779 -0.006698 0.015556 130 135 138
-0.033542 -0.018729 0.016556 140 140 140
-0.013118 -0.000954 0.016156 102 107 87
0.030102 0.004625 -0.027944 178 178 178
0.024759 -0.032934 0.013156 12 12 12
0.035965 -0.007276 -0.033844 183 184 181
0.009007 0.018602 -0.011444 187 181 179
-0.021935 0.021623 0.003756 168 166 166
0.031490 -0.003432 -0.032044 181 182 179
-0.060011 0.010409 0.021056 126 126 120
-0.000262 -0.002019 0.015056 48 65 98
-0.006384 -0.009806 0.020456 67 62 23
0.025235 -0.008684 0.023556 79 82 85
0.036770 0.007280 -0.026344 181 181 175
0.022856 0.011979 0.001856 157 152 147
-0.033276 0.023692 0.005956 169 165 165
0.028259 -0.008055 -0.012844 105 111 111
0.028453 -0.011504 -0.012844 109 118 117
0.010419 0.021559 -0.012544 170 159 161
0.013929 0.021218 -0.012544 196 189 184
-0.035104 -0.016023 0.003856 33 34 31
0.033759 -0.001554 -0.031044 181 181 175
-0.007485 -0.000578 0.015356 55 40 0
-0.057030 0.018386 0.016856 149 147 147
0.005686 -0.020827 0.010856 63 63 73
-0.012837 -0.032928 0.011756 71 82 80
0.015582 -0.008170 0.018856 44 41 31
-0.024109 -0.017978 0.000356 66 72 71
0.002794 0.000168 0.028856 93 99 99
-0.032692 0.022687 0.006456 170 166 166
0.028865 -0.017306 -0.030544 117 125 118
0.020246 -0.010712 0.022356 53 42 10
0.010552 0.000509 0.013156 99 82 35
-0.013460 -0.032983 0.011556 67 78 76
0.028482 -0.012559 -0.022044 114 120 119
-0.036177 0.015503 0.015856 177 174 171
0.028890 -0.012407 -0.029344 119 125 124
-0.058193 0.012709 0.015156 94 107 79
-0.041517 0.007509 0.024956 32 36 25
0.028166 0.024280 -0.003844 84 92 94
-0.027808 0.002703 0.028456 105 109 109
-0.046839 -0.000517 0.011456 27 74 140
0.036041 -0.009260 -0.034844 182 183 180
0.028564 0.013215 -0.011944 118 122 121
0.013042 0.011566 0.002956 124 116 114
0.028966 0.002991 -0.026444 119 123 123
0.031183 -0.013009 -0.037044 182 183 180
-0.023839 -0.023991 -0.002144 10 14 13
0.001169 0.026992 -0.000644 159 158 162
0.028487 -0.018863 -0.014944 112 118 117
0.002075 -0.030880 0.013656 109 115 114
0.022894 0.015853 -0.003744 68 67 71
-0.027613 -0.008863 0.005356 90 96 95
-0.011756 0.026054 0.000856 129 135 142
0.006193 0.017861 -0.008944 160 151 153
0.038020 0.021684 -0.019144 180 180 180
0.006773 0.019320 -0.011744 167 160 162
0.034598 0.014292 -0.023144 176 180 180
0.037016 -0.002173 -0.031544 184 184 178
0.030858 -0.002846 -0.031744 179 181 175
0.028284 0.018514 -0.003444 89 95 95
0.031385 -0.011362 -0.036244 185 185 179
0.038558 0.024237 -0.017644 182 180 181
0.007113 0.019737 -0.012044 153 146 147
0.036377 -0.003673 -0.032044 183 184 176
-0.019786 0.014496 0.017856 17 15 15
0.028772 0.007048 -0.016844 119 123 123
-0.046926 -0.024436 0.015156 79 88 87
0.038328 0.004755 -0.027544 182 181 178
-0.010467 0.012457 0.028056 40 44 44
-0.027573 0.001602 0.027956 108 108 109
0.001394 -0.013346 0.007156 20 23 44
-0.020147 -0.027046 -0.003844 10 11 3
0.028144 -0.005167 -0.003544 101 105 104
-0.035407 -0.000021 0.012756 158 110 12
0.021487 -0.031602 0.005356 22 23 20
0.000676 0.007261 0.033556 62 68 68
0.027178 -0.022232 0.003656 91 97 96
0.028845 -0.019197 -0.025744 117 125 118
-0.021793 0.022027 0.003156 143 147 146
-0.014278 -0.025550 0.016356 10 10 10
0.032546 0.005749 -0.027344 180 180 180
0.034226 0.012224 -0.023944 179 179 179
0.028398 -0.013772 -0.008944 106 112 112
0.014917 -0.011178 0.007056 44 61 62
-0.015421 0.006140 0.032156 86 92 91
-0.035300 -0.002551 0.014656 140 125 71
0.029407 -0.003597 -0.030744 121 125 125
0.012717 0.021266 0.001956 113 124 137
0.028254 -0.022709 -0.005544 104 111 107
-0.013617 0.014847 0.013556 125 153 181
0.024553 0.023239 -0.010044 81 87 94
0.011394 0.021315 -0.012544 183 173 171
0.028482 0.004460 -0.009944 111 117 117
0.028276 0.025795 -0.006344 102 110 112
-0.038638 0.029180 -0.005544 182 180 174
-0.002742 0.022619 0.000956 162 173 186
-0.022805 0.028216 -0.002644 187 185 185
-0.039776 -0.024113 0.013556 46 55 53
-0.040029 -0.029587 0.013656 127 133 132
-0.036119 -0.019736 0.016356 140 144 143
-0.032510 0.009502 0.021756 69 67 43
0.002600 0.006324 0.032756 99 103 102
0.011298 -0.031202 0.014356 126 126 126
0.001901 -0.000802 0.029456 77 87 89
-0.050290 0.010606 0.023556 60 61 53
0.028472 0.006064 -0.007244 113 117 116
0.038558 0.021804 -0.019044 181 181 181
0.036402 0.002308 -0.029144 183 182 179
-0.039832 -0.017219 0.005056 0 6 0
-0.020747 0.016859 0.014256 143 146 149
-0.025152 0.007245 0.015156 48 55 51
0.029157 -0.007809 -0.033244 122 126 125
0.028493 0.025969 -0.013844 126 129 132
0.016220 0.015874 0.009556 49 63 73
-0.002215 0.023284 0.003356 95 95 105
0.033113 0.008948 -0.025644 176 180 179
-0.015589 0.014780 0.015656 126 141 162
0.031781 -0.009497 -0.035044 183 184 176
0.012495 0.022621 -0.012744 138 133 128
-0.038759 -0.024538 0.014556 37 40 43
-0.000656 0.014338 0.024556 108 109 106
0.028829 -0.007032 -0.017544 108 117 116
-0.015155 -0.028145 0.014656 113 119 118
0.023098 -0.032806 0.007856 17 18 15
-0.004773 0.001447 0.014056 22 22 32
0.040903 0.021213 -0.019244 179 179 179
0.028687 -0.012397 -0.014644 109 117 119
0.024764 0.023462 -0.009644 82 89 93
0.022587 0.018852 -0.011844 173 167 165
0.039545 0.001576 -0.029144 179 180 177
0.028949 -0.007894 -0.027344 116 122 121
0.027929 0.003470 0.011456 79 85 85
-0.052419 0.010273 0.022156 55 58 50
0.032228 -0.009007 -0.034944 182 182 176
-0.035556 0.022479 0.007456 168 162 160
0.029194 -0.015281 -0.035244 120 127 123
-0.056103 0.008792 0.023456 43 49 49
0.023655 -0.003572 0.003356 30 30 31
0.017095 -0.032136 0.013556 83 92 91
0.031884 0.012426 -0.023944 173 177 177
0.029375 -0.010441 -0.035444 162 171 162
-0.036057 -0.023123 0.014656 103 96 97
0.005077 -0.007435 0.020856 62 65 57
-0.016218 0.013641 0.025156 102 106 105
0.037810 0.021980 -0.019044 178 178 178
0.034404 -0.013463 -0.037144 183 183 184
0.028785 0.002273 -0.020744 116 122 122
0.030864 0.003117 -0.028744 177 181 180
0.028382 -0.008528 -0.012044 106 112 112
-0.003318 -0.010890 0.008056 71 69 70
-0.000214 0.023175 0.006656 94 101 105
-0.018698 0.015896 0.013756 141 159 176
0.028129 -0.023462 -0.005244 103 112 110
-0.037287 0.010916 0.021856 86 82 54
-0.044066 -0.031253 0.012456 136 142 135
0.028411 0.005180 -0.003944 111 115 115
-0.017147 0.023409 0.001056 36 78 133
-0.036380 -0.019765 0.013856 137 144 140
0.037779 0.007686 -0.026144 177 181 180
0.038006 0.009523 -0.025444 181 181 181
0.008050 0.010121 0.002956 126 124 124
-0.016649 0.019531 0.008956 20 74 146
-0.044891 -0.009032 0.017056 145 145 146
-0.022308 0.006297 0.031956 113 117 117
0.032490 0.004821 -0.027744 179 180 177
0.014076 0.019715 -0.011744 192 186 184
-0.008515 0.027653 -0.001444 191 195 195
0.027995 0.010697 -0.000744 107 111 110
-0.052282 -0.011608 0.002956 59 70 69
-0.018203 0.028093 -0.002844 188 188 189
-0.012067 0.029289 -0.004644 189 187 187
-0.043762 0.002873 0.011656 34 54 72
0.031689 0.023499 -0.018344 174 174 175
-0.001352 0.006907 0.032956 63 69 69
0.015344 0.019271 -0.011144 189 180 181
0.014483 0.002059 0.002356 65 56 43
0.024570 -0.026758 -0.001844 10 14 13
0.013026 0.010410 0.003456 94 90 91
0.008385 0.016656 0.008356 56 68 78
0.028372 -0.012727 -0.008544 103 112 110
0.000195 -0.006139 0.017856 50 72 106
0.037311 -0.004542 -0.032444 181 182 179
0.028599 -0.016833 -0.019444 118 122 121
-0.042984 -0.023828 0.015956 135 139 138
-0.010324 0.027797 -0.002044 194 194 195
0.029022 -0.014336 -0.032644 121 126 122
-0.016322 -0.002603 0.018256 33 39 38
-0.019599 0.028203 -0.003344 188 186 187
0.028715 0.004477 -0.020044 113 119 119
0.033106 0.000584 -0.029944 180 181 178
-0.009142 -0.026278 0.015756 55 60 56
-0.007750 0.001858 0.013856 79 107 142
-0.004739 0.000826 0.014356 93 82 115
0.008689 -0.011178 0.007856 24 35 53
0.024315 0.025561 -0.008044 90 99 108
-0.011736 -0.029753 -0.001044 9 17 39
-0.029859 0.026824 -0.000444 189 190 187
0.003293 0.022053 0.009256 138 136 142
0.041517 0.018263 -0.020744 181 180 177
0.024252 0.008263 0.012656 119 116 113
-0.033855 0.002684 0.017656 47 54 50
-0.028884 0.000663 0.012256 119 112 102
-0.019315 -0.020035 0.015556 17 14 11
-0.051909 -0.017196 0.005756 67 74 78
-0.042254 -0.030917 0.012456 137 145 138
-0.043191 0.008710 0.023356 40 47 43
-0.003600 0.027522 -0.001144 185 185 186
0.029151 0.015964 -0.022144 133 135 140
-0.068182 0.007244 0.025856 104 107 110
0.033801 -0.006508 -0.033544 184 183 180
0.041829 0.005895 -0.026844 181 180 177
0.028776 -0.014156 -0.023944 115 124 122
-0.015787 0.016709 0.011556 92 130 175
-0.016933 -0.024886 0.015756 30 30 31
0.027955 -0.016930 0.002056 96 102 101
-0.028341 0.027689 -0.002544 188 187 184
0.016450 -0.009927 0.020256 27 44 31
0.020768 -0.014011 0.007656 61 81 86
0.001577 0.024696 0.003656 31 25 31
-0.026283 -0.009857 0.004956 10 15 11
-0.020337 0.029104 -0.004244 189 187 187
-0.034983 0.028660 -0.003944 181 179 179
-0.009742 -0.019942 0.012356 88 97 101
-0.046089 -0.009879 0.017056 116 132 149
-0.038268 -0.029418 0.013956 134 140 139
0.013630 -0.001660 0.000356 114 118 117
0.029384 -0.010985 -0.035544 152 150 150
0.029126 -0.001295 -0.029844 122 121 125
-0.046774 -0.025381 0.014156 18 18 18
-0.040302 -0.003245 0.013656 181 174 151
-0.043799 -0.034945 0.010056 142 151 137
-0.019990 0.010780 0.028756 23 23 23
0.020378 -0.022229 0.011156 60 76 79
-0.033039 -0.020296 0.016356 135 141 140
0.034914 -0.000878 -0.030644 181 181 175
-0.027911 -0.028635 0.013256 130 133 136
0.028806 -0.020061 -0.020144 115 124 122
-0.008618 -0.010735 0.019756 16 28 38
-0.041659 -0.022433 0.015956 141 147 140
-0.007323 0.012693 0.028056 104 109 105
-0.011865 -0.032799 0.005256 8 16 18
-0.037665 0.012154 0.020856 53 54 32
0.028571 0.009159 -0.009044 118 122 122
0.029272 -0.003488 -0.032144 159 165 164
-0.012983 -0.028492 0.014456 92 103 102
-0.007872 -0.032143 0.012856 93 104 102
-0.018735 0.029252 -0.004444 189 187 187
-0.043839 0.028625 -0.004044 176 174 174
0.013035 0.025350 -0.010844 107 114 123
0.003755 -0.030587 0.014556 104 113 112
-0.057294 0.016504 0.018456 118 122 111
0.032087 0.011655 -0.024444 179 179 180
0.033933 0.000332 -0.029944 181 180 177
0.028024 -0.024435 -0.001844 104 114 109
-0.046954 0.017976 0.018256 147 146 143
0.030980 0.013658 -0.023444 172 176 175
0.007931 -0.034862 0.010956 36 36 37
-0.059102 0.007726 0.029456 68 77 76
-0.025889 -0.007594 0.020256 134 138 137
0.013203 -0.033007 0.006956 28 27 24
0.022678 -0.024459 0.014756 61 74 73
0.002934 -0.018765 0.008356 149 153 152
-0.022376 0.025610 0.001556 185 189 189
0.033334 0.009483 -0.025444 180 180 181
0.028534 0.011001 -0.014544 121 125 125
-0.013998 0.013382 0.026356 47 40 49
0.028927 -0.009793 -0.027644 116 122 121
-0.021025 0.018519 0.006656 146 158 166
-0.001305 0.027718 -0.001244 172 171 175
0.034164 -0.004955 -0.032844 179 179 179
-0.055994 0.011844 0.017656 51 68 43
0.004375 -0.033009 0.006656 27 40 46
0.041535 0.008350 -0.025744 184 183 180
-0.014574 0.012466 0.028156 36 32 33
0.038768 0.011682 -0.024044 180 181 178
0.028336 0.026219 -0.003644 99 104 107
0.026159 -0.000520 0.011556 69 73 72
-0.053415 -0.030266 0.010856 138 144 143
-0.051361 0.012650 0.016556 64 67 59
0.028382 0.001549 -0.012044 109 113 112
-0.015865 0.000232 0.016256 166 170 169
-0.051813 -0.007936 0.019356 17 89 133
-0.005553 0.012666 0.026956 106 110 109
-0.015768 0.028758 -0.003344 191 189 189
-0.025825 0.003101 0.028956 108 112 111
0.036634 -0.005648 -0.032944 182 183 180
0.013636 -0.027736 0.014456 107 113 113
-0.042555 0.001389 0.013156 107 75 17
0.028124 0.003652 0.000956 98 102 102
-0.047879 0.011521 0.019556 59 62 54
-0.006127 -0.011098 0.021356 64 63 28
-0.021978 -0.031320 0.012456 133 139 138
0.028403 -0.014355 -0.010944 104 113 112
-0.051259 -0.027037 0.013556 138 145 141
0.018728 0.020277 0.003156 106 118 133
-0.001671 -0.029556 0.014556 124 130 130
0.017022 -0.021523 0.010256 54 69 75
-0.017662 -0.027102 0.015056 124 130 129
-0.017811 -0.028319 0.014556 125 134 132
0.011070 -0.032982 0.012756 125 131 130
0.028225 -0.017109 -0.003644 98 107 106
0.007986 0.003069 0.023256 55 59 58
-0.028021 -0.010099 0.005756 13 12 9
-0.027521 0.022773 0.007356 169 167 167
0.023256 0.010317 0.003756 122 115 117
0.032224 0.001151 -0.029644 180 180 180
0.028413 0.017715 -0.009844 104 112 114
0.003455 0.028951 -0.003744 162 161 165
0.045263 0.020350 -0.019344 181 181 181
0.034144 0.015202 -0.022744 178 178 179
0.003536 -0.016449 0.007456 116 120 119
-0.003869 -0.027494 0.014556 132 138 137
0.028625 0.020542 -0.016244 116 122 122
0.034841 -0.011522 -0.036044 185 187 181
0.022696 0.025460 -0.009144 101 108 117
-0.053494 -0.006350 0.017056 8 62 100
0.028612 -0.008278 -0.017644 108 116 118
0.028860 0.001270 -0.023644 116 122 122
-0.016974 0.026811 0.000456 182 186 186
0.046235 0.021503 -0.018744 178 182 181
-0.002929 -0.024667 0.014056 14 12 12
-0.034563 0.027554 -0.001044 182 182 182
-0.047358 -0.028737 0.013156 136 142 135
0.028657 0.006203 -0.022744 120 124 123
-0.024152 -0.008302 0.004856 113 111 111
0.033954 0.013291 -0.023444 178 178 179
-0.048306 -0.027700 0.014556 141 145 144
0.032626 0.006492 -0.027044 176 176 177
-0.018180 0.027750 -0.001844 187 187 188
-0.050908 0.020889 0.010856 154 154 148
-0.036993 -0.029315 0.013856 137 144 140
-0.039943 -0.010112 0.016156 108 113 109
0.028780 -0.015775 -0.023444 117 123 122
0.028307 -0.030214 -0.001844 91 102 94
0.024861 -0.007084 0.007756 12 12 12
-0.004496 -0.012883 0.007756 96 103 107
0.028178 -0.014303 -0.007344 102 108 108
0.034994 0.007743 -0.026344 179 179 179
-0.025303 0.019428 0.012956 171 168 165
0.025036 -0.015121 0.003056 8 12 12
0.036452 -0.008436 -0.034244 179 183 182
0.028683 0.011169 -0.018644 117 123 123
0.028844 -0.017212 -0.029444 118 125 121
-0.033836 0.023840 0.005556 166 162 162
-0.015122 -0.030271 -0.001844 3 13 42
0.028948 0.004548 -0.026044 127 132 135
-0.010257 -0.012500 0.005256 41 50 61
-0.019155 -0.033808 0.011956 64 68 68
0.033080 -0.004405 -0.032444 181 182 179
0.020626 0.010733 0.003656 130 125 120
-0.011859 0.007807 0.032856 84 90 90
0.028911 -0.000428 -0.027344 117 123 122
-0.037948 -0.033220 0.008556 27 26 23
-0.019818 -0.001705 0.024256 113 117 116
-0.035150 -0.023646 0.016056 128 132 131
0.028195 0.024198 -0.003744 84 93 92
-0.025466 -0.000903 0.032756 15 15 15
0.021012 0.023948 -0.010044 106 113 122
-0.020217 0.027286 -0.001344 185 185 186
-0.008163 -0.000436 0.015256 51 35 0
0.001267 0.022880 0.008356 146 142 148
0.028360 -0.008685 -0.006244 102 108 108
-0.002332 0.012705 0.026556 106 110 110
0.011807 -0.019721 0.010656 67 71 76
0.004339 0.000188 0.021156 93 99 99
-0.011253 0.008536 0.032656 75 86 85
-0.040035 -0.035429 0.009356 96 84 94
-0.036820 -0.004312 0.020256 82 91 89
0.018280 0.021599 -0.012744 187 182 177
0.028916 0.002133 -0.018844 114 120 120
-0.038902 -0.027542 0.013856 140 146 139
0.027883 -0.014034 0.004256 90 97 93
-0.025653 -0.011734 0.004756 37 35 29
0.032004 0.006598 -0.027144 178 178 178
-0.035201 0.001005 0.011856 190 150 62
-0.050522 -0.010721 0.005356 68 75 84
-0.001152 -0.034505 0.007356 27 48 64
0.025085 -0.007930 0.023556 22 22 23
0.000546 0.012531 0.026356 103 103 103
0.028853 0.022909 -0.014444 118 124 124
0.004024 0.029361 -0.004444 169 166 170
0.004632 0.000259 0.021256 54 54 55
-0.014127 0.021276 0.008656 16 54 126
0.028254 -0.015598 -0.013144 105 114 112
0.023686 -0.032408 0.013556 12 10 11
0.013878 0.019666 -0.011744 192 186 184
0.028708 -0.002821 -0.016144 113 119 118
0.028724 0.004054 -0.017944 112 118 118
0.029305 0.001221 -0.029544 155 155 156
-0.000731 0.018515 0.007656 79 115 153
0.010793 0.008408 0.007856 118 112 110
-0.012936 0.011681 0.030056 36 38 43
-0.019476 0.003418 0.020256 109 115 115
-0.012752 0.022266 0.007356 18 49 122
-0.011970 -0.013959 0.005756 33 40 56
0.022338 0.012687 0.001356 142 138 139
-0.029732 0.014634 0.017256 177 174 171
-0.000517 -0.010794 0.023556 67 77 79
0.008330 -0.021937 0.013556 98 105 109
-0.045938 0.007747 0.028256 47 56 54
0.016728 -0.025365 0.012756 67 78 77
-0.044429 0.027482 -0.001444 174 172 172
0.014261 -0.023929 0.010856 121 123 128
0.028336 -0.012042 -0.013044 107 116 114
0.028739 -0.016357 -0.020644 116 122 121
-0.023089 0.022352 0.003756 164 162 162
0.027689 0.002856 0.007356 86 92 91
0.033218 0.007743 -0.026344 175 181 181
0.043357 0.010950 -0.024344 180 181 178
0.031849 0.006852 -0.026844 178 178 178
-0.053169 -0.022267 0.015856 128 135 131
-0.054113 -0.003783 0.013556 75 139 155
-0.022743 0.017437 0.012756 169 166 163
-0.004573 -0.024944 0.015956 14 12 12
-0.045105 0.023175 0.006656 165 165 165
0.021080 -0.008787 0.022456 73 74 59
0.029017 0.000069 -0.027444 119 123 123
-0.018065 -0.002529 0.021056 19 15 15
0.021969 0.018727 -0.011544 168 162 160
-0.009513 -0.010116 0.019456 28 47 75
0.014092 0.005848 0.004456 109 107 107
-0.014697 -0.011260 0.019356 36 47 65
0.032797 0.013293 -0.023644 176 180 179
0.033255 -0.015022 -0.037944 181 186 189
0.028154 -0.025889 -0.008744 102 111 109
0.022307 -0.007576 0.024556 68 68 68
0.028894 -0.009295 -0.032144 121 126 122
-0.002487 0.028506 -0.002944 180 180 181
-0.048982 -0.028330 0.013156 139 146 142
-0.052859 0.012774 0.017056 57 58 55
0.031333 -0.001887 -0.031244 179 180 177
-0.017881 0.022913 0.000956 50 92 139
-0.033926 0.002613 0.017656 57 64 60
-0.014492 -0.013849 0.006156 31 38 47
0.033827 0.002234 -0.029044 180 181 178
-0.022698 0.022924 0.003856 152 152 152
0.005566 -0.015029 0.007656 37 41 60
0.003414 -0.024304 0.014456 100 101 98
-0.024849 0.028990 -0.003944 187 185 185
-0.057053 0.013275 0.017756 43 52 36
-0.004712 0.016029 0.012356 69 113 168
-0.016159 0.011770 0.030156 65 65 66
-0.019297 -0.028940 0.013956 35 34 31
0.020100 -0.021565 0.010656 48 66 71
0.001228 -0.011581 0.023256 54 63 62
0.028330 0.009041 -0.012344 120 124 124
-0.055681 -0.002829 0.012356 105 115 117
0.030634 0.022520 -0.018744 175 173 174
0.005070 -0.002269 0.021756 79 85 85
-0.048310 0.001689 0.010056 30 48 99
-0.037658 0.009022 0.025956 51 50 28
0.021530 0.011824 0.002056 157 150 145
-0.019093 -0.029749 0.012956 33 39 39
0.032010 -0.007233 -0.034044 181 183 177
-0.058044 0.008046 0.027956 67 76 75
0.028637 -0.019668 -0.019344 116 123 119
-0.026388 0.003966 0.028456 108 112 112
-0.022031 0.020051 0.004956 153 151 151
-0.027047 -0.000358 0.033956 29 27 27
0.020073 -0.002191 0.017156 96 74 26
-0.036704 -0.010731 0.018656 72 76 76
0.028509 -0.010067 -0.013244 110 116 116
-0.028436 0.000870 0.011956 100 93 83
-0.039956 -0.026663 0.014756 123 130 126
0.003677 -0.028658 0.014956 124 130 130
0.020523 0.021998 -0.012044 151 144 145
0.017165 -0.012786 0.006856 62 77 83
0.027651 0.005007 0.025756 61 57 58
-0.019872 -0.021033 0.014556 98 105 101
-0.011096 0.026231 0.001056 131 137 144
-0.024941 0.007324 0.015356 27 31 30
0.036768 0.002417 -0.029144 183 182 179
-0.037435 -0.032813 0.010956 130 140 135
0.028599 0.008730 -0.016444 123 123 124
0.042594 0.021692 -0.018844 181 180 177
-0.018028 0.028305 -0.003044 188 188 188
0.008989 -0.008297 0.019356 56 53 43
-0.052987 -0.027087 0.014356 133 140 136
0.041195 0.016739 -0.021544 180 180 180
-0.002279 -0.024006 0.013656 96 105 104
0.039979 0.002124 -0.029044 182 182 176
0.044950 0.019160 -0.020144 180 180 180
0.025258 -0.033127 0.012956 110 118 111
-0.014867 0.022553 0.006156 8 44 116
0.013412 0.019861 -0.011944 196 188 186
0.021226 0.023572 -0.010444 98 108 115
-0.009184 -0.031080 0.013456 108 117 116
0.028708 0.012147 -0.018344 120 124 124
-0.007825 0.018589 0.011656 13 59 136
0.033334 -0.003955 -0.032244 180 181 178
0.034405 0.005208 -0.027544 175 180 176
0.028874 -0.010840 -0.031044 119 125 124
0.039346 0.005132 -0.027544 180 181 178
0.030725 0.015538 -0.022544 175 179 179
-0.003188 -0.017591 0.010556 73 86 92
0.038657 -0.000156 -0.030244 182 182 176
-0.008993 -0.003655 0.017956 35 65 134
-0.043112 0.003209 0.012056 11 17 16
-0.036606 0.004363 0.028556 20 26 26
-0.012694 0.005400 0.031956 86 93 89
0.034175 0.005559 -0.027344 180 180 180
-0.018644 0.027312 -0.000544 187 187 188
-0.034975 -0.002231 0.017956 79 85 84
0.028699 0.020550 -0.014744 118 123 126
0.037431 0.021226 -0.019344 181 181 182
0.014280 0.001531 0.001556 80 66 54
-0.012808 -0.025200 0.016356 7 11 10
-0.056190 0.022032 0.009456 162 160 160
-0.007574 0.001310 0.014056 19 39 64
-0.024228 0.001945 0.010956 22 20 14
-0.021908 -0.022328 0.016356 119 125 124
0.028557 0.013590 -0.014344 121 125 125
0.037802 0.022598 -0.018644 180 178 178
0.009641 0.018356 -0.011644 126 129 137
-0.048147 0.028026 -0.002544 179 171 176
0.035205 -0.007387 -0.033944 184 184 178
-0.041334 -0.015465 0.004656 92 99 95
0.042279 0.020981 -0.019144 176 177 174
0.028395 0.027447 -0.003444 116 119 122
-0.010664 0.008695 0.032556 67 78 77
-0.013248 0.014599 0.020456 43 46 62
0.028353 0.007229 -0.010944 116 120 120
0.029449 0.006097 -0.027244 170 174 179
0.031652 -0.000864 -0.030844 179 180 177
0.028818 -0.010851 -0.023744 114 121 117
0.019805 0.011424 0.002756 151 146 141
0.036539 0.007880 -0.026144 183 181 181
-0.040790 -0.017652 0.003056 26 28 22
-0.048218 0.027458 -0.002044 178 173 177
-0.015692 -0.002272 0.017356 80 124 140
0.001849 -0.027810 0.015756 134 140 139
-0.007433 0.017674 0.012156 28 73 144
0.034616 -0.007681 -0.034244 184 183 180
0.010353 -0.001450 0.014656 114 115 112
-0.058958 0.010434 0.020456 43 57 52
0.008249 0.000444 0.013056 82 65 18
-0.036107 -0.024589 0.013556 10 10 10
-0.025539 -0.027244 -0.003344 130 136 135
0.000676 0.026917 -0.000144 160 159 163
0.026957 -0.004245 0.011556 76 80 79
0.030081 -0.012233 -0.036444 180 183 175
0.029750 -0.011740 -0.036144 182 184 178
-0.057924 0.001677 0.011356 123 121 109
-0.025175 0.023336 0.001456 173 170 167
0.039552 0.019896 -0.019844 179 179 180
0.018222 -0.012390 0.006756 25 43 55
0.033605 0.024229 -0.018044 177 175 176
0.026086 -0.002568 0.028056 75 81 80
-0.018898 -0.010407 0.003356 12 11 8
0.044498 0.019636 -0.019844 178 178 178
0.030724 0.010352 -0.025144 179 179 180
0.029514 -0.004903 -0.032744 178 180 174
0.045482 0.017356 -0.020944 180 180 180
-0.030806 0.026512 -0.000144 192 192 192
0.029162 -0.003386 -0.030444 119 123 123
0.045815 0.017733 -0.020644 179 179 179
0.002696 0.026172 0.001456 152 149 153
0.001290 -0.006189 0.025256 73 79 86
0.000289 0.018132 0.017456 126 129 132
-0.036865 -0.010681 0.019356 80 83 86
-0.011901 0.028250 -0.002544 192 192 193
-0.049767 0.022410 0.007156 162 163 160
0.027609 -0.026726 0.001656 96 106 101
-0.063291 -0.009405 0.019556 114 120 119
0.004666 0.028412 -0.003544 154 153 157
-0.021373 -0.003732 0.026456 123 127 127
0.015956 -0.019299 0.008956 65 77 79
-0.005376 -0.030101 0.013956 125 134 132
-0.038213 -0.033448 0.008956 27 26 23
-0.010829 0.012595 0.027856 116 117 114
-0.015396 -0.033084 0.012156 70 81 79
0.030859 -0.006866 -0.033744 180 182 176
0.034479 0.012606 -0.023844 179 179 179
-0.040259 0.023733 0.002756 152 156 156
0.023352 -0.027504 0.016556 85 91 91
0.029274 0.022409 -0.018944 165 167 172
-0.003966 0.010680 0.027456 39 37 38
-0.040275 0.009928 0.023556 64 62 38
0.027815 -0.003516 0.006856 94 94 94
0.012777 0.016785 0.008756 80 92 102
0.023473 -0.027894 0.016456 84 90 90
-0.045565 -0.030241 0.012256 137 145 138
-0.033036 -0.013468 0.003856 11 12 9
0.010175 0.021852 -0.012544 161 154 155
0.028424 0.020950 -0.008544 93 101 103
0.029014 0.000234 -0.024144 112 118 117
-0.005984 0.026231 0.001056 164 169 172
-0.005717 -0.011461 0.019756 47 43 29
-0.016659 0.017093 0.011056 101 138 181
-0.047020 0.015225 0.021356 69 70 67
0.028739 -0.020114 -0.017544 115 124 122
-0.050366 -0.032401 0.011256 138 147 138
0.028774 -0.014022 -0.022044 116 123 119
-0.028560 0.024325 0.002056 171 168 165
0.028337 0.005771 -0.011144 115 119 119
0.005129 0.014163 0.000156 147 138 139
-0.006043 -0.031002 0.002256 31 36 39
-0.000948 0.015996 0.021056 124 124 125
-0.041120 0.012159 0.022456 34 39 35
-0.012429 0.021253 0.009156 11 48 118
0.029194 -0.012201 -0.035244 121 128 124
-0.065143 0.009333 0.021456 84 97 76
-0.001382 0.012676 0.026256 107 111 110
0.006887 0.003422 0.001356 75 75 76
0.006809 -0.020217 0.011056 43 47 73
0.028781 -0.004365 -0.022744 112 118 117
0.005746 -0.029623 0.015156 121 127 126
0.028694 -0.000011 -0.022244 118 122 122
-0.011879 0.017959 0.012656 28 80 150
0.028841 0.003223 -0.019944 112 120 122
0.029105 0.008377 -0.025144 120 125 128
0.028310 -0.002119 -0.003544 108 112 111
0.002618 0.028412 -0.003544 148 149 157
0.032744 0.004396 -0.028044 179 179 179
-0.030659 0.021510 0.010056 171 167 167
0.029066 -0.002603 -0.029044 114 120 120
-0.009999 0.014375 0.014656 118 147 180
-0.052396 -0.014480 0.003456 138 144 144
0.028336 -0.011520 -0.003644 103 109 108
0.011669 -0.019104 0.010556 57 58 73
0.027030 0.027222 -0.001544 116 119 122
-0.013917 0.024216 0.000356 26 59 119
-0.010470 0.022329 0.007356 14 46 122
-0.007291 -0.006823 0.019056 0 13 52
-0.004802 -0.017790 0.010856 80 92 100
0.031547 -0.014514 -0.037644 183 184 181
-0.058111 -0.027385 0.012956 146 147 144
-0.036018 0.021592 0.007756 165 162 159
-0.008135 -0.019553 0.013256 126 132 132
-0.002415 -0.032002 0.006656 28 33 29
-0.053065 -0.015342 0.019156 112 118 118
-0.029412 0.027741 -0.002044 186 186 186
0.033852 0.012166 -0.024044 176 176 176
-0.004022 -0.022136 0.015356 111 114 117
-0.035624 0.005204 0.027456 20 20 14
0.028984 -0.004533 -0.028344 112 118 117
-0.059600 -0.027553 0.013056 150 147 144
-0.000348 -0.015036 0.006756 32 40 62
0.028199 -0.011927 -0.003544 102 108 107
0.008890 0.022549 -0.011844 68 61 77
-0.055945 0.007881 0.026256 59 63 63
-0.009880 -0.031456 0.013556 100 111 110
-0.054280 0.010283 0.018556 34 35 32
-0.044597 -0.022683 0.014556 131 140 138
-0.031867 0.027872 -0.001644 185 184 181
-0.032241 0.028472 -0.003044 184 183 180
-0.062702 -0.008970 0.022756 130 136 136
-0.042969 -0.002151 0.013556 171 172 169
-0.016849 0.009640 0.031956 86 92 92
0.028776 -0.008137 -0.023944 111 120 119
0.039612 0.003158 -0.028444 182 180 180
0.014305 -0.012541 0.007256 63 78 79
0.034477 0.008834 -0.025944 180 180 180
-0.018683 -0.019789 0.013956 29 33 32
0.034261 -0.008631 -0.034644 183 183 177
-0.002210 0.009488 0.033456 59 63 63
-0.057801 0.011125 0.018356 125 130 115
-0.045718 -0.002644 0.013856 39 62 73
-0.029676 0.024440 0.000956 168 164 164
-0.025348 -0.005583 0.009456 111 111 112
-0.033649 0.023290 0.006356 168 165 162
0.028247 -0.021110 -0.010044 105 115 110
-0.048161 -0.010242 0.005056 91 94 86
-0.040567 -0.008337 0.017156 116 123 119
-0.022148 0.016871 0.013456 159 157 157
0.012109 0.011642 0.002556 72 60 56
0.034827 -0.006180 -0.033344 181 182 179
0.028183 -0.006301 -0.002844 99 104 107
-0.024463 -0.016930 0.002556 17 15 15
0.034779 0.007985 -0.026244 177 182 178
0.022841 -0.025951 0.016056 64 73 71
0.024054 -0.005925 0.026756 53 48 43
0.042540 0.018360 -0.020544 180 181 178
0.028632 -0.014375 -0.018544 113 119 118
0.029144 -0.011881 -0.034044 135 139 138
-0.012108 -0.024639 0.016356 86 97 96
0.003948 -0.028447 0.015156 126 132 132
-0.044233 0.004574 0.013256 7 9 14
0.033361 0.009156 -0.025544 175 179 179
0.030673 0.012830 -0.023944 176 180 180
0.045606 0.015933 -0.021744 176 180 179
-0.005824 -0.033482 0.012656 117 126 124
0.034103 -0.012108 -0.036444 186 188 182
0.006197 0.024904 -0.008144 101 97 108
0.041408 0.016059 -0.021744 182 182 182
-0.033101 0.015770 0.013356 207 201 199
-0.011735 -0.026587 0.015856 78 91 89
-0.013835 -0.029791 -0.002444 3 12 43
0.028563 0.014958 -0.013644 118 122 122
0.001251 0.022987 0.007456 141 143 148
0.027679 -0.020228 0.002356 91 100 98
0.040343 0.018716 -0.020344 181 181 181
-0.025982 0.023577 0.002156 168 167 164
-0.024496 0.004817 0.012156 10 10 10
-0.057667 -0.002715 0.011556 135 131 131
-0.030298 0.015836 0.017256 182 179 176
0.028624 -0.007352 -0.019944 107 116 115
-0.032627 -0.009881 0.022256 122 126 125
-0.042323 0.015483 0.018856 106 111 107
0.011760 0.001662 0.006156 73 63 41
-0.047699 -0.026844 0.014456 137 142 138
0.028611 0.023738 -0.013644 117 122 125
-0.008694 -0.026495 0.015556 118 127 125
0.029141 0.001745 -0.028244 124 123 127
0.033120 -0.013224 -0.037044 183 188 184
-0.055200 -0.027648 0.013556 140 147 143
0.028581 -0.012869 -0.016744 108 117 116
0.002538 -0.010847 0.024556 69 77 79
-0.041060 0.009276 0.023956 51 50 28
-0.013488 -0.019131 0.009856 47 56 67
0.022628 -0.018324 0.009756 54 69 70
0.038810 -0.001028 -0.030544 180 181 178
0.018980 0.022359 -0.012644 122 114 119
0.041716 0.010104 -0.024944 183 184 181
-0.046379 -0.032458 0.010556 139 145 138
-0.043887 -0.024178 0.014256 83 87 92
0.028649 -0.018625 -0.017544 117 123 122
0.028305 -0.002551 -0.002044 105 109 108
0.035604 0.009904 -0.025244 179 179 179
-0.050456 -0.007297 0.018756 8 91 136
0.034316 -0.005612 -0.033144 183 183 177
0.004386 0.028314 -0.003344 146 147 155
0.025168 -0.003245 0.026056 76 80 79
-0.038717 0.014558 0.018356 123 123 123
-0.007744 0.014888 0.013356 101 136 179
-0.019478 -0.032616 0.012156 11 12 9
0.016240 -0.023203 0.010856 65 73 80
0.039463 0.017756 -0.021044 180 180 181
-0.045736 -0.025822 0.014256 44 49 45
-0.023945 0.015946 0.015056 169 168 165
0.013963 -0.027171 0.015056 104 110 110
0.028051 -0.012943 0.001756 97 101 100
-0.004862 0.026231 0.001456 167 171 176
-0.017319 0.011032 0.029956 65 65 66
-0.022664 -0.016633 0.006856 127 133 132
0.028227 0.013344 0.005556 78 81 84
-0.014947 -0.029302 -0.001444 14 19 42
0.001815 0.008612 0.034056 70 74 74
-0.023389 -0.021105 -0.001244 9 10 7
0.028191 0.002645 -0.003944 100 106 106
0.034513 0.006066 -0.027144 179 179 179
-0.007337 -0.031654 0.013356 108 117 116
0.033459 -0.010575 -0.035844 182 184 178
-0.022311 -0.000441 0.027956 105 111 111
-0.008589 0.001385 0.013556 19 32 63
0.012788 -0.009116 0.018956 49 41 25
-0.043387 0.012359 0.024556 21 27 26
-0.015182 0.012929 0.027256 112 118 118
-0.022151 0.024689 0.003856 169 175 175
-0.038662 -0.008116 0.022456 90 96 95
-0.054061 0.015137 0.017856 52 58 58
0.028957 -0.013451 -0.029044 118 125 121
-0.007000 -0.003869 0.017956 40 76 135
0.030372 0.002381 -0.029144 179 180 177
0.036384 0.007802 -0.026144 181 179 179
0.029527 -0.009336 -0.035044 182 183 175
0.029167 -0.014931 -0.033744 122 128 121
-0.032208 0.017454 0.015856 179 172 173
0.015316 0.019520 -0.011344 188 182 180
0.002627 -0.000077 0.029156 90 98 100
-0.004443 -0.027776 0.014156 132 138 137
-0.061385 0.014923 0.017856 41 46 33
-0.015660 0.027887 -0.001944 190 190 191
0.039857 0.003421 -0.028244 182 180 180
0.009012 -0.011258 0.007956 26 38 53
0.028911 -0.013694 -0.028744 122 127 123
0.028454 -0.021446 -0.013544 111 117 116
-0.020312 -0.026660 -0.003844 105 115 110
-0.032638 -0.014638 0.019256 127 132 128
0.035937 -0.002625 -0.031544 183 182 179
0.016293 0.019643 -0.011444 186 178 176
-0.025839 -0.000063 0.025356 115 119 119
0.034581 -0.007606 -0.034144 184 184 178
0.007150 0.018075 -0.010044 186 178 176
0.029984 0.009496 -0.025644 179 179 180
0.022625 0.017132 -0.005644 63 72 81
-0.028305 0.027903 -0.003244 188 187 184
-0.001603 0.011631 0.029456 88 86 80
-0.039032 0.015154 0.015856 132 133 130
-0.015037 -0.003960 0.018256 99 100 71
0.039281 0.006599 -0.026644 184 182 182
0.027546 -0.007975 0.009356 83 87 87
-0.034651 0.018725 0.013956 170 167 164
-0.013187 0.029089 -0.004744 190 188 188
-0.051395 0.015377 0.020256 49 53 52
0.022172 0.009638 0.005056 118 116 116
0.028648 0.003621 -0.019544 113 119 119
-0.037646 -0.031937 0.011256 134 141 137
-0.022951 -0.017901 0.000056 13 14 11
0.023810 -0.020907 0.012456 112 112 113
0.036856 0.003828 -0.028344 184 183 180
0.036307 0.016865 -0.021544 180 180 181
0.029207 -0.014482 -0.036044 114 127 126
0.001246 -0.031857 0.007556 110 120 115
-0.040508 0.025629 0.002456 173 172 169
0.028939 -0.011140 -0.031344 118 125 121
0.009117 -0.007235 0.018856 47 33 11
0.034544 0.015561 -0.022444 179 179 180
0.035594 0.002895 -0.028844 179 180 177
-0.034984 0.028830 -0.004244 180 178 178
0.011580 0.018152 0.005356 109 121 136
-0.055030 -0.008901 0.018956 3 61 102
-0.051458 -0.003789 0.014656 62 128 145
-0.026714 0.028306 -0.002544 185 185 185
0.021035 0.020493 0.001956 106 118 133
0.028554 -0.004176 -0.015544 110 116 116
-0.052167 0.000313 0.010156 46 76 138
-0.006914 -0.019636 0.012756 115 118 121
-0.039424 -0.006568 0.015656 123 135 143
0.029118 0.018860 -0.020444 127 129 134
-0.062908 0.006039 0.029056 7 11 10
-0.035124 -0.007356 0.023856 107 111 110
0.009928 0.027280 -0.007444 118 123 134
-0.022378 -0.026503 0.015356 121 127 126
-0.032631 0.028814 -0.004444 178 176 176
0.029019 0.021807 -0.018344 122 125 128
-0.033117 0.022433 0.007256 168 164 164
0.040137 0.009273 -0.025244 180 181 178
0.035304 -0.012940 -0.036644 185 185 185
0.021775 -0.028282 0.016356 94 102 104
0.027198 0.011564 0.014056 55 59 58
0.020150 -0.021143 0.010556 63 82 84
0.037050 0.006354 -0.026844 179 179 179
-0.048827 -0.015566 0.017656 140 146 145
0.033000 -0.008775 -0.034844 181 184 176
0.027609 -0.000500 0.010956 84 88 87
0.027676 -0.000194 0.014056 77 81 80
0.028856 0.002224 -0.019344 116 122 122
0.002785 -0.013725 0.007156 43 48 71
0.028793 -0.020220 -0.019844 116 125 123
-0.005259 -0.031184 0.013556 121 132 130
0.028918 -0.010170 -0.028244 118 124 123
-0.018268 0.021920 0.002456 42 92 149
-0.003977 -0.002987 0.016256 93 130 152
-0.033666 0.018606 0.014856 170 167 164
-0.034136 0.023823 0.004756 172 166 164
-0.033468 -0.011851 0.008456 5 5 5
-0.019598 -0.022888 0.016356 9 10 7
-0.044883 0.010211 0.021356 50 57 48
0.029132 -0.012308 -0.034444 136 142 135
0.021238 -0.018725 0.009256 59 75 78
0.023720 0.017991 -0.009744 161 154 155
0.012655 0.005925 0.004856 114 114 114
-0.010749 -0.030066 0.013856 92 103 101
-0.036907 0.006827 0.026956 36 38 20
0.012623 0.012503 0.002256 150 145 140
-0.053209 -0.014188 0.019156 61 59 60
-0.054144 0.019242 0.014556 151 151 151
-0.036811 -0.002502 0.013756 107 85 65
0.047102 0.022131 -0.018444 181 181 181
-0.037295 0.026437 0.001156 179 179 180
-0.009487 0.027446 -0.000844 191 195 195
0.019113 -0.021828 0.010656 58 76 81
0.033361 0.008035 -0.026144 176 180 179
-0.056350 -0.027128 0.014056 137 142 138
-0.054040 0.022803 0.007756 162 162 162
-0.012455 -0.016383 0.007156 34 40 47
0.043365 0.012965 -0.023444 183 184 181
-0.046494 0.009292 0.023056 45 52 43
-0.042139 0.003661 0.029456 55 60 56
-0.007907 -0.018394 0.011756 78 91 97
-0.038016 -0.028701 0.013856 138 145 141
-0.049109 -0.003338 0.014056 84 132 141
0.003343 -0.024264 0.014556 104 105 102
0.011930 0.019705 -0.012544 178 172 170
-0.001079 -0.019472 0.009656 32 34 53
-0.019391 -0.027303 -0.004444 9 14 10
0.028487 0.007542 -0.012744 115 119 119
0.024716 -0.022910 0.015656 115 112 109
0.014665 -0.018136 0.008956 67 81 84
0.029921 -0.004734 -0.032744 180 181 178
-0.033889 -0.024614 0.015056 70 76 75
-0.039575 -0.010165 0.016556 106 111 107
0.001838 -0.009753 0.024956 75 83 85
0.036693 -0.007276 -0.033844 181 181 181
0.041431 0.021484 -0.018944 180 178 178
0.028192 0.004280 0.000156 101 105 105
0.008722 0.024638 -0.009944 112 119 130
-0.046719 0.009817 0.023056 47 54 45
0.035861 0.005793 -0.027244 181 179 179
-0.043109 0.011024 0.022256 39 45 44
-0.001179 -0.009955 0.022256 70 80 82
0.019272 0.022164 -0.012644 164 157 158
0.036985 -0.000221 -0.030344 182 182 176
-0.025822 0.025302 0.002356 162 162 163
0.006330 -0.013092 0.007856 30 35 58
0.033679 -0.009034 -0.034844 181 182 179
-0.036669 0.021570 0.007656 168 165 162
0.005628 -0.016731 0.008156 54 55 70
-0.045179 -0.015800 0.011456 136 142 135
-0.037887 -0.001183 0.013156 178 159 109
0.023744 -0.032112 0.013856 11 11 12
0.029730 -0.009212 -0.035144 180 183 175
0.028690 0.010229 -0.016944 121 125 125
0.018890 -0.032620 0.013756 83 92 90
-0.023593 0.027117 -0.000244 188 188 188
0.022179 0.023381 -0.010244 90 100 107
-0.035292 -0.035536 0.009756 148 156 144
0.028507 0.017233 -0.005944 97 105 107
-0.036334 -0.024920 0.013756 13 13 13
-0.001645 -0.011807 0.018656 10 10 10
0.030123 0.006052 -0.027344 175 179 179
0.040800 0.015742 -0.021844 181 181 181
-0.007094 -0.031184 0.013556 117 128 126
0.029509 0.001871 -0.029344 175 175 175
0.028601 -0.021253 -0.021744 116 123 119
-0.028214 -0.000410 0.012256 255 252 253
0.000960 0.022312 0.009256 142 140 146
-0.034859 0.024814 0.002756 161 157 157
-0.033986 0.015817 0.014156 180 177 174
-0.014339 0.019960 0.010156 18 62 136
0.027629 0.006224 0.013856 68 74 74
-0.033234 0.014188 0.025256 103 105 99
0.033770 -0.013262 -0.036944 185 187 181
-0.005176 -0.027202 0.015156 132 138 137
0.028233 0.024231 -0.003244 84 93 92
0.024635 0.020999 -0.011744 140 136 136
-0.015404 -0.006022 0.018956 20 47 105
0.032666 0.011890 -0.024244 180 180 181
-0.037960 -0.026043 0.014756 45 56 48
0.035082 0.010446 -0.025044 181 181 181
-0.008479 0.028113 -0.001944 192 191 195
0.006615 -0.035843 0.011556 131 142 141
0.024629 -0.010649 0.008156 10 14 14
-0.008822 -0.016521 0.009256 54 71 80
-0.023093 0.011182 0.025956 11 11 11
0.015317 -0.031611 0.002856 85 89 88
-0.014493 0.019783 0.010256 12 58 134
0.030528 0.020982 -0.019844 172 176 176
-0.047410 0.022106 0.008056 165 161 161
-0.044944 0.004294 0.029156 63 68 64
-0.001017 -0.024404 0.013156 75 75 69
-0.040802 0.028003 -0.002444 176 175 172
0.032806 0.007869 -0.026244 177 181 180
0.021648 -0.016970 0.008656 53 67 70
-0.013044 0.000475 0.014756 157 125 35
-0.025917 0.029253 -0.005044 185 185 179
-0.034697 0.000318 0.018656 71 76 72
0.028458 0.007069 -0.012544 114 118 118
-0.037992 0.023673 0.003456 163 155 153
-0.011727 -0.032104 0.003456 9 17 19
0.020154 0.025430 -0.009544 105 114 125
0.037251 0.004175 -0.027944 180 182 176
-0.001124 0.007331 0.033256 60 66 66
-0.038394 0.023447 0.001656 161 157 158
-0.029922 -0.002854 0.015156 102 101 98
-0.005686 0.020456 0.009056 21 59 131
0.019919 0.019757 -0.012344 165 159 157
-0.022794 0.028805 -0.003844 183 184 181
-0.000445 0.025840 0.002356 166 165 169
0.033279 -0.008322 -0.034444 185 184 181
0.028356 -0.016846 -0.012844 111 117 116
-0.049753 0.024480 0.003756 168 169 166
0.008823 0.019097 -0.012244 195 187 185
0.028354 -0.014011 -0.014244 107 116 115
-0.049240 0.010967 0.022456 59 62 54
0.030581 -0.002590 -0.031544 179 180 177
0.029592 0.023757 -0.018244 171 171 172
0.024298 -0.017804 0.002456 17 18 15
0.024369 -0.019132 0.000956 11 11 12
0.027649 -0.010811 0.007956 78 85 81
0.031307 -0.013401 -0.037144 185 187 181
0.000157 -0.034711 0.009656 112 126 121
0.031932 -0.001448 -0.031044 178 179 176
-0.011628 -0.017471 0.007756 30 38 45
-0.035898 -0.002883 0.014456 162 140 86
-0.011317 -0.031951 0.007156 62 68 67
-0.008992 0.021981 0.008356 14 41 118
0.029036 -0.015014 -0.031644 120 125 121
-0.023727 0.012621 0.023356 9 14 10
-0.022655 -0.028936 -0.002744 19 24 20
0.028401 -0.014674 -0.011844 105 114 113
-0.049066 0.015849 0.021056 62 60 61
0.024385 -0.028523 -0.003744 13 13 13
-0.042147 0.027450 -0.001544 175 173 167
-0.024762 -0.020394 0.011756 92 97 93
0.028102 0.005629 0.000456 104 108 108
0.028966 0.000870 -0.026444 118 124 123
0.027906 0.026076 -0.000244 122 126 126
0.032086 0.004587 -0.027944 173 177 176
-0.003072 -0.005856 0.017056 44 101 123
0.002071 0.019712 0.013756 132 131 135
0.029029 -0.005097 -0.029744 116 122 121
0.034018 0.001293 -0.029544 181 180 177
0.006983 0.027385 -0.007744 115 116 124
-0.010504 -0.012315 0.005256 34 43 52
0.028904 -0.000335 -0.023244 120 124 124
0.031650 -0.001448 -0.031044 180 181 178
0.036134 -0.009330 -0.034944 183 184 181
0.028752 -0.002107 -0.021044 113 119 118
0.028738 -0.005473 -0.023644 112 117 120
0.028092 -0.018632 -0.003344 98 104 103
-0.019833 0.019360 0.006456 92 129 172
-0.059464 0.009850 0.021456 56 75 50
-0.016971 0.010034 0.031756 84 82 76
-0.052701 -0.015089 0.019756 128 134 133
-0.015099 -0.024804 0.015956 71 75 74
-0.060238 0.019253 0.013856 157 155 161
0.015320 -0.000017 0.001856 70 63 64
0.007871 -0.030379 0.014356 127 133 132
-0.057190 0.006929 0.029456 63 69 68
-0.060912 0.010852 0.019356 137 136 133
0.028503 -0.016433 -0.007644 103 112 111
-0.016543 -0.008207 0.019856 62 88 123
0.009593 -0.014914 0.009656 47 59 74
0.007015 0.019786 -0.012044 151 144 145
-0.035533 0.028335 -0.003444 180 179 176
0.031594 -0.005276 -0.033144 183 183 177
-0.013355 -0.021643 0.012956 94 101 105
0.036927 0.009000 -0.025544 179 179 179
-0.058264 -0.004234 0.014156 102 104 109
-0.012170 0.024573 0.001656 24 56 118
-0.049195 -0.029433 0.012056 139 147 140
-0.038764 -0.010254 0.005956 3 12 11
0.031607 -0.003591 -0.032144 180 181 178
-0.006523 -0.030816 0.013856 121 132 130
0.010643 -0.011177 0.017756 42 38 24
-0.045464 -0.016290 0.011256 136 141 137
-0.039064 -0.027267 -0.003844 105 110 113
-0.015899 0.020132 0.009056 10 60 137
-0.049287 0.021073 0.010156 160 160 154
-0.052727 -0.009891 0.004356 63 64 72
-0.043722 0.021476 0.006656 150 150 151
-0.011431 -0.008026 0.018856 38 61 97
-0.033543 0.028488 -0.003644 181 179 179
0.028339 0.005802 -0.009444 117 117 118
-0.026812 0.017615 0.015556 176 172 172
0.028861 -0.012761 -0.026244 120 125 121
0.018062 0.010580 0.003956 88 84 84
0.038781 0.017339 -0.021344 176 176 176
0.028863 0.004263 -0.022744 116 122 122
-0.003886 0.023062 -0.001144 160 172 182
0.028966 -0.016310 -0.028944 118 128 123
-0.022713 0.019056 0.008156 159 155 155
-0.037346 -0.029955 0.013156 131 138 134
0.019351 -0.020291 0.010056 58 74 77
0.029175 -0.005446 -0.032744 120 127 123
-0.032973 0.010099 0.020856 76 74 48
-0.020654 -0.030536 0.013456 15 20 16
-0.040112 0.019096 0.011156 175 172 169
-0.035961 -0.003451 0.016956 89 92 84
0.028948 -0.017455 -0.028744 118 125 121
0.002110 -0.018716 0.008156 123 127 126
-0.018465 -0.026932 0.014956 105 114 113
0.028392 -0.008169 -0.015344 107 116 114
-0.023087 -0.020045 -0.001744 6 7 4
-0.039978 0.008795 0.024756 45 46 24
-0.007200 0.024892 -0.001144 131 137 144
0.032044 0.007996 -0.026144 177 181 181
-0.041553 -0.005405 0.015056 167 168 165
0.028061 0.008740 0.009856 75 81 81
-0.042910 0.026607 -0.001144 177 174 171
0.019901 0.010289 0.004756 97 93 93
0.003540 -0.008122 0.023956 66 71 74
0.012432 -0.002972 -0.000044 106 112 112
0.011497 0.020343 0.002356 115 128 141
0.028699 0.006129 -0.023244 121 125 125
-0.033978 -0.006600 0.021356 97 103 103
-0.017794 0.025284 0.001656 167 167 168
-0.006969 0.028429 -0.002844 189 189 190
0.008252 0.020722 0.001656 157 153 159
-0.055614 -0.002448 0.012756 115 139 145
0.036830 0.002454 -0.029044 183 182 179
0.034627 0.021150 -0.019444 180 180 181
0.029185 -0.014633 -0.034344 121 127 120
0.046451 0.024344 -0.017344 176 174 174
0.019055 0.009349 0.006856 128 123 118
-0.035222 -0.032837 0.007156 24 24 24
-0.022693 -0.014728 0.000956 12 14 8
0.031369 -0.009598 -0.035144 184 184 178
-0.024155 -0.007271 0.007156 18 16 16
-0.011486 0.028553 -0.002644 190 190 191
0.032348 -0.005040 -0.032944 182 181 178
0.029065 0.005248 -0.026044 116 117 125
-0.026637 -0.027951 -0.003244 25 26 23
0.022107 -0.032175 0.008356 113 118 114
0.004722 -0.031777 0.014056 89 98 97
-0.045228 0.018520 0.013956 151 149 149
0.028076 0.010152 0.000156 107 107 107
0.023482 -0.032748 0.013556 63 69 68
0.028147 -0.005746 -0.006244 100 106 105
-0.036126 0.017815 0.014656 177 171 169
-0.008973 0.004902 0.031556 11 11 12
-0.051899 0.021835 0.008856 160 160 160
-0.019387 -0.023030 -0.003644 15 14 11
0.012214 0.002537 0.002356 50 48 48
0.017942 -0.011522 0.021756 36 25 5
0.006003 0.004025 0.002056 15 15 16
-0.029765 0.018118 0.015656 175 171 171
0.020087 0.021743 -0.012244 161 154 155
-0.012842 -0.010168 0.019856 43 63 88
-0.035797 0.024900 0.001556 161 164 167
-0.047348 -0.002610 0.013256 47 88 98
0.029171 -0.015213 -0.035644 136 137 134
-0.053391 0.023252 0.006456 161 162 159
-0.058007 -0.031928 0.011756 142 148 147
0.032676 -0.001112 -0.030844 181 180 177
0.024549 -0.032370 0.013456 11 12 9
0.035868 -0.009598 -0.035144 185 187 181
-0.035877 -0.025548 0.014256 7 14 10
-0.023677 -0.029822 0.013356 50 55 58
0.008664 -0.035342 0.011156 42 40 41
-0.042123 0.025669 0.001556 171 172 169
0.036231 -0.009201 -0.034944 180 181 178
0.022881 0.020277 -0.012044 153 147 145
-0.036573 0.024054 0.003756 168 164 164
-0.023225 -0.030473 0.012156 79 79 79
0.032870 -0.013555 -0.037144 185 186 183
0.032812 -0.009497 -0.035044 184 183 180
-0.025063 -0.002742 0.009756 95 93 94
-0.048273 -0.023828 0.015456 111 120 119
-0.016237 0.001084 0.015456 148 153 156
0.035715 -0.010890 -0.035644 183 188 184
0.019321 0.021872 -0.012644 159 155 155
0.035629 0.005089 -0.027644 182 181 178
-0.044300 -0.015935 0.009556 134 141 137
-0.027388 0.025144 0.000956 142 142 142
0.028979 -0.009046 -0.027944 117 123 122
0.011717 0.018636 0.004656 109 121 136
-0.007369 -0.029863 0.014056 125 134 132
-0.001975 0.024289 0.004656 96 104 111
-0.058811 0.018965 0.014156 150 151 148
0.031513 -0.011705 -0.036344 183 184 181
0.028376 0.001437 -0.004244 105 109 108
-0.034690 -0.031955 0.012356 136 141 137
-0.048867 0.003609 0.011956 68 75 71
-0.056906 0.004506 0.027756 66 75 73
0.028943 -0.003977 -0.026844 116 122 121
0.014140 0.006070 0.006856 119 117 117
-0.013589 -0.032950 0.012156 72 83 81
-0.021712 -0.010104 0.022856 119 123 122
0.030124 -0.009602 -0.035244 183 183 177
0.027987 -0.025496 -0.004444 102 111 109
0.039243 0.000717 -0.029644 179 180 177
-0.043664 0.004063 0.029656 59 63 62
0.017752 0.012563 0.002256 149 147 141
-0.013844 -0.012253 0.005256 26 35 44
0.017188 -0.031457 0.003356 69 69 69
0.028780 0.001247 -0.022644 113 119 119
-0.035675 -0.024433 0.013956 20 24 23
0.040491 0.006278 -0.026844 184 182 182
0.015686 -0.011321 0.007156 45 66 68
-0.038689 0.022179 0.007256 168 165 162
0.028750 0.024296 -0.015644 123 126 129
0.019572 0.019231 0.004256 106 121 135
0.028739 -0.019596 -0.022644 114 123 121
0.012285 0.018675 0.004856 113 125 140
0.028971 -0.010668 -0.028044 117 123 122
0.038926 0.010904 -0.024644 178 178 179
-0.036804 0.020856 0.010056 168 162 160
-0.021001 0.007815 0.028056 113 117 117
0.030982 -0.011799 -0.036344 185 185 179
-0.049523 -0.028330 0.013156 142 149 145
-0.007411 0.018771 0.011556 6 52 128
-0.048307 -0.023703 0.015756 126 132 131
-0.014034 0.002266 0.014556 66 117 112
-0.026073 0.028845 -0.004044 187 186 183
0.028304 -0.025821 -0.011244 104 113 111
0.023939 -0.019610 0.000356 76 80 79
-0.006856 0.023724 0.003656 17 47 115
-0.034020 0.022473 0.007156 166 162 162
-0.055789 -0.018526 0.017556 134 140 139
0.016240 0.012360 0.002556 152 147 142
0.028267 0.024011 -0.005144 87 95 97
0.036127 0.005717 -0.027244 180 180 180
-0.020180 0.010174 0.026956 84 82 83
0.028738 0.002935 -0.023644 116 122 122
-0.049404 -0.005644 0.017056 7 81 113
-0.011848 0.023794 0.003456 13 41 110
0.028308 0.001141 0.000156 99 103 102
0.027910 -0.006414 0.005056 90 95 91
0.028640 0.021192 -0.014644 118 122 122
-0.010229 0.014499 0.012456 120 147 180
