ply
format ascii 1.0
element vertex 1242
property float x
property float y
property float z
property uchar red
property uchar green
property uchar blue
end_header
0.007755 0.034392 -0.038506 91 85 29
-0.015065 0.009450 0.018094 71 67 15
0.037023 -0.027161 0.005294 110 112 103
0.023587 -0.024869 0.017794 103 104 93
0.036486 -0.025412 0.005594 110 111 105
-0.023720 -0.053988 0.047294 102 107 95
0.001211 -0.028491 0.036894 99 100 89
0.019463 -0.022667 0.023094 103 104 93
-0.035322 0.006327 0.032494 62 57 12
0.029632 0.022328 -0.073806 109 109 105
0.029610 -0.010977 0.017594 102 104 95
0.050334 -0.009161 -0.008706 105 106 95
-0.119417 -0.064417 0.092994 48 52 45
0.026785 0.016712 -0.071906 179 178 180
0.018052 0.010430 -0.108506 107 104 99
0.043823 0.009870 -0.055906 177 180 183
0.010081 -0.008924 0.037094 94 95 89
-0.070456 -0.024760 0.095294 64 60 33
0.011507 0.016255 0.000594 98 91 33
0.028939 0.014418 -0.067106 178 178 180
0.067790 -0.005667 -0.024306 92 101 94
0.047679 -0.005164 -0.001306 63 64 51
-0.072507 -0.058505 0.092194 86 88 75
-0.111710 -0.032400 0.081894 76 72 20
-0.055590 -0.009477 0.047294 78 75 18
0.006682 0.032256 -0.033806 99 92 34
-0.029791 0.045314 -0.002906 96 89 29
-0.063190 -0.063093 0.080794 86 91 81
-0.022531 -0.040876 0.052594 96 101 89
-0.002670 0.034940 -0.040006 101 94 36
-0.032680 -0.023281 0.068594 91 93 84
-0.036031 0.036215 0.022394 91 86 27
0.043236 -0.000708 0.010094 105 106 97
0.000306 -0.031910 0.034694 102 103 90
0.027400 0.019074 -0.075106 106 102 103
-0.051955 -0.017371 0.079794 70 67 37
0.047964 0.007100 -0.049406 176 179 182
-0.043295 0.034196 0.027394 84 76 21
0.042903 0.002911 0.012294 102 103 94
0.022926 0.017441 -0.071906 107 103 104
0.041156 0.017143 -0.071006 177 180 183
0.072616 -0.002977 -0.027806 68 76 73
-0.084180 0.005217 0.066194 59 54 13
0.004423 0.031028 -0.031606 98 92 38
0.056645 0.007247 -0.048906 160 167 173
0.018475 0.017977 -0.003406 107 97 38
0.036414 0.009957 -0.056906 179 179 181
-0.099205 -0.022625 0.070694 61 60 14
0.041432 -0.014239 0.006794 109 110 101
0.016323 -0.039531 0.018894 105 110 100
-0.053477 -0.064856 0.070094 93 98 88
0.044009 0.017014 -0.070306 174 174 176
-0.079198 0.013020 0.063294 50 46 10
0.029998 0.019029 -0.076206 166 165 169
0.010827 0.030581 -0.029806 100 89 35
0.021320 0.005096 0.032094 90 92 83
0.043150 0.013845 -0.063806 182 182 186
-0.007537 0.013793 0.013294 71 67 17
0.039352 0.019192 -0.075406 177 183 185
0.067154 -0.009681 -0.026406 103 106 105
0.041195 0.010824 -0.058006 181 181 183
-0.056761 -0.003773 0.046394 67 63 13
-0.037012 -0.010618 0.064194 86 82 30
-0.018929 -0.005245 0.061094 64 66 57
0.036862 0.020695 -0.078906 175 180 185
0.070111 -0.012903 -0.030406 112 116 111
0.029530 -0.037528 0.008294 109 110 99
0.015056 0.026927 -0.021206 99 92 34
-0.090229 0.017285 0.050694 86 84 34
0.029437 -0.006677 0.020894 103 104 95
0.015344 0.035625 -0.038806 79 70 22
0.029214 0.020587 -0.076406 103 103 97
0.034397 -0.003977 0.017294 101 103 94
0.015964 0.032512 -0.033306 91 83 30
-0.040542 0.028230 0.036694 58 55 12
0.018031 0.010445 -0.108506 102 95 46
0.018051 0.010429 -0.108506 104 105 94
-0.029311 0.046310 -0.004306 97 91 35
-0.054974 -0.006674 0.044794 71 64 15
0.009666 0.011255 0.009594 99 94 35
0.028811 -0.037774 0.008894 109 111 98
0.018043 0.010434 -0.108506 60 58 46
0.049032 0.013658 -0.062706 157 160 163
-0.099337 -0.020118 0.070694 58 56 17
-0.024632 0.045297 -0.002006 90 90 30
0.038228 0.015170 -0.067206 177 180 183
0.021510 0.002856 0.031394 90 92 83
-0.047028 0.013638 0.039294 61 56 11
0.000940 0.032328 0.005194 62 57 14
0.055923 -0.013881 -0.016706 103 107 102
-0.082296 0.024745 0.032894 86 83 28
0.018023 0.010463 -0.108506 77 68 18
0.034901 -0.034820 0.002894 109 110 104
0.037162 0.010925 -0.059006 179 179 181
-0.010735 -0.037084 0.043494 103 104 91
0.034705 0.017798 -0.073306 180 180 182
0.037135 0.008771 -0.054206 178 178 180
-0.015301 0.041092 0.014494 90 85 26
0.061565 -0.010093 -0.020206 105 109 102
-0.019430 0.046409 -0.004906 92 86 30
-0.026406 -0.043183 0.054194 100 102 89
-0.052075 -0.048764 0.076094 93 95 82
-0.047015 -0.050326 0.066494 92 97 85
0.039429 0.018902 -0.074506 180 182 188
0.022868 0.022131 -0.068106 111 106 102
0.001625 -0.001292 0.048294 82 83 74
0.047604 -0.030448 -0.006206 107 112 102
0.024353 -0.040481 0.011194 108 110 99
0.015090 0.013478 0.004894 94 87 29
0.044365 -0.015569 0.004094 105 106 97
0.025020 0.024233 -0.068406 108 104 105
-0.146112 -0.068081 0.125094 69 76 68
-0.016315 -0.018216 0.058094 91 93 84
0.024056 0.025168 -0.067106 55 46 41
-0.021865 0.046723 -0.003106 93 87 31
0.017982 0.010471 -0.108506 93 85 30
0.048970 0.014117 -0.064106 159 158 158
-0.122574 -0.073153 0.089094 110 112 103
0.023906 0.024671 -0.067306 73 69 62
0.023145 0.015207 -0.069406 177 176 178
0.002268 -0.008418 0.044294 91 93 84
-0.132012 -0.068532 0.155994 43 52 45
0.004171 0.016691 0.004094 73 66 17
-0.021389 -0.051698 0.047594 105 110 98
-0.008408 0.014520 0.013594 67 65 17
0.048391 -0.018411 -0.010006 72 73 62
0.035790 0.019038 -0.075806 178 181 184
0.018020 0.010464 -0.108506 80 73 24
0.066718 -0.006491 -0.023906 99 105 103
0.040349 -0.019109 0.005594 104 106 95
0.067066 0.000132 -0.021406 108 108 104
0.053107 -0.007130 -0.010606 105 107 98
-0.004384 0.034976 0.009894 66 58 14
0.019635 -0.009439 0.029494 101 103 94
0.000915 -0.042785 0.030594 105 110 98
0.003704 -0.045890 0.026494 103 108 94
-0.053106 -0.064604 0.069494 93 98 88
-0.039164 -0.026836 0.075194 90 91 85
-0.120542 -0.056296 0.119494 11 18 10
-0.044392 0.042149 0.003794 90 88 28
-0.018422 0.045713 0.001494 93 88 27
0.024026 0.025351 -0.067106 57 50 44
0.036901 0.009877 -0.056506 180 180 182
0.035557 -0.036543 0.002894 107 112 100
-0.061147 0.003380 0.049694 62 60 12
0.037780 0.018852 -0.075006 178 181 182
0.033508 0.014088 -0.065606 179 179 183
-0.011627 0.000287 0.029894 99 92 34
0.055669 -0.016822 -0.018606 105 109 102
0.029709 0.022482 -0.073806 111 108 105
-0.060678 -0.016614 0.057294 88 85 30
-0.019353 -0.047159 0.048694 97 105 92
0.043604 0.016435 -0.069106 178 180 188
0.016045 0.035427 -0.038206 78 69 21
0.031233 0.010975 0.026594 84 84 78
-0.076915 -0.010937 0.059694 63 63 12
0.044413 0.016305 -0.068806 177 180 181
-0.008990 0.014089 0.014194 70 66 16
-0.021488 -0.017038 0.062994 89 91 82
0.054436 -0.006141 -0.010906 104 106 95
0.028829 0.018433 -0.075106 177 176 180
-0.032131 0.035270 0.025094 91 84 26
-0.039250 0.043014 0.002794 93 91 31
0.018922 -0.009918 0.029294 101 102 93
-0.002813 0.009941 0.011894 100 95 34
0.032383 -0.020168 0.012794 102 104 95
0.012353 0.025515 -0.003206 62 59 14
-0.015970 0.008977 0.018694 76 69 18
-0.036124 -0.002824 0.034894 90 85 26
0.049702 -0.020136 -0.014306 105 106 97
0.045362 0.015591 -0.067006 169 174 179
0.022913 0.025618 -0.066706 114 109 107
-0.043821 0.034590 0.026794 78 70 15
-0.076682 0.027981 0.028094 84 82 30
0.038246 0.019981 -0.077306 176 179 182
0.033474 -0.011645 0.015094 103 104 95
0.069958 -0.002626 -0.025106 94 98 93
0.006321 0.023062 0.001794 62 57 12
0.062104 -0.021606 -0.027906 110 114 109
0.047777 -0.029319 -0.014906 75 76 72
0.026231 0.017775 -0.073906 182 182 186
-0.062146 0.024720 0.039094 89 81 26
-0.106746 -0.057205 0.135494 63 67 60
-0.038847 -0.047546 0.063594 35 36 27
-0.023794 -0.039082 0.055694 96 101 87
0.034584 0.016487 -0.070606 179 179 181
0.022363 0.016804 -0.001006 102 95 35
-0.009634 -0.002795 0.056994 79 81 70
0.047579 -0.010863 -0.004706 66 68 57
0.008539 -0.017740 0.034494 102 103 92
-0.110496 -0.001897 0.078494 51 52 12
-0.078039 -0.070716 0.089894 47 54 48
-0.015482 -0.000355 0.028994 98 93 34
0.042731 -0.023372 0.000894 108 113 103
-0.117924 -0.071588 0.107594 7 16 7
-0.065552 0.000920 0.051894 60 57 12
-0.081524 -0.042300 0.112194 72 76 69
0.047240 -0.003067 0.000894 69 68 53
-0.029383 0.018059 0.030594 49 46 16
-0.020316 0.010093 0.021694 69 65 15
0.027803 -0.033011 0.010294 111 113 102
-0.126916 -0.064227 0.115094 31 33 39
-0.057763 -0.015469 0.054694 84 83 28
0.061861 -0.022835 -0.027806 109 113 106
0.028240 0.023151 -0.072106 105 105 101
0.049797 -0.025361 -0.017606 107 112 100
-0.032706 -0.019773 0.070994 84 88 81
-0.031474 0.047364 -0.007106 96 88 35
-0.020240 -0.015573 0.062494 87 89 80
0.060980 -0.011619 -0.020606 103 107 100
0.045377 -0.001709 0.008794 106 104 96
-0.013504 -0.040153 0.044994 101 102 89
-0.017645 0.045664 0.001594 94 89 30
-0.055322 0.033751 0.022094 90 85 24
0.073144 -0.003568 -0.028506 95 98 97
-0.010754 -0.015310 0.053694 94 92 84
0.043195 0.014068 -0.064306 179 181 187
-0.056627 0.035775 0.017794 86 83 28
-0.085482 0.000794 0.067094 61 58 15
0.037294 0.002982 0.018694 97 98 92
0.008025 0.017944 0.001794 73 69 19
0.009578 -0.031005 0.027894 101 102 89
0.047568 -0.004084 -0.001706 62 61 46
0.029349 0.016847 -0.071906 177 176 178
0.018022 0.010459 -0.108506 87 79 26
0.022922 0.023515 -0.067406 115 108 102
0.018085 0.010422 -0.108506 92 95 94
-0.108577 -0.009392 0.076494 53 52 8
0.037281 0.017271 -0.071806 178 178 182
-0.138972 -0.067869 0.118494 65 68 69
0.018077 0.010425 -0.108506 164 169 174
0.062284 -0.003306 -0.018206 98 102 95
0.031027 0.018581 -0.075406 179 178 180
-0.025069 0.047462 -0.006006 91 87 35
0.072501 0.000785 -0.025906 85 92 86
0.003393 -0.034424 0.030394 100 102 89
-0.118718 -0.074745 0.110394 22 23 19
-0.016446 0.044374 0.003494 92 87 28
-0.098952 -0.080195 0.115094 75 83 72
-0.047556 -0.016773 0.079494 57 59 46
0.059668 -0.013588 -0.020506 105 109 104
0.052978 -0.022331 -0.018206 108 110 101
0.021083 -0.038814 0.014294 107 109 100
0.013704 0.028864 -0.004006 64 59 14
-0.023353 -0.017869 0.064994 90 91 80
0.030665 0.019361 -0.076806 160 159 163
-0.094531 -0.007345 0.072294 33 35 0
0.053848 0.008678 -0.056206 43 46 65
0.010778 0.035264 -0.039806 87 81 25
-0.131063 -0.048246 0.121494 60 63 40
-0.017807 0.045664 0.001594 94 89 30
-0.072165 -0.072807 0.087594 82 91 82
0.004557 0.033150 -0.035706 99 94 35
-0.006780 0.028281 0.011794 69 65 15
0.039481 0.001499 0.014594 101 103 94
0.050761 -0.000967 -0.004306 103 104 95
0.042744 0.011845 -0.060006 177 180 181
-0.008078 0.023616 0.012894 70 66 16
0.007029 -0.032367 0.028394 101 102 89
0.030626 0.015414 -0.068906 175 175 179
-0.040531 0.039458 0.010394 93 85 30
-0.004433 0.027883 0.009694 64 59 14
0.035244 0.020423 -0.078606 176 179 182
0.070050 -0.007036 -0.028006 103 112 105
-0.083834 -0.027634 0.081894 80 73 22
0.010982 0.019953 -0.001206 66 62 14
0.059978 -0.007278 -0.018306 76 78 69
0.055056 0.004808 -0.044106 176 181 186
0.030570 0.011738 -0.061306 178 178 180
-0.006245 -0.024013 0.044094 98 99 88
-0.061505 0.038261 0.013994 84 83 26
-0.130037 -0.050893 0.130494 63 71 68
0.016979 -0.008916 0.031594 100 102 93
0.008134 0.024050 0.000594 66 62 14
-0.008192 0.019125 0.012594 67 63 13
0.063142 -0.008488 -0.021306 100 106 104
0.004470 0.031576 0.002994 61 56 11
-0.016855 0.018751 0.019194 68 64 16
0.057589 0.006999 -0.048406 170 177 183
-0.010827 0.041249 0.015494 48 41 8
0.018056 0.010425 -0.108506 102 103 94
-0.048345 0.026860 0.042794 43 39 3
0.022804 0.017027 -0.071806 110 107 104
0.030634 0.017855 -0.074006 179 178 180
0.068605 -0.021354 -0.034706 119 119 115
0.055423 0.008793 -0.052206 147 154 160
0.035331 -0.033483 0.004094 107 112 102
-0.049632 0.034778 0.025094 91 85 29
-0.040328 -0.002635 0.037494 75 72 17
0.038268 0.020534 -0.078406 178 180 186
0.043161 0.014132 -0.064706 178 181 184
0.018043 0.010435 -0.108506 57 55 45
-0.011312 -0.025350 0.048994 101 102 93
0.005899 -0.044700 0.025294 103 108 96
-0.012504 0.015473 0.014894 69 65 15
0.023716 0.023175 -0.068006 104 99 95
0.037487 0.010856 0.020594 90 92 83
0.021489 0.018512 -0.003506 99 94 35
0.067561 -0.006394 -0.025006 98 105 99
-0.091002 0.010621 0.068294 78 76 24
0.024438 0.017035 -0.072506 182 182 186
-0.010421 0.042589 0.009994 87 81 25
-0.010765 -0.043672 0.041894 102 107 93
0.022367 0.015959 0.001094 101 91 34
-0.032619 -0.056167 0.057294 104 106 95
0.018062 0.010422 -0.108506 102 103 94
0.018043 0.010435 -0.108506 58 56 46
0.027030 0.020546 -0.072006 105 103 95
0.025580 -0.009371 0.021694 101 102 93
-0.079856 -0.042694 0.108494 74 75 69
0.042050 -0.025936 0.001094 109 111 102
-0.022035 0.032415 0.023894 62 57 14
0.023426 0.016648 -0.071806 181 179 186
-0.116762 -0.049147 0.148794 49 53 46
0.012315 -0.003602 0.037494 93 94 88
0.015514 0.032293 -0.033106 91 83 28
0.010893 0.005254 0.042594 80 81 72
0.064794 -0.011015 -0.024006 101 107 105
0.018029 0.010444 -0.108506 98 90 35
-0.024834 -0.049866 0.051894 104 106 93
0.035309 0.014590 -0.066606 180 180 182
0.039798 0.019663 -0.076406 177 180 183
0.065801 -0.008356 -0.024206 99 106 100
-0.079418 0.023381 0.035094 86 83 26
0.041886 -0.034170 -0.001806 111 113 102
-0.014396 0.044064 0.004394 91 84 26
-0.028967 -0.053637 0.055194 104 106 90
-0.127266 -0.065671 0.122994 71 75 70
0.033921 -0.005540 0.017194 103 104 95
-0.046757 0.045578 -0.005106 89 89 25
-0.030267 -0.056118 0.053894 100 105 93
0.022021 0.015662 -0.070506 164 160 163
0.017744 0.033987 -0.035606 81 72 24
-0.143836 -0.066553 0.127794 63 69 67
0.062574 -0.017966 -0.025706 110 114 107
0.054884 -0.020031 -0.018906 104 112 101
-0.139206 -0.049309 0.114094 48 53 16
-0.079241 -0.017007 0.063594 68 68 15
0.052283 -0.003707 -0.008806 104 105 92
0.007557 0.019390 0.001594 68 64 16
0.028841 0.020179 -0.076106 105 105 101
-0.086205 -0.050151 0.111794 75 79 72
0.031081 0.015637 -0.069206 178 178 182
0.042245 -0.006503 0.009094 108 106 98
-0.124376 -0.052550 0.152694 35 41 41
0.042248 0.013588 -0.063706 180 183 184
-0.033974 0.037863 0.016294 91 86 25
-0.021403 -0.045939 0.049494 67 68 55
0.047454 0.002201 0.000494 59 61 43
-0.054834 -0.057683 0.074494 92 97 83
0.052192 0.008928 -0.052606 176 181 186
0.025744 -0.021218 0.016594 103 105 96
0.018021 0.010456 -0.108506 97 87 30
0.035565 -0.010858 0.013194 102 103 97
-0.123295 -0.073905 0.089494 120 118 110
0.038276 0.005896 0.018394 96 98 89
0.008062 0.030669 -0.029006 100 92 37
0.033342 0.017493 -0.072606 176 176 180
-0.068744 -0.036515 0.100194 70 78 67
0.037720 0.019279 -0.075806 177 180 181
0.035022 0.007110 0.022094 95 96 87
0.068227 -0.017608 -0.031706 108 114 112
0.071532 -0.004960 -0.028006 101 101 101
0.039946 0.018517 -0.074006 180 183 186
0.028919 0.010278 0.027494 87 88 79
0.057886 -0.002368 -0.013306 104 106 95
0.048514 -0.016925 -0.009606 72 74 63
0.028758 -0.026817 0.011194 108 110 101
0.066369 -0.019022 -0.030506 112 116 111
-0.005236 0.012419 0.011594 76 69 18
0.060683 -0.008202 -0.019606 79 83 76
0.023197 0.015746 -0.070506 176 176 180
0.003080 0.030143 0.004194 63 55 13
0.017965 0.010416 -0.108506 86 83 26
-0.095524 0.003055 0.075194 59 56 15
0.034036 0.001042 0.019594 99 100 91
0.038508 0.015969 -0.068906 180 180 182
-0.016519 0.011227 0.018994 67 65 15
0.018045 0.010431 -0.108506 100 98 90
0.023068 0.020214 -0.069106 112 107 103
-0.119430 -0.070916 0.104994 10 21 17
0.040124 0.019577 -0.076206 181 181 183
0.031695 0.020272 -0.077906 176 175 182
0.018023 0.010456 -0.108506 91 85 31
0.009202 0.006356 0.042994 65 69 62
-0.063453 -0.042230 0.090994 84 86 73
-0.037108 0.046863 -0.006206 92 89 34
-0.007945 -0.030410 0.046194 101 102 89
0.036372 -0.023384 0.006994 108 112 105
-0.110426 -0.021053 0.077794 57 54 11
-0.008793 0.027640 0.012894 68 64 16
0.067239 -0.015605 -0.029006 107 114 108
0.041413 -0.025063 0.001894 110 112 101
0.061294 -0.019796 -0.025706 110 115 105
0.026608 -0.036932 0.010694 110 111 98
0.034968 0.020046 -0.077906 178 178 182
-0.027383 -0.052360 0.054694 104 106 93
0.066186 -0.016659 -0.029006 116 116 110
-0.024596 0.046114 -0.004206 97 91 35
0.041972 0.017970 -0.072606 177 180 183
-0.022267 0.028488 0.023694 64 60 12
-0.139823 -0.056256 0.128294 56 62 64
-0.057671 0.036690 0.015094 85 83 23
-0.139250 -0.068772 0.124094 56 60 53
-0.042870 0.014550 0.036894 62 57 12
0.033840 0.016312 -0.070106 179 179 183
-0.025219 -0.007770 0.067394 61 63 52
-0.028028 0.008246 0.029294 21 21 0
0.018021 0.010452 -0.108506 99 91 36
0.018045 0.010434 -0.108506 100 98 90
-0.114499 -0.068754 0.137894 62 70 59
-0.027817 0.043370 0.004294 94 89 30
0.040542 0.015384 -0.067206 178 181 182
0.031035 0.017408 -0.072906 176 176 178
0.046479 -0.004235 0.005594 106 106 100
0.021608 0.020740 -0.006706 101 94 36
-0.031616 0.035406 0.025294 91 84 26
-0.040668 -0.056508 0.061894 86 90 83
0.069707 -0.004545 -0.025706 83 89 87
0.066709 -0.019042 -0.030606 108 115 109
-0.020337 0.011428 0.020794 69 65 17
0.023283 0.002259 0.029294 93 95 86
0.028906 0.015447 -0.069106 175 175 179
-0.032154 -0.006911 0.040994 85 83 23
-0.049613 0.010039 0.042394 60 57 12
0.023156 0.015788 -0.070606 174 174 178
0.025525 0.024629 -0.068706 109 109 105
-0.060563 0.027396 0.033294 94 86 31
0.055453 -0.003923 -0.011806 103 105 96
0.037780 0.019258 -0.075706 178 181 182
0.013078 -0.009261 0.034094 97 99 90
0.007748 0.012012 0.007694 100 95 36
0.009259 -0.025371 0.031394 99 100 89
0.049777 -0.022687 -0.015906 103 110 104
0.049573 -0.000060 -0.003406 104 102 92
0.022475 -0.028993 0.017894 98 103 93
0.058380 -0.015882 -0.020206 106 110 103
-0.040752 -0.021928 0.078094 36 39 38
0.027631 -0.019888 0.017194 104 105 94
-0.096520 -0.001210 0.074194 34 34 1
0.050536 0.009612 -0.054206 180 180 184
0.066561 -0.001651 -0.021506 99 103 98
0.012243 0.027161 -0.002606 62 57 12
0.068384 -0.014394 -0.029506 108 115 109
-0.092818 -0.001547 0.073194 58 55 14
0.071690 -0.010845 -0.031606 111 112 106
-0.038348 0.040670 0.006994 94 88 32
-0.028494 -0.005285 0.040194 91 84 26
0.013772 0.032560 -0.033706 91 85 31
0.030886 -0.003744 0.021094 100 102 93
0.035139 0.020837 -0.079606 177 180 183
0.040033 -0.029796 0.001494 110 111 100
-0.006714 -0.046009 0.035694 101 106 94
0.058808 -0.022823 -0.025306 110 116 114
0.018032 0.010444 -0.108506 100 93 62
0.020029 0.033251 -0.034506 81 72 22
-0.037425 -0.039588 0.065894 102 103 92
-0.059825 0.032166 0.022394 87 81 25
0.027758 -0.027921 0.011894 110 112 101
0.023436 0.017672 -0.072106 106 103 100
-0.009980 -0.032153 0.045494 101 102 91
-0.036435 -0.052508 0.061594 67 67 61
0.021666 -0.002427 0.029494 94 95 89
0.042694 -0.015648 0.004794 104 105 94
-0.057997 0.034191 0.019794 87 86 29
0.047703 -0.011072 -0.004806 64 66 55
0.042354 0.018287 -0.073206 174 179 184
0.018403 -0.020565 0.024894 102 104 95
-0.073967 0.030866 0.022094 88 84 36
0.033420 0.020279 -0.078506 179 179 183
0.037299 0.019252 -0.075906 177 180 183
-0.044806 -0.015985 0.080794 29 33 26
-0.095713 -0.039726 0.123594 61 62 56
-0.036003 -0.009550 0.049694 89 86 29
0.035264 0.019016 -0.075706 177 180 183
0.018023 0.010466 -0.108506 38 33 4
0.035205 0.015523 -0.068506 178 178 180
0.054037 -0.017851 -0.017206 105 107 98
0.051768 0.007603 -0.049906 167 174 178
-0.039470 0.039883 0.009294 91 86 27
0.072038 -0.006631 -0.029606 103 110 102
-0.037803 -0.015017 0.078794 75 80 70
0.002003 0.032616 -0.034806 102 95 35
0.068602 -0.016388 -0.031306 109 117 114
-0.070910 0.006699 0.057494 58 55 12
-0.088402 -0.041303 0.119994 66 70 63
0.004162 0.025484 0.003494 67 63 15
-0.013698 -0.046448 0.044294 99 107 92
0.028919 0.018458 -0.075206 176 176 180
0.063136 -0.022641 -0.028706 114 119 109
-0.035772 0.045335 -0.002606 98 92 36
0.035154 0.016438 -0.070206 177 180 183
-0.054849 -0.057840 0.074194 92 97 85
0.022869 0.018892 -0.069306 116 108 96
0.018019 0.010466 -0.108506 72 64 20
-0.019673 0.041795 0.010294 94 89 28
0.063177 -0.015557 -0.025606 105 114 105
0.018036 0.010437 -0.108506 94 95 86
-0.102639 -0.003742 0.073894 55 52 9
0.033114 0.016770 -0.071406 179 178 178
-0.029895 0.023386 0.030594 66 58 16
0.018045 0.010435 -0.108506 99 96 91
0.056105 -0.018809 -0.020206 110 112 103
-0.108334 -0.033832 0.085094 78 74 24
0.030112 0.007301 0.026294 91 93 84
-0.042689 0.045290 -0.002506 89 87 27
0.061078 -0.002365 -0.017806 98 105 97
0.047091 0.014642 -0.065106 161 161 161
0.051859 -0.012874 -0.011906 101 105 98
0.024071 -0.037865 0.012594 108 109 103
0.058830 -0.008825 -0.017906 83 84 75
0.047228 -0.032031 -0.006206 108 113 101
-0.026777 0.036733 0.022094 92 87 28
-0.068041 0.001171 0.053694 63 62 16
0.023324 0.025076 -0.067106 111 106 104
-0.090320 -0.066853 0.114594 78 82 75
0.057395 -0.002813 -0.012106 101 103 92
0.021773 -0.001733 0.029694 96 98 89
0.026081 0.023100 -0.069706 110 107 104
0.047292 -0.024754 -0.002706 106 111 101
0.017998 0.010461 -0.108506 62 54 12
0.040260 0.018213 -0.073306 175 181 183
0.055536 -0.007823 -0.014106 103 105 94
0.028940 0.019454 -0.076306 127 123 126
0.022645 0.019742 -0.005306 105 98 40
0.000521 0.033122 -0.036306 100 93 35
-0.000541 0.021577 0.006594 67 65 17
-0.035777 0.036869 0.019494 92 87 28
0.018024 0.010445 -0.108506 84 78 22
0.040782 0.019023 -0.075206 179 182 183
0.055775 -0.022929 -0.022006 110 112 103
0.047653 0.014868 -0.065406 159 162 163
-0.104438 -0.018273 0.075794 58 57 15
0.016871 0.019751 -0.005206 84 75 25
-0.059637 0.032991 0.021594 92 84 31
-0.126645 -0.057512 0.148194 44 48 43
0.018055 0.010428 -0.108506 115 111 104
0.045462 0.013650 -0.063306 179 182 183
0.020030 -0.023692 0.022194 102 104 93
0.028438 -0.005079 0.022694 99 100 91
-0.035883 0.001181 0.031794 67 63 13
0.046344 -0.029132 -0.003906 106 114 103
0.014871 0.030367 -0.029506 97 86 32
0.049352 -0.003954 -0.004906 89 90 79
0.042613 0.017772 -0.072006 177 180 183
-0.016984 0.046370 0.000294 96 89 31
0.018035 0.010440 -0.108506 85 85 79
0.036640 0.019671 -0.076706 174 180 182
0.045977 -0.018967 0.000994 89 93 86
-0.064735 -0.020673 0.068594 83 77 23
0.016115 -0.018858 0.026994 98 100 89
0.010507 0.029773 -0.027606 99 91 38
-0.036982 0.035964 0.022594 92 87 26
-0.078328 -0.000875 0.061094 62 57 12
-0.132654 -0.067160 0.151394 43 55 47
0.065716 -0.012537 -0.027006 105 112 106
0.014993 0.034944 -0.037806 86 74 27
0.001465 0.015033 0.006194 73 69 19
0.018042 0.010435 -0.108506 49 51 35
-0.039531 0.032762 0.032894 71 68 11
0.027650 0.018457 -0.075006 182 182 184
0.009662 -0.042655 0.023394 105 107 94
0.005245 0.017558 0.003394 70 66 16
0.045046 0.016802 -0.069706 166 169 172
-0.057102 -0.047578 0.080194 89 94 84
0.040612 0.016145 -0.069106 177 180 183
-0.029315 0.009150 0.030394 27 26 0
-0.036629 -0.042396 0.064994 102 103 92
0.035522 0.019935 -0.077606 178 181 182
0.032907 -0.034926 0.006494 109 111 100
0.018033 0.010441 -0.108506 84 84 78
0.025545 -0.014052 0.021094 101 103 92
0.034932 0.013573 0.022894 84 84 78
0.022839 0.015475 -0.070006 176 176 180
0.045110 0.012836 -0.061606 178 181 182
-0.029554 0.004325 0.030794 44 39 6
-0.040649 -0.042001 0.067094 73 81 68
-0.129510 -0.077903 0.147594 47 53 51
0.013009 0.028573 -0.024606 101 91 34
0.003767 0.035127 -0.039906 99 91 36
0.026656 -0.015480 0.019194 102 104 95
0.046437 0.003382 0.008894 105 103 95
-0.126430 -0.053973 0.118994 68 68 68
0.031455 0.011641 -0.061006 179 179 183
0.036236 0.014868 -0.066606 180 180 180
0.014382 0.011424 0.008894 99 91 36
-0.009381 -0.026861 0.046594 96 98 87
-0.029656 0.005145 0.030794 45 41 5
-0.017903 0.014849 0.020594 68 64 12
0.017543 0.030401 -0.028906 96 88 33
0.052849 -0.005802 -0.009906 104 105 96
-0.070360 0.000501 0.054894 63 58 13
0.017989 0.010466 -0.108506 93 85 30
-0.082813 0.021261 0.042394 89 86 29
0.033187 -0.019721 0.012794 102 104 95
0.006540 -0.020794 0.034494 101 102 91
0.026839 0.017271 -0.073206 175 175 179
0.035809 0.017296 -0.072106 180 180 182
0.019504 0.031467 -0.030606 89 81 26
-0.040460 0.036396 0.020894 90 85 24
-0.014569 0.044193 0.008294 92 85 27
0.025449 0.016962 -0.001006 98 91 33
0.014377 0.010374 0.036694 98 92 38
-0.025028 0.043878 0.000794 92 87 24
0.034143 0.014652 -0.066906 176 179 180
0.030482 0.015368 -0.068806 178 178 180
-0.108089 -0.068309 0.128894 62 72 60
0.034237 0.013383 -0.064306 179 179 181
-0.060457 0.019875 0.050894 53 52 8
0.013946 0.035079 -0.038606 84 75 25
0.055256 -0.018190 -0.019906 110 112 103
0.043409 0.016476 -0.069406 178 180 186
0.030742 0.019658 -0.077306 181 181 185
0.004112 -0.032377 0.031394 101 102 91
-0.012038 0.043236 0.009494 93 86 28
0.055897 -0.013298 -0.016606 101 105 98
-0.137373 -0.065848 0.126694 60 66 64
-0.042439 0.045081 -0.001706 90 88 28
0.036996 0.020103 -0.077506 177 180 183
0.041402 0.012334 -0.061206 177 183 185
0.052696 -0.016477 -0.015206 104 105 99
-0.056756 0.042489 0.002394 97 91 37
0.033591 0.004867 0.020594 94 95 89
-0.038296 -0.057946 0.060794 60 64 59
0.015421 0.031087 -0.030306 96 85 33
-0.048538 0.003703 0.039994 63 62 16
0.032807 0.019881 -0.077706 178 178 182
0.065764 -0.019478 -0.029606 115 116 112
-0.015923 -0.019951 0.056194 94 95 86
0.028293 0.023116 -0.072206 111 110 110
0.014324 0.031823 -0.032606 96 85 31
-0.099929 -0.025455 0.070994 76 72 22
-0.031766 -0.057490 0.054894 107 109 96
-0.127962 -0.057025 0.117994 72 78 78
0.010573 0.023692 -0.001006 64 62 14
0.031829 0.013370 -0.064506 178 178 180
-0.044799 0.042309 0.003194 90 90 30
0.034792 0.019889 -0.077606 177 180 183
0.036263 0.020389 -0.078306 176 178 184
0.018062 0.010422 -0.108506 103 104 95
0.029180 0.012362 -0.063006 179 179 181
0.059425 -0.020509 -0.023406 107 111 104
-0.070820 -0.011462 0.056194 67 65 15
0.006612 -0.027468 0.032294 100 102 91
0.048204 -0.022761 -0.008706 78 79 68
0.031992 0.015489 -0.069006 178 178 180
-0.106606 -0.009750 0.074794 55 52 11
0.058883 -0.005429 -0.015506 99 103 96
0.004194 0.031286 -0.031906 97 86 32
0.056429 -0.024814 -0.024206 109 113 108
0.058052 0.006646 -0.049806 168 173 178
0.033390 0.017630 -0.073106 176 176 178
0.061322 -0.009640 -0.019906 101 106 96
0.013583 -0.014245 0.031394 100 102 93
-0.034233 -0.043808 0.062994 98 100 89
0.018025 0.010455 -0.108506 96 85 33
-0.075363 -0.021737 0.067994 86 83 28
-0.101153 0.012228 0.060194 85 80 35
0.017607 0.030671 -0.029906 96 88 35
0.023854 0.017167 -0.072506 150 146 151
-0.018442 -0.004771 0.059994 65 67 56
0.006256 -0.045098 0.024594 103 108 98
-0.059524 -0.003947 0.048294 65 63 15
0.018018 0.010450 -0.108506 97 90 39
0.043030 -0.027045 0.000094 110 111 105
0.053745 -0.022348 -0.019606 106 110 103
0.019935 0.032941 -0.033906 85 76 28
-0.005413 0.033298 0.010694 62 57 14
0.061380 -0.019261 -0.026006 110 117 111
0.030058 0.018357 -0.074906 178 178 180
-0.005924 0.002020 0.029894 97 91 35
-0.039949 -0.006120 0.037894 91 86 23
-0.090058 0.008648 0.070394 44 45 7
0.015024 0.017391 -0.001706 101 94 36
0.029103 0.019127 -0.076106 182 182 186
-0.035860 -0.006645 0.040594 87 82 21
-0.020351 -0.047384 0.048994 100 105 91
0.022965 -0.037482 0.013894 110 112 101
0.047911 -0.010983 0.000994 99 100 91
0.025561 -0.034239 0.012194 107 109 98
0.058572 -0.018794 -0.021606 104 114 102
-0.043543 -0.051104 0.064694 80 82 69
0.003128 0.002109 0.049494 80 81 72
-0.029175 0.046849 -0.005606 99 95 43
0.012978 0.020232 -0.003306 67 65 17
-0.020844 0.044801 -0.000106 91 86 25
0.013587 0.034684 -0.037806 86 77 27
0.033329 0.017598 -0.073006 180 179 183
0.025999 0.023803 -0.069406 110 107 102
-0.015957 -0.043009 0.046394 101 104 88
0.048267 -0.019093 -0.011106 68 70 59
0.020602 -0.033809 0.017294 108 110 101
-0.034541 0.004591 0.031794 61 56 15
0.031997 -0.007346 0.018194 103 104 93
0.071399 -0.005454 -0.028206 98 104 102
0.018020 0.010465 -0.108506 80 71 25
-0.058058 -0.042997 0.081194 85 90 78
0.012692 0.031070 -0.030806 93 85 30
0.034500 0.019525 -0.076806 178 180 186
0.047425 -0.023962 -0.002506 108 110 101
0.008668 0.026852 -0.000006 65 62 17
-0.012634 0.009919 0.017294 70 66 16
-0.045911 -0.008257 0.043894 84 84 24
-0.126376 -0.063695 0.134394 54 62 59
0.060054 0.004846 -0.044006 165 170 177
-0.053582 0.045557 -0.003806 93 87 33
0.045175 -0.004952 0.007194 105 106 97
-0.034353 0.022031 0.034094 54 48 10
0.018203 -0.025852 0.022694 101 103 92
-0.111942 -0.027704 0.078794 62 59 14
-0.002654 0.004706 0.022094 101 96 37
0.030379 0.018229 -0.074706 179 178 180
-0.025314 0.026735 0.025294 66 62 12
-0.078453 -0.012613 0.061094 65 62 17
0.025184 0.017595 -0.073406 162 161 165
0.051051 -0.014983 -0.012806 105 107 96
0.033570 0.011339 -0.060306 179 179 181
-0.037367 0.040799 0.006194 94 89 28
0.032530 0.020688 -0.078606 167 166 173
-0.033735 0.015055 0.032694 57 54 9
0.042674 0.015826 -0.068006 177 180 181
-0.071053 -0.030207 0.104994 63 68 58
-0.073916 -0.013706 0.058294 64 62 10
-0.039741 0.004013 0.035494 63 59 11
0.056000 -0.000612 -0.010206 102 104 91
-0.040836 0.030880 0.034294 89 82 20
-0.001130 0.035782 0.007594 62 54 12
-0.063107 0.020189 0.052194 38 38 3
0.008594 -0.014037 0.036894 100 102 93
0.023522 -0.003463 0.027694 98 100 91
-0.026930 -0.006740 0.048494 90 84 30
-0.037404 0.046368 -0.004806 95 90 29
0.052200 -0.003247 -0.008406 106 104 92
0.025653 0.023557 -0.069106 109 109 105
-0.019620 0.023186 0.020294 67 63 15
0.036680 0.013638 0.021594 88 88 82
0.043204 -0.013142 0.005594 106 107 98
-0.032756 -0.041192 0.062694 102 103 90
0.018040 0.010435 -0.108506 52 47 43
0.004458 0.030691 0.003094 60 55 12
-0.008279 0.016648 0.012994 68 66 18
0.071974 -0.001351 -0.026706 101 101 103
0.057781 -0.011749 -0.017406 105 109 102
0.038324 0.016130 -0.069206 178 181 182
-0.065277 0.038749 0.009994 89 88 31
-0.035750 0.047029 -0.007206 95 94 39
-0.013964 0.032705 0.017794 64 59 14
-0.016703 0.044134 0.003794 89 87 27
-0.034852 -0.041390 0.064194 100 102 91
-0.025964 0.031832 0.026994 63 59 11
0.065965 -0.006511 -0.023806 98 105 99
-0.030880 0.034236 0.028194 88 83 24
-0.009209 0.008106 0.015194 96 88 33
-0.013401 0.017368 0.016294 68 64 16
0.040126 0.016542 -0.069906 174 177 178
-0.048497 0.035864 0.024594 86 80 24
0.061726 -0.022302 -0.027506 110 117 109
0.004610 0.033177 0.003194 63 58 17
-0.103460 -0.070750 0.120494 61 68 60
-0.098914 -0.058575 0.121494 73 80 74
0.043940 0.011782 -0.059706 179 182 185
0.050410 0.005192 -0.045306 178 181 184
-0.050481 -0.003758 0.042594 67 63 15
0.071709 -0.007082 -0.029406 104 110 108
-0.014264 0.003688 0.023194 102 95 35
-0.007491 -0.003769 0.054194 79 80 74
0.015293 0.018317 -0.003006 97 87 30
0.000469 -0.016407 0.044294 97 99 88
0.008358 0.032472 -0.034006 96 89 31
-0.040402 0.031498 0.033494 87 82 21
-0.030826 -0.037620 0.062994 97 99 86
-0.030579 -0.051782 0.056994 95 101 84
-0.084854 -0.013865 0.065594 65 62 19
0.009042 0.030903 -0.029906 100 93 35
-0.039253 0.031812 0.033494 84 78 22
0.039227 -0.035139 0.001094 108 113 103
0.022379 -0.027474 0.017794 73 75 66
0.027994 0.019774 -0.075506 105 105 99
-0.054289 0.039595 0.014294 71 67 15
0.045553 -0.004244 0.006994 108 109 100
0.015647 -0.024895 0.025294 101 103 90
-0.068788 0.029535 0.027694 88 82 28
0.049657 -0.002337 -0.004406 98 99 93
0.026333 0.014118 -0.066706 175 175 179
0.039578 -0.004981 0.012094 104 105 99
-0.035154 0.033818 0.029894 86 82 30
-0.004305 -0.038857 0.035894 69 71 60
-0.054776 -0.045805 0.077094 89 91 80
-0.034578 0.002209 0.031894 63 63 12
0.008364 0.031092 -0.030506 99 91 38
-0.019009 0.042226 0.009294 93 88 29
0.030298 0.022359 -0.074306 111 110 110
0.056781 -0.021675 -0.021606 106 113 105
0.056473 -0.009260 -0.015206 76 78 69
-0.046385 0.032163 0.030394 91 89 27
0.061890 -0.009702 -0.020206 100 106 104
0.045055 -0.027026 -0.002006 107 111 104
-0.040026 0.035673 0.023594 92 87 26
0.002179 0.033700 -0.037306 97 92 33
0.027852 0.004608 0.026594 94 96 87
0.046983 -0.033322 -0.006006 105 113 100
0.045791 0.012842 -0.061506 179 182 185
-0.019151 0.040989 0.012294 91 86 25
0.043208 0.017373 -0.071406 177 180 181
-0.007445 0.000298 0.052394 69 69 49
-0.034620 0.038533 0.014794 94 89 30
0.053837 -0.010210 -0.014006 72 79 71
-0.039438 -0.029171 0.073494 59 60 56
0.030902 -0.020831 0.013994 103 104 98
0.019334 -0.009191 0.029894 100 102 93
-0.013827 -0.008898 0.059194 82 83 72
-0.034143 0.021401 0.034094 53 47 9
-0.097539 -0.001862 0.073894 44 39 6
0.001563 -0.003096 0.047794 83 85 76
0.004226 0.011080 0.009294 100 94 38
0.063020 -0.019585 -0.027106 110 114 107
0.018026 0.010462 -0.108506 61 53 11
-0.060743 0.033986 0.019194 89 86 29
0.024489 -0.006812 0.024894 102 103 94
-0.084107 -0.017496 0.068294 62 60 12
-0.127334 -0.068329 0.115994 67 73 73
-0.078786 0.026845 0.030394 91 84 35
0.049118 -0.017599 -0.011806 78 76 66
-0.028670 0.008240 0.029694 24 23 0
0.052634 0.004498 -0.043306 178 181 184
0.032407 0.016872 -0.071606 180 179 181
0.001354 0.005551 0.020094 100 93 33
-0.005491 0.031437 0.011094 64 59 14
0.027517 0.021372 -0.072306 111 109 101
0.002076 0.033399 -0.036606 101 91 34
0.006348 -0.043620 0.025794 105 106 93
-0.001733 0.035055 -0.040106 100 93 35
0.046580 0.004569 -0.044606 174 180 182
0.039000 0.019120 -0.075306 177 183 185
0.034605 0.015222 -0.067806 178 178 182
-0.021235 0.041455 0.009994 92 85 27
-0.136264 -0.070103 0.112694 61 67 67
0.015711 0.033815 -0.035806 83 75 22
-0.046940 0.001244 0.039094 60 58 6
-0.072199 -0.021369 0.067394 85 82 25
0.018058 0.010425 -0.108506 103 105 96
0.019573 0.001617 0.033094 91 93 84
-0.123890 -0.085008 0.141994 36 43 37
0.013412 0.018581 -0.002606 82 75 24
-0.011333 -0.052237 0.038094 104 106 93
0.038135 0.004229 0.018094 97 98 89
0.034515 0.020267 -0.078406 176 179 182
-0.043690 -0.026957 0.075794 59 64 52
0.007114 -0.045015 0.023694 105 110 96
0.018029 0.010444 -0.108506 100 92 37
0.030894 0.021166 -0.077606 104 105 101
-0.054538 -0.013712 0.054194 88 82 26
-0.060445 0.027452 0.032894 92 85 27
-0.025708 -0.002792 0.035694 85 80 21
0.040760 0.018543 -0.074006 176 182 184
0.062217 -0.020094 -0.026706 110 114 107
0.042098 0.013822 -0.064106 179 182 183
0.038474 0.017032 -0.071006 175 181 183
0.035144 0.013028 -0.063106 181 181 183
-0.012505 -0.048843 0.039594 104 106 93
-0.012536 -0.043064 0.042994 70 75 61
0.032189 0.010970 0.025294 87 87 81
0.009628 -0.025934 0.030394 104 102 94
0.030546 0.015228 -0.068506 178 178 180
0.054928 0.006173 -0.046706 173 181 182
0.059191 -0.016193 -0.021106 105 114 107
-0.080842 0.007201 0.063294 58 55 14
-0.039251 -0.009525 0.045894 88 85 28
-0.021987 0.015613 0.023094 70 66 18
-0.053394 0.032629 0.024594 89 81 26
0.040257 0.008584 -0.053406 177 180 181
0.018025 0.010456 -0.108506 94 86 33
0.023355 0.016920 -0.072106 153 152 156
0.054299 -0.000456 -0.008306 107 105 95
0.003591 0.026394 0.004094 64 59 14
0.067984 -0.018889 -0.031906 113 117 110
-0.038288 -0.045973 0.064994 63 67 62
-0.097857 -0.026248 0.072294 81 77 25
-0.056332 0.029917 0.029694 90 85 26
0.072481 -0.006472 -0.029806 105 106 100
-0.045297 0.042064 0.003494 92 86 30
0.035750 -0.033370 0.003594 107 112 102
0.004857 -0.007324 0.041694 91 93 84
0.066929 -0.000972 -0.021306 99 103 98
0.046134 -0.000939 0.007994 105 105 99
-0.012666 0.027570 0.016294 67 63 13
-0.073104 0.032302 0.019794 86 83 26
0.020088 0.018935 -0.004006 105 98 40
0.036718 0.018260 -0.073906 177 180 183
0.038608 0.019120 -0.075306 179 179 183
0.038801 -0.019165 0.006794 105 107 98
0.040421 0.015832 -0.068406 180 180 184
0.041492 0.006603 -0.049806 179 178 178
0.039540 -0.010104 0.010894 103 104 100
-0.006162 0.025898 0.010494 65 63 15
0.067327 -0.018909 -0.030806 110 118 115
0.064771 -0.021351 -0.030006 106 114 111
0.048977 0.010060 -0.055306 178 181 184
0.022939 0.024775 -0.067006 114 109 107
-0.047812 0.024613 0.042594 54 51 8
-0.018350 0.022636 0.019494 65 62 17
-0.037454 0.044912 -0.001006 93 90 33
0.009512 0.032869 -0.034506 93 85 30
0.018060 0.010425 -0.108506 102 104 95
0.032240 0.021226 -0.078706 105 105 101
0.039951 -0.002238 0.012194 103 103 97
0.038040 -0.016969 0.008294 104 106 97
0.031891 0.018037 -0.074106 176 176 178
0.027819 -0.011441 0.020894 102 104 93
0.066943 -0.018103 -0.030506 107 115 114
0.053332 0.010528 -0.056906 134 130 135
-0.116334 -0.067082 0.092594 12 13 7
0.056947 -0.018191 -0.020506 106 110 105
0.030633 0.020019 -0.077406 151 151 155
0.064235 -0.013497 -0.024906 103 109 107
-0.018537 -0.005792 0.061594 66 71 61
0.049023 0.013165 -0.061906 164 164 166
0.030871 0.020961 -0.077606 108 108 102
-0.084721 -0.054666 0.108994 78 83 73
-0.013393 0.004632 0.021594 101 94 34
-0.056299 0.041623 0.005194 90 87 32
0.027201 -0.011368 0.021594 102 104 93
-0.018862 0.031154 0.020294 62 59 14
-0.115494 -0.073458 0.138394 62 66 61
-0.075731 -0.050477 0.102794 84 89 79
-0.047445 0.014419 0.039994 60 57 12
-0.097348 -0.013734 0.071294 48 49 11
0.030999 -0.036044 0.007594 107 112 102
0.018015 0.010450 -0.108506 63 58 13
-0.050868 0.041513 0.004794 95 88 30
0.023258 0.019903 -0.005206 101 94 36
-0.068145 0.027452 0.032894 88 83 24
0.024702 0.015265 -0.069406 176 175 177
0.025695 0.018209 -0.073906 110 110 104
0.025388 -0.013398 0.021694 102 104 93
-0.041853 -0.061000 0.058894 70 68 58
0.007215 0.035184 -0.040306 93 87 33
0.052467 -0.018768 -0.016006 106 111 101
0.014225 0.035502 -0.039006 80 73 24
0.029800 0.020578 -0.076806 108 105 100
0.041778 0.014993 -0.066306 177 183 183
0.042939 -0.016387 0.004394 106 107 98
0.029442 0.022706 -0.073606 110 110 106
-0.026518 0.043849 0.001494 95 90 27
0.042335 -0.028826 -0.000506 111 113 102
0.025661 -0.026184 0.013794 73 80 74
0.018026 0.010466 -0.108506 37 31 5
-0.103566 -0.010821 0.071294 60 57 16
0.038837 -0.022975 0.005594 110 112 103
0.014787 0.027422 -0.022606 101 91 34
-0.046703 -0.031367 0.075494 87 89 76
0.064239 -0.004461 -0.020806 99 103 96
-0.025772 0.013247 0.025794 66 62 12
-0.077663 0.024510 0.031594 90 84 30
0.053386 0.010452 -0.056206 151 153 159
0.032801 -0.006746 0.017894 103 104 95
0.036672 -0.002982 0.015794 102 104 95
-0.027573 -0.020948 0.066494 88 93 81
0.018020 0.010446 -0.108506 89 82 24
0.046615 0.008012 -0.051406 179 182 185
0.055726 0.004335 -0.043106 175 183 184
-0.050532 -0.063703 0.068594 93 98 88
-0.078655 0.027966 0.027194 86 82 32
0.022838 0.021044 -0.068606 111 106 104
0.018045 0.010465 -0.108506 92 92 88
-0.048354 0.041452 0.007694 87 88 30
-0.072010 -0.008091 0.057494 65 62 17
0.066492 -0.011925 -0.026606 102 110 107
-0.110935 -0.072386 0.131594 58 65 59
0.056909 -0.021355 -0.021606 106 113 107
0.026008 0.020084 -0.071506 108 105 100
0.040195 -0.029811 0.001094 111 112 101
0.018022 0.010471 -0.108506 30 26 1
-0.016604 -0.040431 0.048294 101 103 87
0.018026 0.010457 -0.108506 85 76 26
0.055141 0.008926 -0.052506 147 154 160
0.007395 0.020039 0.001594 68 66 18
-0.021963 -0.050434 0.047594 102 107 95
0.003955 -0.002905 0.044294 87 89 80
0.046720 -0.014515 0.001994 108 109 98
0.026802 0.021365 -0.071606 111 108 103
-0.022146 0.044092 0.001494 88 86 24
0.042725 0.012664 -0.061606 178 181 182
0.068422 -0.020635 -0.032606 113 116 115
0.051962 -0.001612 -0.006006 104 105 96
0.045224 0.007423 -0.050606 177 180 183
-0.045569 0.041004 0.007294 93 87 31
-0.057460 0.024101 0.046894 81 78 23
0.068426 -0.005621 -0.025506 101 105 98
0.072412 -0.007203 -0.029906 107 108 104
0.064190 -0.022843 -0.030306 108 115 109
-0.035745 0.025411 0.035294 57 52 7
0.056708 -0.015968 -0.018806 103 111 100
-0.055665 0.015807 0.045294 57 54 11
-0.053106 -0.065914 0.069494 91 96 84
0.024748 0.015900 -0.070606 176 175 177
0.070323 -0.006230 -0.027306 100 104 99
-0.118933 -0.066657 0.097394 9 9 3
0.022994 0.020210 -0.069006 111 106 102
0.070734 -0.011379 -0.030506 112 113 109
0.037677 0.014184 0.020594 84 84 78
0.021810 -0.014288 0.023894 101 103 92
0.018022 0.010458 -0.108506 87 81 25
0.015216 -0.032613 0.022394 104 106 97
0.048298 0.012534 -0.060606 180 183 186
0.023006 -0.030441 0.017194 108 109 100
-0.045292 0.013292 0.038294 61 56 11
0.030744 -0.032920 0.008394 109 111 102
0.042152 0.004975 0.013894 99 100 91
0.028831 0.019768 -0.076206 104 104 98
-0.055069 -0.003532 0.044994 67 63 13
0.033355 0.020073 -0.078106 177 180 183
-0.005880 0.008760 0.013994 102 92 31
-0.004577 0.030371 0.009994 66 61 16
0.018020 0.010468 -0.108506 43 36 5
0.036266 0.019911 -0.077306 176 179 182
-0.074247 -0.015519 0.058894 71 67 17
0.063665 -0.001614 -0.019406 98 102 95
0.063491 -0.009269 -0.022106 100 107 101
-0.074458 0.022913 0.038294 86 83 28
0.057095 -0.024830 -0.024906 107 115 104
0.041868 0.016026 -0.068706 181 181 185
0.015812 -0.004703 0.033694 94 96 87
-0.034645 -0.045982 0.062694 99 104 92
0.038479 0.018387 -0.073906 177 180 183
-0.035560 -0.058083 0.058094 104 106 95
0.060316 -0.011708 -0.020506 102 106 99
0.041295 -0.023784 0.002494 108 113 101
0.013300 -0.041746 0.019494 108 110 97
-0.092268 -0.035416 0.119994 54 56 47
-0.074042 0.007154 0.059194 58 55 12
0.035804 0.019740 -0.077106 176 179 182
-0.067343 0.021016 0.050394 83 80 25
0.018022 0.010450 -0.108506 102 95 37
-0.083494 -0.056266 0.105394 81 82 76
0.039307 -0.033767 0.001094 107 112 100
0.031835 -0.028868 0.008894 109 111 100
-0.046708 0.045205 -0.003706 94 87 29
0.014091 0.034525 -0.037506 84 77 26
-0.092100 -0.078932 0.104994 45 49 44
0.005041 0.032579 -0.035106 98 92 36
-0.015617 -0.033305 0.047994 101 102 91
0.018023 0.010448 -0.108506 103 95 40
-0.071967 0.006931 0.058094 57 54 9
-0.140151 -0.053246 0.126194 59 63 56
-0.029690 0.004641 0.030594 46 42 6
0.043126 0.016793 -0.070106 178 180 188
0.015608 -0.020368 0.027494 101 103 94
-0.055867 -0.012853 0.052394 88 86 24
0.036666 0.018602 -0.074606 176 178 184
-0.111373 -0.007651 0.076794 51 52 12
0.007953 -0.045163 0.022894 107 109 96
-0.043252 0.009408 0.037294 62 58 10
0.018057 0.010426 -0.108506 105 106 95
-0.097746 -0.044232 0.124594 60 64 57
0.009650 -0.013027 0.035294 98 100 91
0.060970 -0.006943 -0.019006 74 78 73
0.060622 -0.007226 -0.018906 76 78 69
0.011824 0.028163 -0.023606 105 96 46
0.036539 0.012214 -0.061606 181 181 183
-0.007907 -0.025529 0.045294 97 99 88
0.018021 0.010460 -0.108506 84 75 25
-0.065037 0.025210 0.037494 87 81 25
0.047737 0.011304 -0.058206 179 182 185
0.043521 0.009176 -0.054406 178 181 184
0.038627 -0.002443 0.013294 102 103 97
-0.088013 -0.024783 0.072294 80 76 24
-0.048007 -0.031458 0.076494 84 89 77
-0.004566 0.022557 0.010394 67 63 15
-0.059870 0.005174 0.048294 59 57 7
0.060670 -0.006387 -0.018806 98 102 95
0.019479 -0.016281 0.024594 101 103 94
-0.066289 -0.014387 0.054694 81 78 21
0.069808 -0.007903 -0.028106 102 105 104
-0.128355 -0.050278 0.121494 51 54 55
-0.024220 -0.000630 0.032494 41 37 1
-0.084437 0.009204 0.066194 59 53 15
0.063273 -0.013021 -0.024406 101 108 102
0.072157 0.000727 -0.025406 89 97 96
0.060353 -0.018305 -0.023806 108 112 105
0.009402 0.033943 -0.037206 93 87 33
-0.025306 0.038434 0.018894 92 87 24
0.048983 0.002209 -0.001706 74 72 62
-0.080824 -0.070299 0.091394 78 83 73
-0.082611 0.013778 0.063294 78 74 22
-0.127474 -0.089980 0.128894 65 69 64
-0.027995 0.009363 0.029194 18 21 0
0.024150 -0.023408 0.017894 103 105 96
-0.040620 0.016657 0.036094 57 52 7
-0.069092 0.028544 0.030094 88 85 28
0.037526 0.012156 -0.061306 180 180 182
-0.069174 -0.027921 0.105394 65 67 58
0.030085 0.004780 0.024894 94 95 89
0.029535 0.000883 0.023094 98 99 90
-0.031136 0.023732 0.032094 20 23 0
-0.076950 -0.051449 0.102394 84 89 79
0.051987 -0.015917 -0.014506 107 109 100
-0.088588 -0.061923 0.115094 78 86 73
-0.062503 0.038852 0.010794 85 81 31
0.012144 -0.030411 0.026594 102 103 92
-0.032507 0.008829 0.031594 59 56 11
0.033374 -0.014034 0.014294 105 106 97
0.049848 0.003665 -0.042206 176 179 182
0.048009 0.009119 -0.053706 177 183 183
0.030693 0.016709 -0.071606 178 178 180
-0.049972 0.044757 -0.002706 90 88 28
0.059897 -0.013405 -0.020706 105 109 102
-0.086613 0.007767 0.067694 57 52 11
0.038385 0.008418 0.018494 95 96 87
0.060112 -0.009947 -0.019706 103 107 102
0.045448 -0.020840 0.000494 111 113 104
0.033086 -0.012427 0.014894 103 104 95
0.049877 0.005418 -0.045806 177 180 183
-0.067999 -0.071499 0.082194 91 93 82
0.042112 0.018398 -0.073406 177 180 181
0.030867 0.008498 0.025894 90 91 85
0.031398 -0.033839 0.008094 110 112 103
0.024313 0.023086 -0.068006 45 38 30
0.035547 0.014517 -0.066406 180 180 184
-0.033023 -0.001075 0.031594 84 79 20
0.034196 0.014703 -0.067006 177 180 181
0.028619 0.009164 0.028794 83 85 76
0.026438 0.024661 -0.069506 105 104 104
0.019007 -0.042470 0.014594 105 113 100
-0.029569 -0.053878 0.055194 106 108 92
0.056137 -0.022266 -0.021906 105 112 106
0.015876 0.032936 -0.034106 88 82 28
0.015179 0.025559 -0.004506 64 59 16
0.002772 -0.029228 0.035294 103 104 95
0.060187 -0.021787 -0.025606 108 112 107
0.005298 -0.035761 0.028594 102 107 93
-0.044768 0.008200 0.039094 63 59 11
0.005548 0.031248 -0.031206 100 92 39
-0.054567 0.041501 0.006294 92 89 32
0.026252 0.017509 -0.073706 158 154 159
0.039697 -0.017164 0.006594 105 106 95
0.036631 0.008670 0.020594 93 94 88
-0.092569 -0.066670 0.115494 77 82 72
-0.013857 -0.022954 0.053694 97 99 88
0.017999 0.010461 -0.108506 59 54 11
-0.000968 0.033503 -0.037106 102 96 40
-0.056027 0.042722 0.001794 93 87 33
0.042446 0.017235 -0.071106 178 181 184
0.040592 0.016963 -0.070606 174 180 182
0.017305 -0.014321 0.028394 102 104 93
0.006257 -0.024382 0.034094 100 102 91
0.038242 -0.019726 0.006994 105 107 96
0.041231 0.011636 -0.059806 180 180 182
0.050258 0.005974 -0.047106 176 179 182
0.070617 -0.015332 -0.032906 115 119 114
0.051391 0.008849 -0.052706 175 181 183
-0.026266 0.019576 0.025794 64 60 12
-0.020270 0.039968 0.013594 90 88 28
-0.129800 -0.064107 0.152094 44 50 48
0.061238 -0.014291 -0.021906 107 108 104
0.063892 -0.000998 -0.020106 105 104 104
-0.054807 0.046062 -0.004806 92 90 30
-0.059672 0.043163 0.001094 98 87 35
-0.038179 0.018952 0.035294 63 59 9
0.071229 -0.013465 -0.032106 112 120 109
-0.085223 0.003121 0.067094 55 52 9
-0.114142 -0.067333 0.089094 13 18 8
-0.082893 0.023324 0.033294 95 84 32
0.043586 0.009300 -0.054606 181 181 183
-0.038637 -0.012428 0.080194 68 67 50
0.000239 0.031611 0.005394 64 59 16
0.024437 -0.032010 0.014494 108 110 99
-0.043803 -0.002796 0.038094 68 64 14
0.045650 -0.019371 0.001294 88 92 87
-0.053092 0.021220 0.046594 57 56 12
0.041195 -0.023342 0.003194 110 112 103
0.018031 0.010470 -0.108506 91 90 92
0.037438 -0.027496 0.004294 111 113 104
0.033669 0.017920 -0.073706 179 179 181
-0.078576 -0.015779 0.062194 67 65 15
0.049244 -0.003857 -0.004506 73 74 65
0.018013 0.010451 -0.108506 61 58 15
-0.021449 0.022062 0.022594 62 59 14
0.029027 -0.024750 0.013194 74 78 71
0.015239 0.028406 -0.024806 100 92 37
0.042063 -0.000362 0.012094 104 105 96
-0.053113 -0.063487 0.073194 92 97 85
-0.024813 -0.012484 0.066794 79 81 70
0.066225 -0.007778 -0.024006 98 105 99
0.040906 0.018382 -0.073706 181 181 185
-0.119129 -0.070219 0.110794 11 12 8
0.033863 -0.023074 0.009194 75 82 74
-0.008591 0.029923 0.013194 66 62 14
-0.035461 -0.050484 0.060494 100 102 91
0.069136 -0.007252 -0.027006 100 110 98
0.022269 -0.030659 0.017294 108 109 98
-0.010589 0.043761 0.008894 92 87 26
0.005820 -0.024746 0.034294 100 102 91
-0.043310 0.031004 0.033694 91 86 25
-0.096450 -0.015908 0.072594 46 44 5
0.062303 -0.005928 -0.019506 98 103 91
-0.003985 0.022527 0.010094 68 64 16
-0.013000 -0.036741 0.045294 99 100 89
0.030803 0.005103 0.024194 94 95 89
0.042348 0.008273 -0.052706 179 179 181
0.029274 0.019870 -0.076506 108 103 99
-0.037753 -0.020475 0.076794 84 86 77
-0.089268 0.005618 0.070394 57 56 14
-0.024183 0.036600 0.022394 89 82 24
0.072732 -0.005100 -0.028506 101 101 101
0.031421 -0.020600 0.013794 103 105 96
0.030503 0.018581 -0.075306 177 176 178
0.017965 0.010416 -0.108506 85 82 25
0.025430 0.021494 -0.070406 106 103 98
0.037211 0.021016 -0.079406 180 179 186
0.012151 -0.034670 0.024194 107 109 100
-0.033047 -0.056370 0.057494 103 105 94
-0.014054 0.017759 0.016694 64 62 14
0.061935 -0.018861 -0.026106 108 112 107
0.037276 0.008985 -0.054706 179 179 181
-0.039181 0.046949 -0.006806 90 89 34
0.020225 0.012698 0.034894 93 89 41
0.043668 0.014386 -0.065106 178 181 184
0.017507 0.026960 -0.022706 101 93 38
0.036197 0.016559 -0.070506 173 176 177
-0.080285 -0.070313 0.091794 82 87 77
-0.017498 0.043051 0.006094 92 87 28
0.049959 0.004971 -0.044906 174 177 180
-0.031461 0.041159 0.006594 91 84 26
0.035332 0.020699 -0.079206 178 180 186
0.024599 0.022163 -0.068806 112 109 104
-0.010869 0.025197 0.014894 70 66 18
0.033388 0.018189 -0.074106 178 178 178
0.034983 0.019920 -0.077506 177 180 183
0.022885 0.017190 -0.071806 107 104 101
-0.032780 0.046457 -0.005206 93 91 27
0.051668 -0.026153 -0.019906 108 115 107
0.062972 -0.023501 -0.029306 110 119 110
0.052302 0.010682 -0.056506 156 161 166
0.043210 0.014540 -0.065506 177 183 185
0.018035 0.010460 -0.108506 107 104 99
0.018024 0.010457 -0.108506 87 81 25
0.027860 0.016419 -0.071206 176 175 177
-0.020508 0.014408 0.021694 68 64 14
-0.135326 -0.049465 0.123594 69 70 30
0.051768 -0.008124 -0.010306 106 107 98
0.040647 0.018100 -0.073106 175 180 185
