ply
format ascii 1.0
element vertex 1243
property float x
property float y
property float z
property uchar blue
property uchar green
property uchar red
end_header
0.032392 0.014116 -0.070842 181 179 179
0.011751 -0.040767 0.017258 98 111 109
-0.094120 -0.000046 0.068558 9 52 57
-0.013872 0.045672 -0.004042 24 83 88
-0.015458 0.044380 -0.001242 25 85 92
-0.041510 0.006052 0.032158 11 59 61
0.032172 0.014230 -0.071042 181 179 179
-0.051950 -0.053079 0.065758 82 97 89
0.023406 0.003150 0.024358 84 93 91
-0.041011 -0.053730 0.057958 77 87 82
0.028330 0.024732 -0.076242 105 109 109
-0.014092 0.018566 0.011958 16 64 66
-0.127437 -0.050685 0.115058 35 34 31
0.049791 -0.020631 -0.019742 64 76 71
0.029107 0.018224 -0.079542 178 176 177
0.027543 0.014814 -0.072742 179 175 176
0.034751 0.016515 -0.075542 178 176 176
-0.068696 -0.021321 0.064758 25 80 83
0.011600 0.001615 0.035758 79 85 85
0.056102 0.001767 -0.015342 95 106 105
-0.000984 0.034572 -0.044442 37 96 101
-0.115782 -0.079317 0.131358 59 67 60
-0.047882 0.009028 0.035558 8 58 62
0.021203 0.003293 0.027358 84 94 89
0.028556 0.015929 -0.074942 180 175 179
-0.040660 0.015070 0.030358 11 56 61
-0.067680 -0.040220 0.088958 72 82 77
-0.136573 -0.059678 0.119658 58 58 58
0.016217 0.018329 -0.007942 34 92 99
0.028455 0.022848 -0.077642 101 104 107
0.048824 -0.009712 -0.009342 56 69 68
-0.077757 0.028235 0.022258 32 84 81
-0.088507 0.007059 0.064158 9 52 50
-0.006309 0.003262 0.018958 31 93 100
-0.067340 0.035268 0.014658 35 87 89
0.038528 0.012539 -0.066642 183 181 181
0.044503 0.015668 -0.072242 184 182 176
0.034635 0.020842 -0.084142 184 182 176
0.047277 -0.018912 -0.005442 103 113 108
0.031585 0.021730 -0.083442 98 104 103
-0.018887 -0.034386 0.046958 89 102 101
-0.004985 0.042418 0.005958 9 49 57
0.029657 0.023753 -0.078542 110 108 108
-0.081782 -0.060902 0.102558 73 85 80
0.044736 0.000129 0.003958 96 105 104
-0.012920 0.045609 -0.004242 28 86 93
0.051791 -0.000708 -0.010242 95 103 105
0.070600 -0.006107 -0.033042 105 106 103
-0.023290 -0.051819 0.044758 90 103 101
0.041214 0.019947 -0.081742 183 183 177
0.046039 0.005118 -0.050542 98 109 108
-0.054400 -0.064573 0.067558 86 98 93
0.032178 0.016687 -0.075942 180 178 178
0.037731 0.014230 -0.070142 184 180 180
0.071025 -0.016097 -0.038642 116 121 117
-0.111865 -0.022731 0.072558 10 58 60
-0.066230 -0.028989 0.096858 60 70 65
-0.128033 -0.067871 0.148058 47 51 40
0.006685 0.013246 0.001258 37 92 100
0.020240 -0.002062 0.024358 89 95 94
0.048310 -0.003615 -0.003342 82 90 92
0.032888 -0.017258 0.008658 95 104 103
-0.007013 -0.033155 0.036658 89 102 101
0.038994 0.018446 -0.078842 183 180 177
0.045663 -0.025510 -0.007742 102 113 105
-0.005995 0.035178 0.006558 17 58 63
0.045342 -0.003001 0.003158 96 105 104
0.003316 -0.000902 0.041158 74 83 81
-0.037234 -0.048549 0.057658 54 58 57
0.030525 -0.024646 0.006658 77 84 80
0.051546 -0.000115 -0.010042 95 103 105
-0.047270 0.045605 -0.009442 29 89 91
-0.074827 -0.052803 0.093858 79 88 86
-0.016385 0.029922 0.013858 14 62 64
-0.022824 0.034131 0.019658 14 56 64
0.044619 0.017477 -0.076142 182 180 174
0.061689 -0.002575 -0.022942 98 105 101
-0.123249 -0.053199 0.125058 52 50 51
-0.003518 -0.044871 0.027958 93 107 102
-0.023870 -0.008488 0.062058 68 77 75
-0.117750 -0.066008 0.092258 3 10 6
-0.026888 0.047345 -0.010442 36 92 98
0.059776 -0.000286 -0.019542 93 103 98
-0.060679 0.026203 0.029758 28 85 88
-0.078382 0.016427 0.056758 23 78 81
-0.075479 0.029363 0.019458 26 86 88
0.041606 0.013450 -0.068142 184 182 182
-0.057956 0.015496 0.041658 4 52 54
0.032336 0.018868 -0.080442 182 178 178
0.049822 -0.024623 -0.021342 67 78 76
0.033867 0.019747 -0.082042 183 179 180
0.050442 -0.024180 -0.022142 74 83 81
-0.059225 0.023598 0.042358 20 80 82
0.001562 -0.042602 0.025058 94 106 101
0.043183 0.015174 -0.071542 186 183 180
0.032845 0.020616 -0.083642 173 169 169
0.034179 0.018864 -0.080242 178 178 179
-0.127397 -0.064869 0.116058 70 77 68
-0.068663 -0.016286 0.054058 24 81 84
0.004028 0.015561 -0.000542 21 73 77
-0.080425 -0.002623 0.058558 12 56 57
-0.028064 0.046869 -0.010042 38 92 98
0.061337 -0.009886 -0.025942 102 107 103
-0.049967 -0.011405 0.044958 28 87 92
0.006725 -0.034546 0.022458 67 80 72
-0.013067 -0.022275 0.048758 87 98 96
0.027305 0.021055 -0.077442 102 104 109
-0.021231 0.045778 -0.006742 34 92 99
0.059656 0.006960 -0.052742 182 175 170
0.010557 -0.015205 0.029158 93 102 100
-0.034761 0.004592 0.026358 10 55 60
-0.078021 0.024232 0.027958 26 86 93
-0.111806 -0.027263 0.073858 14 59 62
-0.044299 0.024740 0.034658 9 53 61
-0.037339 -0.057928 0.054558 44 46 40
0.061261 -0.015051 -0.027842 109 114 110
0.042048 -0.028558 -0.004742 100 111 109
-0.059171 -0.069404 0.072558 82 98 83
-0.066218 0.007189 0.047758 10 55 58
0.027622 0.019121 -0.080542 114 111 115
0.016963 0.034242 -0.041242 22 75 83
-0.033356 0.041575 0.002058 27 86 91
0.032742 0.009552 0.018758 81 90 88
0.069607 -0.013401 -0.035442 109 115 108
-0.127048 -0.051385 0.117658 74 74 68
-0.022603 -0.002756 0.030558 23 78 86
0.035156 0.020585 -0.083742 183 180 177
-0.018606 0.009587 0.015658 18 66 70
-0.000603 0.035054 0.002058 13 56 61
0.022593 -0.036300 0.009858 100 111 110
0.048907 -0.027910 -0.021842 64 70 69
0.065552 -0.005443 -0.028042 66 78 73
0.059497 -0.020856 -0.029542 109 116 112
-0.134022 -0.050281 0.118658 49 57 50
0.062444 -0.011658 -0.027642 100 107 103
-0.012627 -0.031914 0.041858 91 102 100
-0.017974 0.030539 0.015458 16 64 66
0.009751 0.033250 -0.040042 33 88 96
0.034850 -0.019221 0.005658 95 104 102
-0.058994 -0.000532 0.042358 14 60 61
0.029832 0.015325 -0.073742 180 178 179
0.043259 -0.024599 -0.004742 104 113 111
-0.078657 0.022708 0.035358 31 88 89
0.032008 0.013091 -0.068542 183 179 179
0.025556 0.005293 0.024458 85 91 90
0.031286 0.018013 -0.079042 177 175 175
-0.051273 0.025012 0.038858 6 44 50
0.054094 0.010822 -0.061342 168 160 158
0.010076 0.034409 -0.043042 30 84 90
0.032413 0.020088 -0.082942 182 178 178
-0.064239 -0.017924 0.055658 22 79 82
-0.066579 0.029112 0.024358 31 86 89
0.034276 0.013764 0.018458 78 84 84
0.053053 -0.019629 -0.023342 102 112 107
0.037687 -0.002613 0.009858 94 103 101
0.031758 -0.009437 0.011858 96 105 104
-0.046743 -0.053990 0.061758 85 98 90
0.030284 0.019788 -0.082242 187 183 183
0.019859 -0.034071 0.011558 101 110 108
0.045202 -0.017198 -0.003342 97 106 104
-0.026758 0.046324 -0.008442 30 90 92
-0.024268 0.045438 -0.008042 27 89 91
-0.052852 0.012821 0.038858 11 55 56
0.035238 0.018640 -0.079642 182 181 178
0.063401 -0.022559 -0.034142 105 114 105
-0.017973 0.011215 0.014458 17 65 67
-0.040400 -0.048549 0.057658 74 84 79
-0.002675 -0.033350 0.032158 90 103 102
0.025657 0.019633 -0.011142 34 92 99
0.022799 0.018401 -0.008042 36 94 101
-0.001430 0.018751 0.003358 17 67 69
0.062736 -0.011006 -0.027442 100 107 103
0.054753 -0.006576 -0.016842 96 105 103
0.049127 -0.023323 -0.016442 70 81 80
-0.051553 -0.044948 0.069558 79 92 90
0.057247 0.007581 -0.054042 174 169 164
0.013199 -0.003085 0.031758 86 92 91
0.037703 0.016731 -0.075242 181 179 179
-0.055740 0.030283 0.023958 30 89 94
-0.095278 -0.004736 0.068258 5 38 38
-0.023057 -0.038468 0.050258 90 103 101
0.017073 0.033182 -0.039342 28 81 89
0.070049 -0.018281 -0.039342 113 117 116
-0.029439 0.027867 0.025058 19 57 63
0.032151 0.015948 -0.074542 182 178 178
0.038094 0.018654 -0.079342 184 182 176
0.000064 0.009491 0.008258 38 97 102
-0.068088 0.030744 0.019458 26 86 88
-0.099416 -0.024872 0.065358 22 72 76
0.017660 0.016218 -0.004442 36 94 101
0.070248 -0.013557 -0.036242 111 113 107
-0.054413 0.041909 0.001058 37 87 91
0.067460 -0.008294 -0.031642 107 109 103
0.050058 -0.009382 -0.013642 58 71 69
0.033230 0.020256 -0.083242 182 178 178
-0.113058 -0.002828 0.075258 10 49 51
-0.083010 -0.003301 0.059058 11 56 61
0.020190 -0.016221 0.018158 95 104 102
0.032425 0.000869 0.015658 89 98 97
0.031679 -0.019540 0.008358 94 105 103
-0.011162 -0.036902 0.037958 89 102 101
0.061908 -0.010465 -0.026242 105 110 106
0.024116 -0.011047 0.018758 93 102 100
0.005456 0.001787 0.040258 72 81 79
-0.054749 0.036229 0.013258 21 82 87
0.009605 0.033587 -0.041442 32 88 94
0.050612 -0.002776 -0.010842 94 103 102
0.031004 0.020084 -0.082542 189 182 183
0.044114 0.011675 0.011358 87 95 97
-0.019633 -0.051968 0.041358 94 108 103
0.026687 0.017875 -0.078942 157 155 156
0.013633 0.014191 -0.001542 29 89 96
0.010141 0.034534 -0.043142 33 84 91
-0.013399 0.029020 0.012158 11 59 63
-0.056278 0.041190 0.005658 18 72 78
-0.027651 -0.038300 0.055958 91 102 100
-0.034491 -0.032695 0.063258 91 100 98
0.051222 -0.002090 -0.010842 94 103 102
0.029539 0.024224 -0.077742 94 92 98
0.003188 0.033678 -0.041842 36 95 105
-0.047499 0.032212 0.025258 28 88 88
-0.085899 0.019838 0.043258 29 79 88
0.001173 -0.014683 0.037958 88 99 97
0.040678 0.004941 0.010758 90 99 98
-0.064445 0.002390 0.045958 10 58 60
-0.022487 0.017458 0.017958 17 65 67
0.058837 -0.003225 -0.020442 97 104 100
0.007790 0.002935 0.037958 73 81 83
0.034105 -0.026728 0.003958 104 111 107
-0.006178 0.018400 0.006158 17 65 69
0.006774 -0.003671 0.036658 82 91 89
0.027495 -0.029551 0.006658 100 109 107
0.022939 -0.003072 0.022258 90 99 97
-0.070170 0.013454 0.051558 10 51 54
0.021262 -0.031522 0.012258 102 111 110
0.026853 0.016230 -0.075742 178 176 177
0.006871 0.031704 -0.036342 38 94 100
0.008423 0.035275 -0.044942 32 86 92
-0.008605 0.032082 0.008258 16 59 64
0.051843 0.012419 -0.064542 177 171 169
-0.003611 0.011558 0.005258 26 80 86
-0.020352 0.034079 0.017658 12 57 62
-0.048226 -0.056511 0.060558 50 60 55
-0.094435 -0.039253 0.117658 56 62 61
0.024288 -0.008213 0.018158 93 102 101
-0.124476 -0.067684 0.146158 38 44 37
0.050065 -0.012784 -0.016442 59 75 72
0.042570 -0.016447 -0.001042 99 110 109
0.002403 0.009319 0.007658 36 95 100
-0.000213 -0.000124 0.044758 69 78 77
0.040024 0.019644 -0.080942 187 181 179
0.028623 -0.036273 0.004058 97 110 109
0.004270 0.019581 -0.001742 21 66 69
-0.127775 -0.050347 0.115058 38 36 30
0.004773 -0.009123 0.036658 86 95 93
-0.011346 -0.043788 0.037758 93 107 102
0.034203 0.018533 -0.079542 180 178 178
-0.021918 0.036958 0.018958 3 41 47
0.033905 0.016382 -0.075042 182 180 180
0.051894 -0.021284 -0.022642 102 111 109
0.005578 -0.042363 0.022858 94 108 103
0.038068 0.021233 -0.084442 185 180 175
0.057288 0.008673 -0.056742 161 157 150
0.031468 -0.015873 0.008958 95 104 102
-0.056127 0.003496 0.040258 12 60 62
0.043898 0.007614 0.007558 90 99 98
0.039576 -0.034542 -0.004142 103 113 108
-0.012333 0.042047 0.008358 24 82 89
-0.009756 0.003630 0.017658 33 94 104
-0.079111 -0.052243 0.098158 74 85 83
0.027022 0.016642 -0.076442 177 175 176
-0.029785 0.046758 -0.010142 31 91 93
-0.082418 -0.024998 0.066658 26 78 80
0.043909 0.009313 0.008058 89 98 97
-0.122497 -0.079321 0.103058 73 78 74
-0.029510 -0.005495 0.034058 21 80 85
0.035884 0.011703 0.017258 81 90 88
0.062228 -0.011429 -0.027042 100 107 103
0.040839 -0.034686 -0.005542 101 112 110
-0.040183 0.009093 0.030758 11 56 61
0.049144 -0.011595 -0.010642 53 64 63
0.026791 0.017285 -0.077942 180 176 177
0.034679 0.019836 -0.082242 182 178 178
0.064321 -0.017696 -0.032142 112 113 110
0.043251 0.018555 -0.078442 184 181 178
0.000979 -0.000854 0.043558 72 80 82
0.047579 -0.013939 -0.003642 101 110 108
-0.074593 0.018944 0.043958 20 79 84
0.028783 0.023156 -0.077942 104 110 109
0.043813 0.016143 -0.073442 185 179 177
0.025463 -0.001076 0.022458 89 95 94
0.023535 -0.036967 0.008058 99 110 108
-0.121472 -0.055277 0.144158 30 34 33
-0.050331 0.042545 -0.001842 26 89 94
-0.034911 0.025485 0.028958 9 54 57
-0.031656 -0.012563 0.070558 67 77 72
-0.058302 0.001661 0.042358 10 58 62
0.027867 0.016870 -0.077142 178 176 177
0.032981 0.016907 -0.076542 180 178 178
-0.009890 -0.022279 0.046458 88 99 97
0.059071 -0.007862 -0.022142 67 76 74
0.014003 0.027400 -0.009142 14 59 64
0.017629 0.034543 -0.042142 24 74 83
0.058807 -0.023096 -0.030342 107 113 112
0.029046 0.021496 -0.078742 93 101 103
0.073947 -0.004143 -0.034542 95 103 96
0.009335 -0.044216 0.017158 92 109 103
0.023556 0.005028 0.025858 82 91 89
0.053281 -0.024979 -0.025542 103 113 108
0.049213 -0.024975 -0.020242 63 75 70
-0.062274 0.040369 0.001358 34 86 90
-0.139544 -0.061896 0.121258 58 60 54
0.026997 -0.035308 0.005858 99 110 109
0.021284 0.029945 -0.032742 30 87 97
0.024775 0.024635 -0.073642 94 97 100
-0.015437 0.021866 0.012458 17 65 67
0.024897 0.018922 -0.078342 91 98 102
0.035565 -0.030073 0.000158 101 110 108
0.039913 0.020925 -0.083742 184 181 178
0.002018 -0.002512 0.042558 76 85 83
-0.050345 0.028956 0.030558 27 85 92
0.055892 -0.009158 -0.020542 67 80 72
0.050037 -0.012076 -0.015142 58 73 74
-0.104515 -0.046874 0.127358 45 54 45
-0.093856 -0.030046 0.078458 18 73 76
0.066803 -0.011236 -0.032042 104 110 103
0.044516 0.017120 -0.075342 186 180 178
-0.112371 -0.080289 0.126758 52 65 57
0.034345 -0.019360 0.005858 97 107 102
0.019568 0.023796 -0.012542 14 59 64
-0.085992 0.004626 0.062358 15 59 60
-0.040820 -0.023464 0.069858 54 64 59
0.044487 0.017437 -0.076042 184 181 178
-0.021220 0.040629 0.007358 29 88 93
0.060192 -0.014306 -0.026442 104 110 109
-0.088645 -0.062395 0.110558 74 81 77
-0.047481 0.028709 0.032958 28 88 90
-0.037049 0.044190 -0.004642 31 90 95
0.059469 -0.008312 -0.023542 75 81 80
0.033204 -0.018160 0.008258 95 104 103
0.040621 0.014353 -0.070242 184 183 180
-0.039946 0.034682 0.024658 9 56 63
0.040783 0.014435 -0.070442 182 181 178
0.035097 -0.019459 0.004858 96 105 103
-0.054944 -0.035590 0.080258 75 87 82
-0.013579 -0.016092 0.051358 86 94 96
0.021338 0.011124 0.029358 66 72 72
-0.051050 0.023925 0.039358 9 51 52
-0.063542 -0.025650 0.095558 58 69 67
0.034118 -0.021643 0.005458 93 104 102
0.053268 -0.023529 -0.024542 103 113 108
0.058204 -0.017839 -0.026542 105 112 108
-0.107425 -0.032195 0.076658 23 73 77
0.038367 0.018142 -0.078242 183 181 175
-0.130955 -0.068250 0.146758 52 55 47
-0.018686 -0.024607 0.052358 89 98 97
-0.089161 0.020398 0.037258 22 85 83
-0.041081 -0.004178 0.032958 18 81 86
-0.056954 -0.054088 0.072858 81 93 88
0.048693 0.001195 -0.005842 46 62 60
0.057746 0.004247 -0.047542 182 180 174
0.052854 0.004001 -0.008342 93 104 103
0.051989 -0.026719 -0.025142 103 113 108
-0.035231 -0.013369 0.072558 67 78 76
0.065068 -0.020467 -0.034942 109 116 107
-0.014339 0.033972 0.013258 12 57 62
-0.004545 0.006497 0.013658 36 96 103
0.059569 -0.023467 -0.030942 106 116 104
0.036607 0.021011 -0.084442 184 178 176
0.073035 0.002052 -0.030842 96 97 94
0.007909 0.032711 -0.039442 34 92 99
-0.004317 -0.022467 0.038658 87 100 99
-0.055839 0.022588 0.042758 9 48 50
0.023670 0.022832 -0.073842 69 81 83
-0.069698 -0.071856 0.080258 80 93 80
0.023976 0.019536 -0.075242 96 108 116
-0.080015 0.017037 0.049258 25 80 83
-0.041624 -0.049901 0.058258 56 68 63
-0.099808 0.010084 0.064158 28 77 84
0.057475 -0.014769 -0.024142 103 111 104
-0.000853 -0.002309 0.044258 75 84 83
-0.048735 0.029709 0.028958 31 87 93
0.004666 0.033840 -0.002242 11 56 61
-0.030581 0.047136 -0.011042 37 91 97
0.024247 0.017859 -0.078042 101 105 105
-0.010509 -0.049460 0.031958 93 107 102
-0.114472 -0.058592 0.140958 47 56 54
0.036694 -0.022518 0.002058 84 90 83
0.013951 -0.027252 0.020558 92 103 102
-0.013940 0.004984 0.015758 33 93 100
-0.037330 -0.010659 0.055658 33 85 87
-0.062612 -0.000571 0.044458 17 65 67
0.054007 -0.013072 -0.019842 98 105 101
0.039743 0.018015 -0.077642 181 180 177
0.012050 0.032987 -0.039442 30 85 93
-0.061103 0.006708 0.043558 10 58 62
0.064266 -0.017964 -0.032242 106 115 106
0.051535 -0.020439 -0.021342 103 110 106
-0.063478 0.032499 0.015158 24 85 90
0.027251 0.015145 -0.073442 180 178 179
0.007000 0.032465 -0.038942 34 92 99
0.021450 -0.016020 0.017658 94 105 104
0.039181 0.008961 0.012958 86 95 94
-0.011016 -0.028997 0.043058 89 102 101
0.036525 0.019821 -0.081942 184 180 180
-0.030899 -0.002119 0.027158 24 85 90
0.066037 -0.021268 -0.036542 112 119 110
-0.091223 0.011910 0.061158 28 80 82
-0.007635 -0.047682 0.031558 95 106 104
0.044440 0.010351 -0.061242 182 180 180
0.061296 -0.016573 -0.029442 105 110 106
0.038279 0.002183 0.011958 93 99 99
0.033452 0.016559 -0.075642 178 176 176
0.071848 -0.003672 -0.033242 98 100 94
-0.015805 0.006645 0.014858 25 81 87
-0.062053 -0.036005 0.085058 73 83 78
0.071443 -0.005468 -0.032942 99 103 102
-0.066820 -0.055242 0.082858 76 89 87
-0.030705 -0.011486 0.069558 67 78 76
0.020254 -0.028434 0.014358 68 78 73
0.036360 0.015884 -0.073842 181 179 179
-0.058183 0.013188 0.040958 10 55 58
0.037344 0.014701 -0.071142 181 180 177
-0.040558 0.046143 -0.008042 35 89 95
0.015878 0.032578 -0.038542 27 85 92
0.039591 0.008752 -0.058642 180 181 178
0.041762 0.019929 -0.081542 180 180 174
0.058079 -0.023777 -0.030042 107 113 112
0.070949 -0.012983 -0.037342 109 114 110
0.019358 0.030332 -0.033142 37 92 100
0.044071 0.018197 -0.077542 178 176 176
-0.002557 0.034888 0.003358 13 56 61
-0.091644 -0.017702 0.066058 17 54 56
-0.096983 -0.005613 0.067558 4 48 49
0.013997 0.017038 -0.005742 33 91 98
0.020318 0.034222 -0.040442 20 73 81
0.029242 0.023953 -0.077742 88 90 95
0.024784 -0.031963 0.009758 96 107 105
-0.032751 -0.035412 0.058758 90 103 101
-0.127435 -0.062258 0.134258 58 62 61
-0.008588 -0.012328 0.046458 84 93 92
0.044004 0.014160 -0.069242 185 182 179
0.029374 0.014863 -0.072542 180 176 176
0.032323 0.020730 -0.083642 182 175 176
0.025595 0.023250 -0.074342 91 94 97
-0.111597 -0.018897 0.073558 9 54 52
-0.084396 -0.067286 0.099058 81 87 86
0.026685 0.017026 -0.077542 179 175 175
0.032268 0.012417 -0.067242 182 178 178
0.041005 0.017324 -0.076042 181 175 173
-0.023581 0.040414 0.007958 22 84 86
-0.094421 -0.024237 0.064158 14 72 79
-0.120831 -0.072239 0.112558 61 61 62
0.062827 -0.021221 -0.033342 105 115 110
0.040620 -0.014088 0.001958 95 104 103
0.035496 -0.018386 0.005858 97 106 104
-0.014214 -0.047521 0.037558 92 105 104
-0.031125 0.039770 0.009458 26 88 90
0.037283 -0.026594 0.000358 102 112 107
0.048679 -0.004191 -0.007342 53 65 67
-0.064911 -0.060238 0.079458 80 91 89
0.056676 0.000009 -0.015942 92 105 103
0.051856 0.004996 -0.049742 184 181 178
0.024814 0.025745 -0.073142 89 88 92
0.021709 -0.035111 0.011358 96 107 106
-0.044238 0.044238 -0.003942 26 87 92
0.025307 0.019230 -0.078742 79 86 90
-0.102517 0.005574 0.069858 12 49 51
0.030798 0.023366 -0.079642 107 111 111
-0.063221 0.036667 0.009458 35 90 93
0.017850 -0.025344 0.017958 93 104 102
-0.024877 0.036705 0.016658 26 85 90
0.062061 -0.013960 -0.027642 104 109 105
-0.004316 -0.014503 0.041658 88 97 95
0.066824 -0.017246 -0.034942 109 114 110
-0.047246 0.036466 0.018958 25 81 87
0.035744 0.010447 0.016158 82 91 89
-0.013322 0.035209 0.011858 10 57 64
0.037917 0.018387 -0.078742 184 181 178
0.041056 0.013296 0.014058 84 90 90
-0.048572 0.036667 0.016958 24 81 84
0.037969 0.020332 -0.082742 183 180 177
0.055693 -0.021585 -0.026042 101 111 106
-0.037146 -0.021385 0.071158 84 89 85
0.047012 0.015289 -0.071342 179 173 171
0.037842 0.019322 -0.080642 185 179 177
0.011289 0.035838 -0.044942 27 80 88
0.039388 0.010441 -0.062242 182 180 180
0.070809 -0.017646 -0.039842 116 119 111
-0.011616 -0.028709 0.043758 89 102 101
0.050405 0.009101 -0.058042 183 180 177
0.035911 0.016815 -0.075842 180 178 178
-0.115286 -0.008791 0.074858 9 48 50
0.052508 0.007572 -0.054642 180 176 169
-0.074815 -0.052354 0.099058 72 87 79
0.048670 -0.005517 -0.007942 53 66 65
-0.125522 -0.055881 0.112058 42 40 40
-0.127160 -0.068451 0.146158 47 54 45
-0.018127 0.005851 0.015658 24 78 84
-0.051925 -0.051613 0.065358 81 93 88
-0.101778 0.008428 0.069558 29 77 81
0.023811 0.016855 -0.077242 183 179 180
0.041506 -0.012236 0.002558 100 106 106
0.023662 0.006471 0.025958 81 90 88
-0.031070 0.044140 -0.005342 33 87 93
-0.050020 -0.050302 0.063858 85 97 92
0.028538 0.019100 -0.080842 189 182 184
-0.058029 0.043185 -0.003642 39 87 96
-0.081794 -0.069879 0.089358 77 87 82
-0.061989 0.034079 0.013858 28 85 88
-0.064656 -0.069397 0.079858 86 96 91
0.048618 -0.026153 -0.010342 103 114 106
0.026696 0.018824 -0.079742 105 108 111
0.056652 -0.015131 -0.024042 100 106 105
-0.062074 0.036026 0.010358 31 86 87
-0.063526 0.025522 0.032558 32 87 90
-0.145672 -0.054944 0.118158 65 68 60
0.028305 0.016678 -0.004942 35 91 97
-0.053511 -0.002210 0.039058 12 60 62
0.025315 -0.024891 0.011258 93 104 103
0.023747 0.020528 -0.011342 40 98 105
0.038011 0.014145 -0.069942 183 179 179
-0.014316 0.011306 0.012458 16 66 68
0.013266 0.027196 -0.008442 13 56 59
-0.076338 0.009518 0.054258 6 51 56
0.009989 0.031889 -0.036942 35 93 100
-0.010809 -0.007569 0.051558 75 84 82
0.005486 -0.029797 0.026958 90 103 102
-0.024338 0.013192 0.019458 12 62 64
-0.062745 -0.016624 0.052358 24 81 84
0.063262 -0.003727 -0.024542 95 102 98
0.031033 0.021306 -0.082842 99 102 105
-0.017023 0.044814 -0.002842 30 89 94
-0.075494 0.025752 0.025458 31 87 93
0.041728 0.018718 -0.079042 185 179 177
0.058199 0.000735 -0.015942 94 105 104
-0.001463 0.025679 0.002558 12 60 64
-0.002486 0.009951 0.007358 35 95 102
-0.033824 -0.050900 0.054058 74 83 81
-0.047424 -0.055191 0.061158 80 95 87
0.048240 0.000145 -0.005742 48 61 59
0.017480 0.031137 -0.034942 32 84 95
-0.121220 -0.051394 0.117058 20 21 13
0.039448 -0.019656 0.000658 96 105 103
0.037595 0.020884 -0.083942 183 181 175
0.073094 0.001755 -0.030942 93 93 93
-0.033161 -0.057682 0.051558 91 104 102
-0.034056 -0.015193 0.070858 69 78 76
-0.090735 -0.076981 0.098558 72 83 75
-0.081079 0.015824 0.053258 25 80 83
0.034068 -0.025806 0.004358 100 111 110
-0.014013 -0.001088 0.033658 39 93 99
0.008039 -0.040938 0.019958 98 109 107
0.026029 0.017871 -0.007742 31 89 96
0.013953 -0.006486 0.028758 88 97 96
0.038932 0.009543 -0.060442 181 179 179
-0.048479 0.041776 0.003158 33 85 96
0.020969 -0.034925 0.011358 99 110 108
-0.021950 -0.033887 0.052158 89 102 101
0.053456 -0.008236 -0.016442 97 107 102
0.018134 0.036470 -0.044042 15 57 65
0.049889 0.010783 -0.061442 186 183 180
-0.104949 0.005135 0.070858 2 36 39
-0.038304 0.040023 0.004858 29 84 92
0.027665 0.024157 -0.075942 107 107 108
0.033988 0.020318 -0.083342 184 180 180
-0.064015 0.022361 0.044458 23 80 83
-0.095562 -0.029151 0.074258 24 75 75
-0.007293 -0.028969 0.040258 89 102 100
0.002798 -0.042052 0.024158 92 106 101
0.013099 -0.032783 0.017458 99 110 108
0.041099 -0.023000 -0.001742 105 111 110
0.028250 0.016572 -0.076342 180 178 179
0.068237 -0.000960 -0.028242 94 101 92
-0.031015 -0.031402 0.061158 87 101 96
-0.020918 -0.048208 0.043258 92 106 101
-0.017999 -0.004146 0.054258 51 64 63
-0.016207 0.018849 0.013558 16 66 70
-0.049066 0.031416 0.026158 29 88 93
0.030509 0.015225 -0.073242 180 178 178
-0.010466 -0.048406 0.033358 98 109 107
-0.019980 0.045166 -0.005142 22 83 88
0.028624 -0.030810 0.005158 99 110 108
-0.025081 0.044903 -0.006242 25 88 93
0.013425 -0.041754 0.014458 96 109 107
0.036528 -0.013684 0.006258 95 104 102
-0.009944 0.026840 0.008958 17 65 69
0.036427 0.016759 -0.075642 181 179 180
-0.043359 0.021980 0.032958 13 58 61
-0.084811 0.001939 0.061458 12 55 58
-0.106246 -0.020394 0.070158 9 52 55
-0.051958 0.047380 -0.013542 37 86 98
0.043593 -0.003105 0.004758 97 106 105
0.038073 0.011996 -0.065542 182 180 180
0.039318 -0.012569 0.003358 98 104 104
0.073970 -0.005496 -0.035942 99 104 100
0.065009 -0.021522 -0.034942 108 119 111
0.026374 0.018270 -0.079442 170 166 167
-0.001358 -0.024202 0.035958 92 103 102
0.069228 -0.007925 -0.032442 104 111 102
-0.092297 -0.022509 0.064758 3 52 52
0.021537 0.031788 -0.036242 26 81 89
-0.002394 -0.037016 0.029558 68 83 84
0.032118 0.021025 -0.083642 114 112 113
-0.021186 0.047419 -0.009342 31 90 95
-0.017984 0.021714 0.015158 19 64 67
0.040106 -0.031054 -0.004342 102 114 109
-0.072081 0.030621 0.017958 24 84 86
0.052620 0.007225 -0.054042 182 180 174
-0.049019 -0.052213 0.062958 86 98 93
0.074400 -0.004301 -0.035242 94 102 104
-0.140817 -0.058777 0.121858 58 65 56
0.042646 0.012007 -0.064942 182 180 180
0.039977 0.013845 -0.068942 183 181 181
-0.028623 -0.034484 0.057658 88 99 97
0.055308 -0.019694 -0.023742 101 112 104
-0.023385 0.040017 0.008958 29 88 93
0.029736 -0.037608 0.002858 100 111 109
0.040567 0.019644 -0.080942 185 180 175
-0.020527 -0.007293 0.059358 69 79 74
-0.065964 0.019979 0.047958 22 74 76
0.034130 -0.026180 0.004158 99 110 108
0.034566 -0.033573 0.000258 102 111 109
-0.039709 0.040809 0.002758 24 83 88
0.022493 0.017701 -0.076642 93 103 110
0.049129 0.001787 -0.007142 47 65 63
-0.050335 -0.012592 0.047458 25 87 89
0.029398 0.023618 -0.078242 108 108 108
0.054177 0.005443 -0.049942 182 180 174
-0.028755 0.015637 0.024858 0 21 21
0.040372 0.010649 0.013358 86 92 92
-0.018681 0.022868 0.015258 16 61 64
0.027657 -0.003909 0.018958 88 98 100
0.003377 0.034231 -0.042942 38 94 100
0.069044 -0.007240 -0.031442 100 106 99
0.040234 0.019446 -0.080442 186 180 178
0.042451 -0.033614 -0.007342 103 112 110
-0.008537 0.016329 0.007558 17 65 67
0.000822 0.035697 -0.046742 40 99 104
-0.071816 0.026098 0.027758 27 87 89
0.032913 0.016797 -0.076342 182 178 179
0.002140 0.033271 -0.041242 33 89 95
-0.101723 0.003444 0.068858 11 49 53
0.037960 0.017015 -0.075842 183 179 179
-0.074070 0.019075 0.044258 25 81 87
0.068431 -0.015048 -0.035742 109 116 112
0.059629 -0.005435 -0.021642 95 107 102
0.027222 0.021964 -0.076942 100 105 108
0.003795 -0.006008 0.038658 82 91 89
0.008890 0.032521 -0.038942 32 92 99
-0.027802 -0.021409 0.060258 84 93 91
-0.031596 0.024698 0.027358 0 23 23
-0.059458 0.000923 0.043058 12 61 61
-0.017610 0.045916 -0.004042 26 89 94
0.001908 0.007116 0.011958 37 95 102
0.022599 -0.036101 0.010058 100 112 107
0.040842 -0.011316 0.003158 97 106 105
-0.084082 -0.055655 0.099058 75 81 81
0.059089 -0.008958 -0.023342 84 91 87
-0.041468 0.045599 -0.007542 28 89 94
0.011590 0.034547 -0.042942 28 86 93
-0.055472 0.037880 0.009158 25 87 89
-0.029920 0.010506 0.025258 2 41 43
-0.051263 0.042380 -0.001542 29 86 96
0.026878 0.018418 -0.079842 177 172 176
0.035082 0.016083 -0.074642 180 179 176
0.040378 0.018235 -0.078042 184 181 178
-0.039368 -0.010469 0.043258 29 89 91
-0.022660 -0.012276 0.060258 73 82 80
0.024017 0.020021 -0.075142 103 107 112
-0.033822 0.046456 -0.009442 29 90 95
0.073414 -0.006408 -0.035742 102 106 105
-0.063628 -0.049063 0.083558 79 92 84
-0.014549 -0.023982 0.046658 87 98 97
-0.040964 -0.042521 0.061158 69 79 74
0.006151 0.035351 -0.003642 12 55 60
0.029997 0.010013 0.022458 79 88 87
-0.055761 0.026843 0.031758 22 85 90
0.054763 0.010641 -0.063142 146 141 150
-0.069245 -0.041577 0.090158 74 81 77
-0.025788 0.017186 0.020558 15 65 69
-0.072791 0.023973 0.030958 30 80 89
0.019519 0.032003 -0.036942 28 81 89
0.059816 -0.023322 -0.031442 107 116 107
-0.109584 -0.065187 0.127858 55 65 60
0.000044 -0.044277 0.025658 92 109 103
0.011934 0.035731 -0.045242 26 80 86
-0.035877 0.045617 -0.007242 34 89 92
0.018742 0.023219 -0.012342 13 58 63
-0.091109 -0.055095 0.103958 74 79 75
0.019241 0.029384 -0.031742 37 89 100
0.031862 -0.017487 0.009258 95 104 103
0.021115 -0.040046 0.008958 101 111 106
-0.120562 -0.080827 0.108658 56 67 66
-0.023534 -0.031670 0.054058 89 100 98
0.048268 0.000372 -0.002242 50 61 65
0.062374 -0.023202 -0.033742 108 114 107
-0.072790 0.031472 0.017158 29 80 87
-0.015640 -0.010356 0.054258 77 86 85
-0.042792 0.006778 0.033158 11 56 59
-0.005509 0.015032 0.006358 16 64 66
-0.013787 0.031861 0.011858 10 58 62
-0.008732 -0.034605 0.038158 87 103 101
0.037486 0.001322 0.012258 93 99 99
0.053890 -0.008053 -0.016642 94 106 101
0.032825 0.021088 -0.084142 161 154 155
0.065642 -0.021277 -0.036242 112 118 111
-0.022155 0.005347 0.018458 17 67 71
0.018218 0.032804 -0.037942 32 82 91
-0.016989 0.032062 0.013658 16 61 66
0.063354 -0.019683 -0.033142 111 118 109
-0.011570 0.045567 0.001058 24 83 88
0.072839 0.001237 -0.031242 93 96 88
0.030579 -0.017603 0.010158 96 105 104
0.030235 0.019346 -0.081542 163 160 164
0.050942 -0.024231 -0.023242 103 113 108
-0.085342 -0.016201 0.062358 13 56 54
0.000740 0.036913 0.001158 11 51 59
-0.065339 -0.068803 0.079458 81 93 88
-0.008649 -0.002029 0.051058 70 81 79
0.031102 0.016502 -0.075842 180 176 176
-0.028643 -0.005997 0.037558 22 78 84
-0.037571 -0.041217 0.060258 48 52 51
0.036911 0.019397 -0.080942 184 180 181
-0.079007 0.019785 0.040258 23 80 81
0.036207 0.016091 -0.074342 181 180 177
-0.078486 -0.059599 0.098158 81 87 86
0.005204 -0.038469 0.023558 96 109 108
0.024075 0.015730 -0.075142 160 165 168
-0.003440 0.038939 0.004358 14 57 62
-0.062721 0.023674 0.040458 25 82 85
-0.004492 0.020814 0.005258 16 64 66
0.029254 0.017842 -0.078842 180 178 179
-0.024545 0.039791 0.009158 27 85 92
0.046300 0.007966 -0.056242 181 180 177
-0.112489 -0.022647 0.072858 8 56 58
-0.064769 -0.040067 0.083158 73 84 82
0.071482 -0.007816 -0.034442 108 109 106
-0.068783 0.034538 0.012758 30 87 90
0.059994 -0.009708 -0.024742 102 110 103
0.026265 0.018239 -0.079342 166 162 163
0.007074 0.035105 -0.044542 35 88 96
-0.042853 -0.019451 0.073558 43 53 48
-0.043828 0.045285 -0.007542 26 82 88
0.029759 0.018640 -0.080342 177 175 176
-0.072524 0.008913 0.052958 16 61 64
-0.050606 0.004482 0.035958 12 57 60
-0.016108 0.041691 0.007658 28 86 93
0.033392 0.015089 -0.072442 178 176 176
0.026320 0.024300 -0.074742 106 109 112
-0.088237 -0.065536 0.107658 76 86 81
0.066111 -0.014529 -0.033342 108 116 104
0.031212 0.021033 -0.083042 100 104 104
0.044930 0.013903 -0.068542 185 182 179
0.039570 -0.027189 -0.002842 101 112 110
0.026084 0.017875 -0.078942 184 180 180
-0.015237 0.040005 0.014158 0 33 39
-0.010756 -0.041379 0.035358 59 71 66
-0.007116 -0.031655 0.037258 89 102 101
0.017135 0.027239 -0.027542 37 92 100
0.049998 -0.025113 -0.021842 70 80 75
0.041736 0.000156 0.006558 95 104 102
0.038957 0.014884 -0.071242 183 181 181
0.025885 0.025527 -0.073842 110 107 111
0.015310 0.035774 -0.044542 24 77 85
-0.023451 0.041915 0.003358 27 88 93
-0.076434 0.024470 0.027158 28 84 90
-0.001387 -0.015252 0.038658 88 97 96
0.017998 0.028433 -0.029842 38 92 103
0.044143 0.015879 -0.072842 184 182 176
0.024654 -0.028869 0.010958 100 109 107
0.060243 -0.004546 -0.021642 96 103 99
0.065590 -0.009749 -0.029942 100 108 101
0.016624 0.034744 -0.042342 29 78 85
-0.061088 0.002276 0.043758 14 62 64
-0.078589 -0.045725 0.102558 70 81 79
0.031792 -0.013789 0.010358 96 105 104
-0.050558 0.000752 0.037058 14 62 64
-0.055264 0.028563 0.029958 29 86 89
0.019013 -0.003630 0.025658 88 97 95
-0.006776 -0.049475 0.030958 95 106 104
0.008320 0.035326 -0.044942 35 86 93
0.050340 -0.025082 -0.022442 72 83 75
0.049165 0.010626 -0.061342 184 181 178
0.026894 0.019279 -0.009842 31 89 96
-0.043560 0.014688 0.032158 10 55 58
0.068383 -0.010866 -0.032742 106 111 107
0.050861 0.004737 -0.049042 182 179 176
-0.006278 -0.049522 0.030558 96 108 103
-0.008717 0.010936 0.009158 19 71 75
0.032670 0.017803 -0.078342 180 178 178
0.064686 -0.007287 -0.027142 98 106 99
-0.080080 0.003898 0.057958 15 60 58
-0.005407 0.032292 0.005858 13 58 61
-0.096433 -0.000278 0.067958 1 41 40
-0.030387 0.046784 -0.009842 33 93 95
0.044359 0.008230 -0.057242 181 180 177
-0.040428 0.008441 0.031358 12 57 60
0.019616 0.033595 -0.039442 27 80 88
0.000781 -0.034429 0.028758 87 100 98
-0.088387 -0.051908 0.100758 65 76 68
-0.034856 -0.043129 0.058558 95 104 102
0.052031 0.007276 -0.054142 178 176 170
-0.071571 -0.071343 0.082458 81 90 88
-0.025657 -0.004836 0.035058 23 82 87
0.055549 -0.013402 -0.021242 102 109 105
-0.087474 -0.003339 0.062658 15 58 61
0.073256 0.002493 -0.031542 91 95 94
0.014706 0.014030 -0.001342 29 87 94
0.065887 -0.018190 -0.034442 112 114 108
-0.021576 -0.039471 0.047258 87 101 96
0.060836 -0.019783 -0.029742 106 113 104
0.020459 0.037495 -0.041642 6 33 37
-0.052727 0.031606 0.023258 26 87 92
0.055787 0.009780 -0.058642 175 168 163
0.025536 -0.028890 0.010158 100 109 108
0.001773 0.029399 -0.000042 18 62 63
0.034292 -0.026323 0.004058 103 113 108
-0.019838 0.022767 0.016258 17 62 65
-0.055641 0.025453 0.039958 25 79 85
0.054281 -0.024727 -0.026642 103 111 104
0.045412 0.014220 -0.069342 185 182 179
0.044044 0.005395 0.006958 89 101 103
0.046888 -0.014298 -0.003142 96 107 105
0.072860 -0.000341 -0.032242 97 99 93
0.018628 0.028964 -0.031142 38 91 99
-0.005265 0.019044 0.005158 18 66 70
-0.022603 -0.007549 0.060558 66 75 73
0.018483 0.001726 0.028958 83 92 90
0.035149 0.020820 -0.084142 184 177 178
-0.026647 0.048066 -0.011842 31 87 93
-0.032071 0.039034 0.010658 29 90 95
0.042167 -0.015234 -0.000142 96 105 104
0.006622 0.013327 0.001058 38 94 100
-0.038880 -0.052984 0.057658 71 78 74
-0.063301 -0.007921 0.046258 22 71 71
-0.069787 -0.046473 0.094258 72 87 79
0.020254 -0.029097 0.014358 76 81 77
-0.127192 -0.051519 0.118158 75 75 69
0.067008 -0.014663 -0.034042 109 115 108
-0.061304 -0.020961 0.082858 30 54 54
0.067531 -0.015555 -0.034742 108 114 107
0.067679 -0.003798 -0.029442 67 75 68
0.073845 0.001319 -0.031942 91 96 92
-0.128226 -0.068258 0.148058 48 51 43
0.026630 -0.037088 0.005658 101 110 108
-0.078329 -0.059130 0.098158 79 86 82
0.058102 0.004825 -0.048442 182 181 173
0.028151 0.018712 -0.080242 180 178 178
-0.050185 0.033780 0.018758 23 85 92
-0.140246 -0.059491 0.120758 60 61 53
0.044728 0.017708 -0.076442 179 176 173
0.067329 -0.002831 -0.028842 95 102 98
-0.078931 0.027931 0.023058 36 84 86
0.064542 -0.018138 -0.032942 112 113 110
-0.108284 -0.015094 0.070158 13 52 54
-0.010121 0.015375 0.008558 15 65 67
0.053407 -0.005062 -0.015542 97 106 105
0.015995 -0.007306 0.026958 89 98 96
0.014390 -0.029671 0.019358 92 103 101
-0.008386 -0.038962 0.035058 92 103 101
-0.016276 -0.007018 0.057958 68 79 78
-0.130450 -0.048069 0.116058 43 56 54
0.066991 -0.003892 -0.028542 76 82 81
0.032977 -0.020022 0.007058 96 105 103
-0.046493 0.030391 0.027758 25 87 89
-0.026515 -0.013200 0.063258 68 81 79
-0.106245 0.006802 0.069558 20 69 76
-0.009382 -0.024316 0.042358 91 100 99
-0.058941 0.032538 0.017158 28 87 92
-0.009185 0.044721 0.003158 26 87 92
-0.043128 0.015551 0.032158 12 57 60
0.069005 -0.002123 -0.029742 95 101 94
0.043565 0.018107 -0.077442 182 177 172
0.029221 0.016373 -0.075742 182 178 178
-0.013316 0.021722 0.010758 17 65 67
0.022547 -0.005233 0.022658 90 99 98
0.044655 0.013683 -0.068242 184 181 178
0.019815 0.018480 -0.009142 38 96 103
0.033259 0.014414 -0.071142 180 178 178
-0.013362 -0.018095 0.050258 84 95 94
0.071200 -0.012720 -0.037642 116 115 112
0.006880 0.032410 -0.038542 36 94 101
0.018942 0.030875 -0.034342 32 87 95
-0.054306 0.009305 0.040258 9 57 59
0.015793 0.034930 -0.042742 21 77 83
-0.051149 -0.045005 0.068858 83 97 92
-0.080576 0.022076 0.035758 27 82 85
0.058722 -0.016673 -0.026542 106 111 107
0.036371 -0.017367 0.004558 96 105 104
-0.051320 0.016824 0.037258 11 56 61
-0.120826 -0.050775 0.121858 47 47 48
0.027224 0.014730 -0.072642 177 175 175
0.026927 0.022964 -0.075942 87 94 98
-0.039299 0.032928 0.026558 18 80 82
0.069254 -0.011792 -0.034142 112 115 107
-0.016892 -0.032767 0.044958 91 102 100
0.004174 0.028395 -0.001642 14 59 62
-0.074299 0.026840 0.025058 30 83 91
0.001442 0.035806 -0.046442 35 91 97
-0.064479 -0.040358 0.083158 72 83 81
0.009148 0.004851 0.037758 73 82 81
-0.028894 0.044801 -0.005542 30 86 92
-0.083266 -0.013010 0.059058 16 64 66
0.054278 -0.003416 -0.015342 96 105 104
0.023731 0.017097 -0.077442 176 171 175
0.033018 -0.001372 0.014058 91 100 99
-0.042894 -0.051936 0.058258 82 95 93
0.025549 -0.031219 0.008658 100 111 109
-0.032223 -0.023633 0.061758 86 96 91
0.006380 0.035119 -0.045242 31 87 93
0.003035 0.033355 -0.041142 32 92 99
0.007374 0.021560 -0.003642 14 64 66
0.033971 0.011706 -0.065642 182 180 180
0.030146 0.013851 -0.070442 177 175 175
0.069837 -0.004577 -0.031942 98 104 97
-0.101536 0.007653 0.067558 15 65 67
-0.105024 0.002167 0.070158 6 45 47
-0.029769 0.039814 0.009258 27 87 94
-0.081734 0.007174 0.059058 15 56 59
-0.016915 -0.003685 0.053258 54 67 66
0.013797 0.011902 0.004058 33 89 95
0.072395 -0.004949 -0.034042 104 106 100
0.034984 0.020262 -0.083142 185 179 177
0.005987 0.034190 -0.002942 14 57 62
0.026317 0.019586 -0.079342 91 95 100
-0.072039 0.023756 0.032158 28 84 90
-0.023479 0.008847 0.019858 16 65 72
0.049742 0.014842 -0.070242 161 160 157
0.037547 0.018276 -0.078642 182 178 178
-0.029552 0.043611 -0.002742 31 90 95
-0.009418 0.021961 0.008258 17 65 69
0.047609 0.014644 -0.069442 182 180 174
-0.023994 -0.045795 0.046958 90 103 101
-0.026889 0.031617 0.022658 10 58 62
-0.065961 0.021360 0.045258 24 84 86
0.034534 0.019943 -0.082542 182 178 178
-0.038209 0.037357 0.013258 31 87 93
0.023661 -0.029338 0.011558 100 109 107
-0.041409 0.038507 0.010358 30 88 95
0.049582 -0.000564 -0.008042 49 67 65
-0.081737 -0.052542 0.100758 74 84 79
0.049297 -0.027130 -0.019542 62 71 62
0.013021 0.022533 -0.008242 18 63 68
-0.021146 0.003221 0.019658 28 88 95
-0.028614 -0.016176 0.064758 77 87 82
-0.060867 -0.015791 0.050258 27 82 85
-0.111597 -0.065003 0.135458 58 64 57
-0.020650 0.040784 0.007258 26 87 92
0.000210 0.031393 0.000758 11 59 63
-0.053644 -0.065645 0.065358 87 96 94
0.032047 -0.011433 0.011058 96 105 103
0.061554 -0.005474 -0.022942 96 106 101
0.044835 -0.028859 -0.008242 102 111 109
-0.036432 -0.032331 0.064458 92 98 97
-0.003322 -0.012139 0.043558 86 95 93
-0.010993 -0.009765 0.050558 77 88 86
-0.016612 0.019516 0.013658 16 66 70
-0.030267 0.046533 -0.009442 36 93 96
-0.065543 0.016538 0.048758 8 51 54
-0.030144 -0.049602 0.050858 58 67 65
0.006934 0.027480 -0.003342 15 58 61
0.049580 -0.027201 -0.021242 64 75 73
0.055545 -0.005027 -0.016642 95 104 102
-0.077580 -0.009487 0.054258 16 61 59
-0.048215 -0.028849 0.071558 73 85 80
0.056192 -0.005064 -0.018142 92 104 99
0.038858 0.017045 -0.075642 182 181 178
0.011017 0.019776 -0.006542 16 64 66
0.032956 -0.000642 0.014358 93 102 100
-0.010955 -0.023511 0.043958 85 98 96
-0.017682 -0.030490 0.048458 91 102 101
0.054757 -0.023121 -0.025942 106 114 107
0.039071 0.020724 -0.083142 183 181 175
-0.001447 0.020800 0.002958 15 65 69
-0.033602 -0.055180 0.052958 95 106 104
0.045105 -0.009857 -0.000542 96 107 105
0.043322 -0.010376 0.001358 97 106 105
-0.057208 -0.033760 0.081658 75 83 76
0.061558 -0.016137 -0.029042 108 114 107
-0.097238 -0.002024 0.067958 6 43 45
0.040147 0.015795 -0.073042 180 176 176
0.049832 0.004162 -0.048142 182 178 171
0.028698 -0.009099 0.014458 92 103 101
-0.115948 -0.074866 0.133658 62 67 63
0.047745 -0.026384 -0.009042 101 112 104
0.071118 -0.002559 -0.031642 66 74 67
-0.044295 -0.017805 0.074558 34 35 32
0.033968 -0.018065 0.007858 97 106 105
0.002799 0.029203 -0.000742 16 59 62
0.040710 0.010200 -0.061642 180 178 178
0.031262 0.017651 0.021958 46 90 98
-0.051922 0.031887 0.024458 25 85 92
0.037144 0.019543 -0.081242 182 181 178
-0.093081 -0.066028 0.106258 71 82 80
-0.121758 -0.072654 0.083158 103 114 112
0.059824 -0.007131 -0.022742 79 88 86
-0.005461 0.021811 0.006558 18 63 66
0.061312 -0.004683 -0.022442 97 104 100
-0.031810 0.020457 0.027958 0 31 31
0.037959 0.016081 -0.073942 183 179 179
0.026451 0.019433 -0.079442 98 102 107
-0.048552 -0.005606 0.037058 20 70 74
0.063037 -0.022465 -0.033942 105 114 105
-0.043607 0.018780 0.034058 14 59 64
0.059149 -0.010509 -0.022742 99 107 100
0.057274 -0.007221 -0.020542 94 106 101
-0.012845 0.044808 -0.003942 29 88 93
0.051591 -0.021997 -0.022542 104 112 105
0.019731 0.033355 -0.038942 30 80 89
-0.020230 -0.002477 0.035758 1 32 37
-0.032099 -0.003065 0.029358 28 87 92
-0.087762 -0.006799 0.062058 16 57 60
-0.067895 -0.070162 0.081358 82 92 87
-0.006667 0.009223 0.008058 30 93 98
-0.037496 0.046024 -0.008642 29 88 93
0.049291 -0.028496 -0.022542 62 72 79
-0.063303 0.019330 0.046958 6 45 47
0.000035 0.010762 0.006158 37 95 102
-0.027902 0.005804 0.024458 2 37 37
0.059658 -0.024154 -0.031642 109 118 109
-0.101665 -0.012428 0.065358 13 54 59
-0.071880 0.018465 0.051558 20 75 83
-0.047465 0.042352 -0.001642 28 87 92
-0.039944 -0.000331 0.030958 11 62 69
-0.036437 0.040615 0.004058 29 85 91
0.003133 0.012672 0.002958 34 93 98
0.011282 0.034202 -0.042042 26 83 93
-0.008619 -0.033594 0.038158 87 100 99
0.047731 -0.021532 -0.007642 101 112 111
0.008506 -0.002698 0.035758 83 89 88
0.067020 -0.010532 -0.031242 109 111 105
0.048388 0.005138 -0.050242 183 180 177
0.043142 -0.027992 -0.005642 101 112 110
0.037570 0.020202 -0.082542 183 181 175
0.023660 -0.021364 0.014158 90 103 102
-0.045310 0.044664 -0.006242 30 86 92
0.062859 -0.004325 -0.024142 96 102 101
0.031033 0.021376 -0.082842 104 103 107
0.001545 0.034861 -0.044042 30 89 94
0.020485 -0.040801 0.009458 98 107 105
-0.019793 0.008608 0.016758 14 65 72
0.025523 -0.009957 0.017458 93 102 100
-0.074228 0.030038 0.018658 28 82 88
0.028384 0.019274 -0.081042 150 146 146
0.015799 -0.036401 0.014358 96 107 105
0.028552 0.019716 -0.081142 101 104 107
0.054576 0.001048 -0.013242 95 103 105
0.036981 0.013666 -0.069142 184 180 180
0.069182 -0.013974 -0.034542 106 114 107
0.013578 0.020247 -0.008442 21 69 71
-0.124260 -0.087993 0.127358 56 63 54
0.039039 0.020101 -0.082142 184 181 178
0.005647 0.021142 -0.002842 19 64 69
-0.037105 0.041780 0.000258 25 89 91
0.056458 -0.000571 -0.015942 94 105 103
-0.055715 0.039450 0.009258 25 82 85
0.040152 0.019138 -0.080042 183 180 177
-0.031538 0.043547 -0.001242 31 91 93
0.030224 0.003711 0.017958 89 95 94
-0.031157 0.041039 0.004358 28 85 88
0.033450 0.007729 0.017158 86 95 94
0.009547 0.011117 0.004858 39 95 101
0.013021 0.022611 -0.008242 18 63 68
0.067127 -0.013421 -0.033842 110 113 105
0.031381 0.013626 -0.069842 182 178 178
0.014685 0.030510 -0.034142 37 90 98
0.070015 -0.002138 -0.030442 98 101 93
-0.002600 -0.045128 0.026758 92 109 103
0.038164 0.019167 -0.080242 185 179 177
-0.061259 0.033177 0.014658 30 82 84
-0.052448 0.015050 0.037758 11 54 57
0.021741 -0.015729 0.017658 95 104 103
0.050431 -0.027627 -0.023942 75 85 80
0.042823 0.007654 -0.056042 181 179 179
-0.055674 -0.003954 0.039558 14 64 66
0.068440 -0.016393 -0.035542 114 116 110
0.022487 -0.000529 0.024358 88 97 95
0.037034 0.019372 -0.080942 178 176 177
0.000941 -0.031278 0.029158 89 102 101
-0.110487 -0.010019 0.072158 9 50 53
-0.033689 -0.043607 0.057658 93 104 102
0.020736 0.035051 -0.041242 19 63 71
-0.080036 -0.066921 0.092258 76 87 79
-0.047165 -0.015773 0.070158 46 59 57
-0.136376 -0.053471 0.113558 62 63 55
-0.015236 -0.042206 0.040658 85 101 98
-0.062946 0.037079 0.007958 27 79 81
-0.037504 -0.043730 0.059658 58 58 58
-0.000010 -0.032258 0.029958 87 100 99
0.037133 0.017349 -0.076742 181 180 177
-0.016913 0.013485 0.014058 12 64 68
-0.030117 0.047745 -0.012942 38 91 99
0.025744 0.019211 -0.078942 99 103 108
0.069251 -0.017813 -0.037942 117 120 112
0.054646 -0.005616 -0.016142 93 104 102
0.067884 -0.021223 -0.038142 112 119 110
-0.029092 -0.014323 0.067558 72 81 79
0.006889 -0.042938 0.021758 96 109 107
0.044505 0.016359 -0.073642 186 181 176
-0.118565 -0.078947 0.102158 14 13 5
-0.046158 0.034910 0.020158 28 87 92
-0.015710 0.006549 0.014858 26 82 88
0.035798 0.010293 -0.062642 182 177 181
-0.029561 0.045028 -0.005842 31 89 96
-0.106249 -0.064325 0.124558 60 70 65
-0.042430 -0.013552 0.071858 18 34 32
0.014718 0.035736 -0.044942 22 72 81
-0.015165 -0.026892 0.048458 87 100 99
0.029537 -0.037828 0.002558 101 112 110
-0.038676 -0.005738 0.032358 22 85 90
0.026555 0.024798 -0.074742 104 107 110
-0.105792 -0.039269 0.128458 36 48 43
0.044356 0.018052 -0.077442 178 177 174
0.010911 0.010852 0.005458 35 94 99
-0.087597 -0.071824 0.094258 73 84 82
0.033789 0.017814 -0.078142 180 178 178
0.034633 0.018555 -0.079442 181 180 177
0.027762 0.016123 -0.075242 178 176 177
0.041767 0.007726 -0.056542 183 179 179
-0.113069 -0.071536 0.131358 61 68 59
-0.067079 0.011490 0.048258 10 56 57
0.008431 0.022132 -0.004442 13 63 65
0.027566 0.016259 -0.075742 178 176 177
0.032673 -0.036321 -0.000042 99 111 106
0.060150 -0.020282 -0.029742 104 110 109
0.016842 0.031203 -0.035142 34 86 97
0.041572 0.013893 -0.069242 183 182 179
0.024073 0.018267 -0.077742 100 103 106
0.068372 -0.004969 -0.029542 79 84 80
0.035755 0.013481 -0.068842 182 180 180
-0.015584 0.001543 0.021058 35 95 102
0.038825 0.019759 -0.081542 185 182 179
0.072304 -0.000158 -0.030442 93 98 94
0.041839 -0.008197 0.004758 98 104 103
0.039838 -0.011354 0.003358 96 105 104
0.005913 -0.026940 0.027958 89 102 101
-0.118693 -0.029831 0.079458 12 62 64
-0.041047 -0.001776 0.031558 13 68 71
0.028969 0.022137 -0.078542 101 110 109
0.026702 0.023524 -0.075342 102 107 110
0.067820 -0.017861 -0.036442 109 115 108
-0.094863 -0.049812 0.113058 63 70 66
0.003441 0.035320 -0.045542 36 91 99
-0.056352 0.036962 0.009558 28 87 92
-0.023587 0.027232 0.018958 15 63 67
-0.006925 -0.017033 0.044258 86 97 96
-0.018721 0.002498 0.020158 36 97 102
0.044244 0.005928 0.007058 89 100 99
-0.005025 0.011295 0.006158 21 77 83
-0.054986 0.034701 0.014158 30 85 88
-0.103655 -0.067617 0.117658 62 67 63
0.043921 0.001865 0.006358 96 105 104
-0.051798 0.033273 0.018658 25 80 88
0.042454 -0.013850 0.000858 98 107 106
0.020556 0.030212 -0.033142 31 84 92
0.028428 -0.013445 0.013358 93 104 102
0.038179 -0.023574 0.000158 102 111 109
0.045957 0.010391 -0.061342 184 181 178
-0.034925 0.018895 0.028158 10 58 60
0.066549 -0.005411 -0.028542 79 82 74
-0.019653 -0.040988 0.044258 87 100 98
-0.074427 -0.020154 0.061158 26 81 84
-0.087178 -0.062068 0.109558 77 85 78
-0.063631 -0.059715 0.074258 79 89 84
-0.022221 0.041487 0.004058 30 89 94
0.066560 -0.006533 -0.029542 100 108 101
0.053955 0.008804 -0.056842 165 161 161
0.045188 -0.031851 -0.009342 104 114 109
-0.068186 0.027562 0.025958 31 86 89
-0.006530 0.005911 0.014158 34 94 101
0.061997 -0.013385 -0.027642 103 110 106
0.020724 -0.028058 0.014058 67 76 74
0.047989 0.010137 -0.060242 182 181 178
0.019719 0.021705 -0.012442 20 72 76
-0.073835 -0.004986 0.052658 11 56 59
0.033948 0.019419 -0.081542 180 178 178
0.006160 0.001207 0.038658 76 82 81
0.014090 -0.024387 0.022158 89 100 99
-0.011199 -0.017533 0.047758 85 95 97
0.043452 0.016238 -0.073642 182 181 178
0.046960 0.012668 -0.065942 184 181 178
0.032387 -0.004057 0.014358 93 102 100
-0.062051 0.034043 0.013658 29 86 89
-0.038655 0.047253 -0.012642 31 86 87
0.061467 -0.009756 -0.025942 100 107 103
0.048039 -0.002055 -0.000542 94 102 104
0.019645 0.036567 -0.043042 7 40 47
0.008445 0.008612 0.011658 38 92 98
-0.007074 -0.038779 0.033858 87 103 100
-0.114314 -0.030647 0.076658 13 65 69
-0.120521 -0.051850 0.144158 34 34 28
0.016284 -0.038768 0.013858 96 107 105
-0.095788 -0.029697 0.074858 25 74 74
-0.041468 0.045521 -0.007542 31 91 93
0.061604 -0.002229 -0.022542 95 102 98
-0.026318 0.010921 0.022458 18 43 47
-0.060655 0.032856 0.016158 25 85 92
0.055188 -0.018860 -0.024042 102 113 105
0.018289 0.022350 -0.012042 20 65 70
0.024770 0.016689 -0.004742 31 90 95
0.051060 -0.009151 -0.015142 96 105 103
-0.005590 0.037431 0.005458 13 56 61
-0.053130 0.037400 0.012558 22 83 88
-0.008933 0.043445 0.003558 23 78 86
-0.020673 0.012082 0.016158 16 64 68
-0.021783 0.012285 0.017258 16 64 68
0.031749 0.014828 -0.072242 180 178 178
0.033324 -0.027892 0.003258 99 110 108
0.059266 -0.015763 -0.026342 103 111 104
-0.036381 -0.034865 0.060558 87 97 92
0.059804 -0.020955 -0.029942 104 114 109
-0.059069 0.012734 0.041358 11 56 59
0.060136 -0.020256 -0.029642 106 111 107
-0.008794 0.006229 0.013258 36 96 103
0.021239 0.013663 0.000858 32 86 92
-0.010916 -0.042102 0.036158 64 78 73
-0.010920 0.039333 0.010758 11 56 61
-0.005995 0.034910 0.006558 16 59 64
0.032667 0.021041 -0.083942 158 154 155
0.068559 -0.011063 -0.033342 104 112 105
-0.022110 -0.039809 0.047958 89 103 98
0.054236 0.006138 -0.051542 186 181 176
-0.018606 0.045602 -0.003742 26 87 92
0.056138 0.001630 -0.015442 93 104 103
0.010166 -0.040574 0.017758 96 107 105
0.027352 0.023532 -0.075942 104 110 110
-0.050799 0.038903 0.009258 19 70 77
0.011069 0.034149 -0.042042 24 81 91
0.013576 0.035652 -0.044742 32 82 86
0.033334 0.017191 0.020658 62 73 72
-0.038262 0.041654 0.001058 30 89 94
0.030368 0.022834 -0.079542 104 107 110
0.052890 0.004670 -0.048842 184 181 178
0.024273 0.023281 -0.074042 101 107 114
0.048102 0.004939 -0.050142 184 178 176
0.041163 -0.003944 0.005858 98 104 103
-0.009594 -0.014738 0.047458 84 92 94
0.045476 0.007642 0.006558 88 99 98
0.053543 -0.020598 -0.023642 102 113 105
0.034600 0.020889 -0.084342 184 182 176
-0.019776 -0.001705 0.030758 0 30 33
-0.054756 -0.017256 0.063258 30 85 88
