ply
format ascii 1.0
element vertex 1213
property float x
property float y
property float z
property uchar red
property uchar green
property uchar blue
end_header
-0.026881 0.016678 0.015449 19 61 30
-0.010215 -0.014182 -0.013051 144 159 85
-0.002516 -0.014226 -0.006951 100 125 120
-0.015841 -0.005348 -0.012051 28 118 61
0.023668 0.024681 0.019049 131 146 161
-0.009134 -0.008955 -0.010351 126 157 86
-0.023925 -0.010652 -0.021251 112 146 85
0.053905 -0.004627 0.043049 24 31 55
-0.007751 -0.000213 -0.004551 145 167 99
-0.051631 0.021711 0.018449 144 160 181
0.050658 0.015391 0.031949 165 182 196
0.043134 0.007985 0.024149 154 181 203
0.000756 0.010035 0.013149 5 40 100
0.025501 0.012068 0.022649 162 186 198
-0.001029 -0.014549 -0.009551 134 167 169
-0.027228 0.008940 -0.015551 92 109 125
-0.009615 -0.002872 -0.007051 127 166 100
-0.027058 0.007658 -0.014351 124 141 155
-0.005740 0.003470 -0.005251 160 178 203
-0.006368 -0.015137 -0.010851 140 159 92
0.043163 -0.001096 0.037449 0 21 61
-0.018250 0.002128 -0.010251 149 163 96
0.003928 0.000268 0.000549 188 187 189
-0.013335 -0.010523 -0.013451 4 91 24
0.000627 -0.002564 -0.002551 170 158 142
-0.022003 -0.011196 -0.019951 137 146 90
-0.005646 -0.003448 -0.005151 103 154 86
0.030654 -0.015435 0.007449 125 111 122
-0.021819 -0.008712 -0.018351 136 150 85
-0.006923 0.003131 -0.004551 192 220 255
-0.015118 -0.000803 -0.009551 86 136 75
-0.022522 0.005083 -0.011051 60 139 79
0.035104 0.012370 0.022249 116 150 145
0.033978 0.013024 0.020949 89 126 105
-0.025353 -0.001737 -0.016751 138 149 83
0.020286 -0.000953 0.006549 119 135 154
-0.013441 0.002761 -0.006551 74 141 85
0.004618 -0.010029 -0.003551 148 121 66
0.030775 0.003608 0.038149 44 81 42
-0.024369 0.018453 0.008749 3 61 20
-0.017826 -0.003172 -0.012351 46 125 65
-0.014923 -0.009749 -0.014251 22 107 52
-0.004142 -0.000226 -0.049451 130 150 174
0.028705 -0.007159 0.008749 165 166 157
-0.011425 0.009589 0.014449 1 9 37
-0.008383 0.019992 0.010649 39 73 91
0.007100 0.016922 0.011549 133 152 197
-0.017427 0.016209 0.016449 10 61 24
-0.027068 -0.000698 -0.016851 14 30 9
0.006344 -0.003781 -0.001051 171 172 166
-0.001569 -0.015843 -0.009251 131 160 161
-0.015150 0.002247 -0.007751 72 145 92
0.018855 -0.016036 0.001049 194 141 108
-0.014864 -0.009225 -0.013751 0 68 13
-0.020964 -0.008297 -0.017351 66 117 51
-0.012824 0.003927 -0.007551 162 189 198
-0.019242 0.006099 -0.011751 111 132 138
-0.018979 -0.002855 -0.012951 112 131 62
-0.010432 0.000234 -0.006151 138 158 98
0.032083 0.005938 0.033049 70 95 100
0.010450 -0.019211 -0.004651 168 134 126
-0.022019 0.000181 -0.013551 145 166 101
-0.027743 0.009504 -0.015851 110 125 140
-0.026251 -0.002347 -0.017751 58 132 72
-0.004237 -0.000194 -0.049451 97 115 138
-0.017479 0.017287 0.015049 4 41 20
0.000398 -0.010158 -0.006651 183 156 134
0.015478 0.013851 0.017949 124 161 164
0.003203 0.008145 0.016049 0 24 76
-0.026067 0.000847 -0.015951 139 173 110
0.009236 -0.007524 -0.001551 187 197 202
-0.001309 0.013708 0.009549 19 137 187
-0.000885 0.007095 0.019349 0 20 66
0.003223 0.020702 0.009649 125 161 200
0.008789 -0.012560 -0.002151 172 150 124
-0.013141 -0.008596 -0.013051 123 171 104
-0.004295 -0.015360 -0.009351 126 143 77
-0.021171 0.000868 -0.012751 147 161 94
0.027534 0.003269 0.037749 48 75 70
-0.004882 0.018135 0.006849 74 150 196
-0.019836 0.000003 -0.012451 137 160 94
-0.007014 -0.010006 -0.009351 122 162 91
-0.022763 0.000334 -0.013951 141 167 98
-0.013796 0.001836 -0.007351 144 165 100
-0.018521 0.005917 -0.011151 156 160 174
-0.022427 0.004491 -0.011251 131 159 92
-0.022975 -0.009327 -0.019651 140 152 79
-0.000288 -0.005634 -0.004351 113 116 135
0.001612 -0.007144 -0.004051 223 175 138
-0.012478 0.005485 -0.008351 120 139 159
-0.003515 -0.005804 0.000449 67 55 28
0.027074 -0.016820 0.004449 194 184 172
0.029324 -0.019296 0.006349 181 116 71
-0.021045 -0.001775 -0.013651 48 127 56
-0.017018 -0.010893 -0.016351 142 153 85
-0.018401 -0.012845 -0.018351 128 146 82
-0.023627 -0.009726 -0.020451 137 146 85
0.029522 -0.013580 0.007949 188 138 88
-0.006570 -0.008794 -0.008351 137 159 87
-0.004134 -0.000228 -0.049451 146 162 183
-0.020882 0.004050 -0.010651 138 166 101
-0.004683 -0.013983 -0.009051 62 117 56
0.018272 -0.018367 -0.001551 154 147 114
0.002042 0.001505 -0.000951 159 165 178
-0.019166 -0.010452 -0.017651 91 107 55
0.024450 -0.011500 0.005049 209 187 179
-0.024989 -0.006794 -0.019051 0 64 14
-0.025581 -0.003833 -0.018251 68 135 77
0.021300 0.016664 0.014849 76 127 72
-0.023760 -0.001647 -0.015451 120 147 89
-0.018686 -0.006721 -0.014751 123 151 86
-0.011943 -0.010912 -0.012751 36 104 41
-0.020583 0.018420 0.008249 19 92 41
0.009392 0.001794 0.001849 76 94 103
-0.004880 -0.011296 -0.007951 85 160 97
-0.020629 0.017465 0.013649 8 56 18
-0.019308 -0.006191 -0.014851 147 163 100
-0.013333 0.014453 0.017749 37 72 101
-0.014341 0.015923 0.020249 6 19 30
-0.000838 0.000321 -0.001251 192 156 133
-0.014396 0.002851 -0.007051 58 117 69
-0.010401 -0.009544 -0.011251 139 182 121
0.002827 0.009330 0.015249 0 30 83
0.013532 0.009241 0.025949 82 104 118
-0.009150 0.002948 -0.003851 127 161 169
0.022569 0.009134 0.027349 49 86 63
-0.025147 -0.001218 -0.016351 107 134 74
-0.009853 -0.009106 -0.010951 128 163 93
0.010941 -0.011339 -0.001851 177 151 140
0.041332 0.012192 0.025649 120 149 148
0.024582 -0.004020 0.008649 164 143 152
0.020951 -0.005865 0.004949 163 149 141
-0.000048 -0.003286 -0.003151 182 165 151
-0.002460 0.014230 0.008849 27 143 194
0.029170 -0.009086 0.007349 173 173 167
-0.032315 0.019020 0.005349 6 28 68
-0.020524 -0.003524 -0.014151 150 159 98
-0.028151 0.004837 -0.014151 39 116 70
0.006065 -0.008215 -0.001851 219 190 169
-0.027803 0.008365 -0.015551 115 135 150
0.013527 -0.005043 0.001349 170 157 144
-0.004211 -0.000208 -0.049451 85 105 116
-0.022299 -0.003734 -0.015651 133 150 95
-0.008116 -0.014308 -0.011551 114 139 93
-0.022967 -0.007698 -0.018651 52 107 42
-0.027474 0.008643 -0.015151 123 133 151
0.020113 -0.013246 0.002549 184 167 142
-0.010178 -0.008913 -0.011051 122 158 85
-0.002957 0.018521 0.007649 110 150 208
-0.025147 -0.001121 -0.016351 96 125 62
-0.024985 -0.005314 -0.018351 112 148 87
0.019280 -0.018417 -0.000851 189 172 133
-0.004205 -0.000215 -0.049451 155 187 194
-0.012969 -0.010780 -0.013751 54 105 37
-0.004607 -0.012487 -0.007751 0 86 29
0.040412 -0.024332 0.018049 17 66 121
0.002953 0.011119 0.011049 43 147 200
-0.017856 0.019889 0.006649 41 119 64
-0.036191 0.018454 0.005349 0 28 80
-0.007010 0.008931 0.016849 0 9 41
0.011412 -0.009426 -0.000251 155 99 62
0.055644 0.033981 0.054349 106 63 38
0.033694 -0.006995 0.012349 148 138 150
0.025318 0.015406 0.016749 88 147 87
0.026962 -0.019779 0.003849 196 182 178
0.008809 -0.002185 0.001049 119 114 122
-0.022973 0.018432 0.007249 27 97 42
-0.005246 0.000823 -0.002651 149 185 195
-0.023497 -0.001579 -0.015251 116 147 76
-0.027316 0.007318 -0.013751 157 181 191
0.057757 0.034948 0.054949 108 49 29
-0.002240 -0.015009 -0.007751 106 135 134
-0.028717 0.004828 -0.014751 37 120 66
0.026565 0.003261 0.037549 57 84 79
-0.024201 0.004361 -0.012751 150 161 93
-0.025586 0.004222 -0.013651 149 163 98
-0.007808 0.011531 0.013749 53 99 135
-0.008530 -0.015626 -0.012551 141 159 86
0.027531 -0.015346 0.005449 160 157 171
-0.026747 0.008542 -0.014751 116 133 147
-0.024174 0.003619 -0.012851 151 162 94
0.047766 0.001640 0.033849 2 62 134
0.017392 -0.008596 0.001549 200 179 164
-0.011315 -0.005854 -0.010251 131 150 79
0.019062 -0.004406 0.004749 157 148 139
-0.021054 -0.011107 -0.019351 133 146 84
0.016061 -0.000852 0.004949 137 156 176
0.066026 0.033662 0.058449 130 94 126
0.022655 -0.008561 0.004749 169 126 101
0.000446 -0.014576 -0.010751 187 173 165
-0.022943 0.008921 -0.013351 92 108 129
0.030294 -0.022227 0.005149 170 155 118
-0.029612 0.016249 0.028349 39 68 65
-0.025039 -0.007703 -0.020151 88 78 37
-0.028213 0.004022 -0.014851 31 111 64
0.003204 0.001128 -0.000351 149 154 163
-0.008562 0.005335 -0.006951 140 164 192
-0.025487 0.007308 -0.013551 142 170 176
-0.000537 -0.011862 -0.008651 152 163 161
0.000059 -0.006869 -0.004551 193 146 122
-0.017594 -0.006825 -0.014051 131 162 105
0.022876 0.005610 0.034449 34 73 40
-0.019291 -0.005023 -0.014051 152 166 99
0.001465 -0.011282 -0.006451 181 163 152
-0.024496 0.004093 -0.012951 152 166 99
-0.005487 0.012579 0.011849 0 22 61
-0.004210 -0.000213 -0.049451 156 184 190
-0.018568 -0.006200 -0.014351 146 163 97
0.004286 -0.015049 -0.007551 166 160 147
-0.028703 0.004596 -0.014951 49 123 67
0.005416 0.017659 0.010849 138 87 142
0.028079 -0.019036 0.005349 166 106 62
0.042396 0.009451 0.025849 133 160 173
0.031426 0.023281 0.023149 130 140 156
-0.006857 -0.013397 -0.010351 137 156 87
0.003672 -0.002238 -0.001251 167 169 160
0.026743 0.012864 0.020649 93 148 87
-0.005722 0.001025 -0.002851 33 121 91
0.025388 0.015006 0.017349 102 152 91
-0.021530 -0.008878 -0.018251 142 156 91
0.000662 -0.002564 -0.002551 168 158 144
-0.027028 0.002736 -0.015551 41 63 45
-0.006953 0.003695 -0.005651 168 194 221
-0.015023 -0.012628 -0.015951 49 120 58
-0.020644 0.001810 -0.011851 114 136 89
0.029723 0.010578 0.024449 140 171 169
0.011480 -0.006464 -0.000151 192 159 144
0.014746 0.020699 0.014149 47 94 52
-0.009321 -0.008630 -0.010251 130 159 89
-0.012045 0.003250 -0.005151 149 185 191
-0.023719 -0.011899 -0.021751 114 141 79
-0.021532 -0.007633 -0.017351 2 74 19
-0.025124 -0.005184 -0.018451 117 152 94
-0.001812 0.004521 -0.002251 16 50 88
0.002934 -0.013712 -0.008051 182 152 136
-0.019271 -0.004393 -0.013851 152 163 95
0.051510 0.013304 0.030249 158 175 191
0.025082 -0.003788 0.009049 157 147 159
0.007915 -0.010694 -0.001751 187 160 138
-0.018202 -0.004555 -0.013151 149 166 98
-0.010037 -0.009592 -0.011051 138 181 120
-0.020596 0.003907 -0.010651 141 166 102
-0.004720 -0.001233 -0.003351 39 132 72
-0.006476 0.011905 0.014249 7 34 87
0.010091 0.021595 0.012049 0 66 159
-0.010769 -0.005214 -0.009351 120 146 75
-0.002042 -0.001123 -0.001951 178 148 132
0.003824 -0.004941 -0.002651 181 179 169
0.000966 0.015598 0.012349 28 58 92
-0.009705 -0.004232 -0.007551 9 78 26
-0.023918 -0.008734 -0.019951 140 150 86
-0.022154 0.000128 -0.013651 143 166 100
-0.013988 -0.011801 -0.014251 70 105 78
0.010244 0.017063 0.014749 84 146 179
-0.015179 -0.012899 -0.016151 58 119 59
0.031793 -0.007513 0.010249 159 150 145
0.029611 -0.021624 0.005149 174 153 136
0.042316 0.008602 0.027649 37 51 82
-0.010342 -0.004418 -0.008451 12 103 39
-0.050840 0.021589 0.019649 139 160 179
-0.012109 -0.008701 -0.012351 110 163 96
-0.013234 0.014354 0.017749 42 79 111
-0.026287 0.016761 0.014149 17 59 30
-0.026672 -0.002230 -0.017751 42 119 60
-0.024580 0.005666 -0.011851 35 128 68
-0.026953 0.009191 -0.015551 97 116 136
-0.007199 -0.001840 -0.005351 142 161 90
0.067842 0.033015 0.060249 124 151 175
0.019378 -0.012876 0.002449 102 85 87
-0.022873 -0.010085 -0.019951 140 154 89
0.014678 0.016899 0.013449 71 124 73
0.000954 -0.005682 -0.003951 134 138 161
0.039699 0.022847 0.026849 112 105 116
-0.004206 -0.000249 -0.049451 27 64 39
-0.030833 0.016324 0.029249 54 75 83
0.025251 -0.012639 0.005649 182 128 90
0.004524 0.001784 -0.000251 114 133 151
-0.006691 -0.016182 -0.011551 139 156 88
-0.021381 -0.007065 -0.016551 144 179 121
-0.014845 -0.013992 -0.016651 59 122 63
-0.020300 0.008411 -0.012451 81 102 110
-0.018434 0.001152 -0.010851 147 164 98
0.040998 0.001106 0.060749 59 70 79
0.001615 -0.008924 -0.005051 174 167 159
-0.015825 -0.007226 -0.013051 83 143 80
0.008116 -0.006662 -0.001651 187 171 164
-0.016999 -0.003692 -0.012051 118 147 155
0.026121 -0.014407 0.004949 166 143 93
0.040213 -0.024381 0.018049 56 66 110
0.013238 -0.018159 -0.005451 192 160 136
0.036795 0.023365 0.024249 94 46 38
0.019833 0.005561 0.033749 34 71 46
0.012893 -0.000679 0.003449 156 166 180
-0.011159 -0.014840 -0.014251 110 145 75
-0.013959 -0.014561 -0.015351 94 111 95
-0.002337 0.015594 0.008649 12 57 134
-0.022466 -0.010970 -0.020151 133 147 82
0.000784 -0.010928 -0.006851 171 144 122
-0.024085 -0.002007 -0.015751 137 156 89
0.003342 0.017437 0.010249 105 178 223
0.018681 0.007947 0.029549 57 59 65
0.038680 -0.000385 0.033949 2 17 45
-0.002120 -0.006813 -0.005151 144 108 85
-0.020440 0.000028 -0.012751 142 165 99
0.021060 -0.005350 0.005449 161 142 136
-0.004542 -0.003173 -0.004351 80 146 86
-0.032279 0.019145 0.004349 0 25 75
0.047469 0.021404 0.028749 135 142 164
-0.020601 -0.005586 -0.015451 152 166 99
-0.017013 -0.010235 -0.015851 82 101 48
-0.009573 -0.005434 -0.008551 118 144 75
0.043353 0.002969 0.030249 0 27 89
-0.006054 0.012093 0.014249 0 18 65
-0.017131 -0.013415 -0.017751 110 137 75
-0.020201 -0.002937 -0.013651 142 158 97
-0.004492 -0.008579 -0.006651 45 129 66
-0.004059 -0.016227 -0.009551 139 156 88
-0.020664 0.000792 -0.012551 146 163 97
-0.016734 0.001723 -0.009651 34 124 65
-0.009291 0.017433 0.011449 45 80 111
0.043095 -0.020628 0.021249 78 96 103
0.011103 -0.019228 -0.005151 161 136 129
0.001473 -0.015474 -0.010351 188 152 131
-0.016913 0.018084 0.012749 21 64 28
-0.028186 0.008513 -0.015751 119 132 143
-0.024802 0.001807 -0.014751 126 153 91
-0.014671 -0.000836 -0.009351 90 142 80
0.030478 0.014253 0.019149 93 141 94
-0.017095 -0.006521 -0.013551 145 164 97
0.039518 -0.005070 0.015249 93 90 109
-0.004203 -0.000210 -0.049451 82 104 118
0.024761 0.013869 0.019249 102 143 94
0.016954 -0.018602 -0.002751 149 120 126
0.031991 -0.017161 0.007049 182 171 146
-0.024910 0.009267 -0.013951 81 100 120
-0.030643 0.017971 0.014949 18 64 36
0.026215 0.010213 0.026149 51 102 65
-0.019824 -0.009895 -0.017551 141 148 81
-0.015533 -0.000741 -0.009851 63 91 64
0.023811 0.002118 0.037949 71 88 102
0.032209 0.019103 0.021749 73 125 63
-0.003315 -0.006528 -0.002651 26 69 31
-0.051458 0.021639 0.018849 137 158 175
-0.000239 -0.015062 -0.010751 157 168 166
0.028713 0.010676 0.024749 98 135 138
-0.004177 -0.014698 -0.009051 67 129 66
-0.004824 -0.012362 -0.007651 0 79 23
-0.021491 -0.005722 -0.016151 140 162 94
-0.010327 -0.014825 -0.013651 133 139 79
0.029909 -0.005923 0.010649 158 144 140
0.003261 -0.001007 -0.000451 179 161 141
-0.000435 -0.011925 -0.008851 145 164 166
-0.000040 -0.006670 -0.004551 205 174 161
-0.001561 -0.004474 -0.003951 175 142 125
0.030444 -0.010276 0.007449 183 174 167
0.011674 -0.003903 0.001649 174 139 124
0.010504 0.009029 0.026949 69 96 91
-0.014426 -0.010707 -0.014351 42 84 53
-0.039507 0.019075 0.024249 85 102 114
-0.021500 0.019763 0.007349 5 82 23
-0.009713 -0.004074 -0.007251 0 42 0
-0.024202 0.015026 0.028249 13 46 31
0.025425 0.012857 0.021449 113 144 128
-0.018163 -0.008229 -0.014651 49 89 49
-0.006686 -0.001436 -0.004651 140 159 90
-0.014613 -0.011630 -0.014851 16 112 53
-0.015444 -0.005428 -0.011051 36 62 49
0.001402 -0.006165 -0.003851 184 186 194
0.047787 0.004102 0.028449 0 49 127
-0.023020 0.003819 -0.012251 155 169 104
0.038944 0.002986 0.058449 68 89 95
0.002155 -0.006583 -0.003751 200 175 157
-0.009283 0.017314 0.011349 30 67 99
0.036417 0.001837 0.034349 82 98 108
0.015577 -0.000170 0.005049 126 146 168
-0.018164 0.019086 0.010449 13 64 25
0.022808 -0.007103 0.005549 168 117 92
0.043956 -0.018543 0.023749 73 87 93
0.041626 -0.010964 0.018449 166 183 197
0.001331 0.015298 0.011349 48 83 127
-0.015466 -0.003009 -0.009151 26 66 35
0.016811 -0.010579 0.002249 122 59 34
-0.025080 -0.006399 -0.018551 119 152 94
-0.024647 -0.009088 -0.020851 91 133 63
0.016978 -0.007957 0.001549 182 171 162
0.005025 -0.014010 -0.006251 179 163 142
0.056430 0.033620 0.054649 100 58 28
0.016811 0.004349 0.035149 33 60 51
0.043998 -0.018033 0.023649 81 93 97
-0.000109 -0.000460 -0.001451 147 117 101
-0.008592 0.004332 -0.006351 186 201 227
0.007438 -0.008831 -0.000951 232 169 126
-0.014316 -0.002936 -0.009351 41 79 49
-0.008514 -0.012926 -0.011251 124 145 82
-0.027684 0.009088 -0.015651 89 104 121
0.015721 0.009223 0.026249 71 91 104
0.039188 0.007815 0.035549 33 38 43
0.035876 0.007076 0.034249 102 123 131
-0.016281 -0.001855 -0.010451 66 170 111
-0.026637 0.001904 -0.015651 94 130 65
-0.015475 -0.001235 -0.009951 66 97 63
-0.019270 0.007323 -0.011751 76 97 105
0.015737 -0.006591 0.001449 181 172 163
0.023307 -0.012776 0.004149 192 167 160
0.011949 0.001548 0.003549 11 16 25
-0.041062 0.019125 0.024649 93 108 123
-0.023952 -0.007288 -0.018851 18 90 31
0.012739 0.013501 0.019949 102 131 141
-0.008631 0.013810 0.009249 0 28 74
0.009165 -0.008018 -0.001551 202 192 202
-0.005787 -0.002680 -0.004851 139 165 96
-0.022071 -0.008886 -0.018551 136 150 81
-0.003792 0.011958 0.016049 11 40 68
-0.004212 -0.000208 -0.049451 76 100 112
0.017399 0.013908 0.017749 118 127 160
-0.013297 0.014623 0.017849 24 59 88
0.007231 0.002326 0.001149 50 74 76
0.046350 0.003561 0.030349 0 31 103
-0.021367 -0.000243 -0.013251 140 173 106
0.017215 -0.005213 0.003149 126 122 123
-0.022914 0.016582 0.015449 11 53 22
-0.022390 0.003669 -0.011851 153 164 100
-0.027423 0.008593 -0.015151 116 128 146
0.010999 0.007922 0.030449 25 65 25
0.002574 -0.014205 -0.008751 187 164 143
-0.017790 -0.010513 -0.016551 146 157 91
0.032977 0.014370 0.019949 74 122 71
-0.020642 -0.010172 -0.018451 87 109 52
0.002845 -0.012139 -0.005751 174 144 128
0.031968 0.006150 0.032649 73 95 98
-0.008132 -0.012460 -0.010851 125 150 84
-0.016550 0.000977 -0.010051 42 131 70
-0.024090 -0.008771 -0.020051 139 149 85
-0.008752 0.010236 0.015249 48 89 122
-0.003158 0.000772 -0.000051 140 153 162
0.042390 -0.018749 0.022249 109 111 121
-0.004013 -0.012433 -0.005151 26 47 25
-0.023033 -0.002625 -0.015451 150 161 93
-0.036280 0.018969 0.004749 0 33 93
-0.007919 -0.015002 -0.011851 107 132 68
-0.015643 -0.010219 -0.015051 105 139 147
-0.013994 -0.013265 -0.015051 96 116 99
0.022106 -0.015839 0.002249 193 136 106
0.007165 -0.004681 -0.001351 176 172 163
0.005714 -0.017603 -0.007651 200 180 160
-0.018275 -0.002549 -0.012251 15 112 51
-0.026512 0.019111 0.007649 5 56 17
0.010670 -0.005078 0.000549 171 121 100
-0.018495 0.019741 0.007049 15 63 25
-0.019730 -0.009989 -0.017551 140 151 85
0.009768 -0.006089 -0.000551 178 145 128
-0.033785 0.019201 0.003849 0 22 68
-0.001838 0.000107 -0.001351 191 152 134
0.004370 -0.012186 -0.004851 163 145 111
0.038746 0.003300 0.058349 60 85 80
0.016196 -0.006338 0.001849 173 174 165
-0.004177 -0.002138 -0.003651 58 132 72
-0.020071 0.004181 -0.010251 112 153 86
0.004904 -0.000322 0.000649 190 166 150
0.010171 -0.006797 -0.000651 159 123 102
-0.004152 -0.000222 -0.049451 51 74 70
0.028631 0.009973 0.026849 95 136 131
0.036028 0.004719 0.036149 63 80 85
-0.023703 0.004738 -0.012151 134 164 96
0.042927 0.005229 0.027349 0 55 130
-0.016556 -0.001354 -0.010851 75 154 94
0.021821 -0.014681 0.002749 185 139 119
0.006126 0.000456 0.000849 152 154 164
-0.001788 -0.003149 -0.003151 185 155 139
-0.018098 -0.004877 -0.013351 147 161 94
0.042186 0.008976 0.026049 126 155 165
0.008068 0.018869 0.011449 101 174 221
-0.002935 0.020215 0.006749 113 163 213
0.003807 -0.006393 -0.003151 195 174 157
0.017349 -0.015243 0.000149 224 188 165
-0.033416 0.017637 0.006849 29 58 95
0.015309 -0.013965 -0.000751 179 169 137
0.002850 -0.008583 -0.004051 182 168 160
0.046300 0.005026 0.026049 0 34 105
-0.012632 0.013765 0.016149 10 54 98
0.013138 -0.015648 -0.003651 180 150 134
-0.004174 -0.000235 -0.049451 77 119 65
-0.028443 0.000550 -0.014851 30 47 33
0.041691 -0.014201 0.016949 152 166 170
0.021857 0.005245 0.034549 32 66 46
-0.004170 -0.000223 -0.049451 179 199 223
0.005482 0.014180 0.011549 42 87 155
-0.019063 0.016323 0.015749 17 68 29
-0.002677 -0.012764 -0.006151 102 73 48
-0.024546 -0.006643 -0.018251 69 105 58
0.024122 0.023419 0.019049 127 145 152
-0.004173 -0.000223 -0.049451 186 208 234
-0.009632 0.015764 0.011249 37 80 121
0.002858 0.017613 0.010249 105 172 215
-0.011425 0.002531 -0.005151 25 120 73
-0.010889 -0.014257 -0.013751 141 150 91
0.010013 0.016909 0.014349 59 128 172
-0.027554 0.009964 -0.016051 106 122 143
-0.025582 0.017119 0.012249 20 66 31
-0.023605 0.001681 -0.013751 111 113 48
-0.022507 -0.007863 -0.018351 51 100 44
-0.015612 -0.014069 -0.017151 94 134 76
-0.015613 -0.005188 -0.011151 33 90 54
-0.007382 0.000221 -0.004151 147 170 104
-0.016864 -0.001039 -0.010951 97 149 87
0.041228 0.021724 0.027249 133 141 156
-0.023313 0.009058 -0.013951 73 94 113
-0.004207 -0.000250 -0.049451 10 67 33
0.021332 -0.008797 0.003249 164 170 183
0.007497 -0.003673 -0.000551 169 160 153
0.003376 -0.004630 -0.002651 177 178 167
-0.014236 -0.012699 -0.015351 71 101 76
-0.004146 -0.000224 -0.049451 106 124 133
-0.013020 -0.003888 -0.010251 31 105 49
-0.014362 -0.014083 -0.015351 74 102 66
-0.016288 -0.010028 -0.015451 8 61 54
-0.002969 -0.008022 -0.005151 85 96 75
-0.001510 0.016235 0.008949 70 160 208
-0.003670 -0.009094 -0.006451 47 132 75
-0.018781 -0.009968 -0.017151 144 155 91
-0.023541 0.004533 -0.012251 149 168 101
0.006072 -0.002110 0.000049 165 157 145
0.040633 0.011662 0.026149 135 156 164
-0.027370 0.007521 -0.014151 154 179 186
-0.019002 -0.011239 -0.017751 121 140 87
-0.013495 -0.010256 -0.013551 0 75 16
-0.007949 -0.014644 -0.011551 100 125 77
0.018280 -0.008359 0.001949 190 173 159
-0.021549 0.008233 -0.012751 90 105 118
-0.026760 0.008027 -0.014651 110 133 138
0.030591 0.007354 0.030049 88 107 111
-0.003730 -0.005285 0.001149 83 56 32
0.004784 -0.012806 -0.004751 180 151 130
-0.005705 -0.006618 -0.006251 37 123 61
0.031591 0.022501 0.023049 122 135 144
-0.004205 -0.000216 -0.049451 102 136 144
-0.011069 0.012567 0.013349 0 25 76
0.043646 0.005263 0.026249 0 26 103
-0.022366 -0.011528 -0.020551 123 146 82
0.022929 0.019211 0.016749 48 91 55
0.010064 0.001210 0.002649 169 190 207
0.029753 -0.021582 0.005249 170 148 122
-0.021586 -0.000029 -0.013351 144 168 97
-0.011772 -0.011496 -0.013051 113 140 78
0.005937 -0.011722 -0.003551 168 146 91
0.027177 -0.013200 0.006849 157 127 93
0.007159 -0.016814 -0.006251 170 169 152
0.027521 0.023220 0.021349 95 111 119
-0.005027 -0.014836 -0.009651 142 160 87
-0.033580 0.017220 0.028849 79 95 105
0.013844 0.019866 0.013449 90 127 128
0.004023 0.008338 0.016049 0 25 78
-0.021575 0.006065 -0.011451 158 183 190
-0.023553 -0.002043 -0.015551 142 159 91
-0.013927 0.002507 -0.007051 123 163 103
-0.011904 0.017372 0.009149 34 99 57
0.018166 0.018074 0.014149 59 111 49
-0.016578 -0.003478 -0.011651 65 106 112
0.029138 -0.006405 0.009749 153 142 135
-0.018697 0.017708 0.014349 12 51 25
0.005244 -0.008842 -0.002451 191 157 133
0.027724 -0.019139 0.004949 187 146 111
-0.012618 -0.001994 -0.008551 120 159 95
-0.020705 -0.005987 -0.015751 146 165 96
-0.012466 -0.013185 -0.014651 91 139 74
0.015668 0.020168 0.014249 53 96 58
-0.024291 -0.008260 -0.019851 128 141 79
0.017371 -0.007298 0.001949 181 174 168
-0.004166 -0.000218 -0.049451 0 20 67
-0.007857 -0.012299 -0.010451 109 144 76
-0.020472 0.005348 -0.009551 139 171 178
-0.016722 -0.011727 -0.016551 141 155 88
0.017149 -0.017482 -0.001851 154 129 80
-0.019678 0.004313 -0.009851 50 129 69
0.006496 -0.004971 -0.001651 179 177 169
-0.007899 -0.015117 -0.012051 140 155 83
-0.013186 -0.005958 -0.011851 72 134 69
-0.016987 0.003328 -0.008751 124 159 174
-0.020082 -0.004775 -0.014551 100 120 75
0.042251 -0.025575 0.018049 0 38 102
-0.015852 -0.001748 -0.010251 40 136 82
0.020247 -0.018060 -0.000051 146 130 139
-0.010651 0.001011 -0.005751 147 169 99
0.007855 -0.018130 -0.006151 181 156 136
-0.026876 0.015760 0.023249 13 56 22
-0.012508 -0.001039 -0.008051 111 150 84
-0.025116 0.017733 0.010649 4 68 20
0.028167 0.010101 0.026549 126 166 168
-0.014790 0.017400 0.013749 18 65 32
-0.000992 -0.001088 -0.001951 178 148 132
-0.023552 -0.006649 -0.017651 141 179 120
0.014463 0.019371 0.013349 119 151 142
0.033347 -0.021328 0.007849 172 135 121
0.041751 -0.013626 0.017249 152 172 185
0.015852 -0.014713 -0.000651 209 184 164
-0.015365 0.002431 -0.007751 60 133 80
-0.007847 -0.002928 -0.006151 129 162 95
-0.021210 0.014662 0.024449 13 50 27
-0.008823 0.014396 0.010049 0 29 81
0.001028 0.012257 0.010949 4 41 118
-0.004387 0.017102 0.007549 138 199 252
-0.006752 0.003124 -0.004651 191 219 254
-0.002457 0.012022 0.010449 53 124 170
-0.016978 -0.003370 -0.011951 76 116 127
-0.024580 0.005694 -0.011851 29 125 66
-0.020799 0.006321 -0.011751 144 169 174
-0.020725 -0.004002 -0.014551 98 123 75
0.012902 -0.005052 0.001049 169 150 137
0.006786 -0.011796 -0.003251 150 140 112
0.001957 -0.010260 -0.005651 143 121 68
-0.007785 -0.010520 -0.009651 117 179 112
0.038708 -0.005643 0.015249 133 147 169
-0.024766 0.015611 0.021149 13 55 26
-0.014251 -0.003376 -0.010851 0 88 29
0.020342 0.010241 0.025549 72 100 87
0.028484 0.006455 0.031949 87 107 122
-0.010796 -0.011685 -0.012351 111 140 77
0.019344 0.012474 0.023149 92 131 118
-0.013850 -0.001021 -0.008951 81 136 73
0.026478 -0.017654 0.004449 228 187 166
-0.022103 -0.006027 -0.016651 138 160 92
-0.004238 -0.000200 -0.049451 97 112 129
-0.010101 -0.010684 -0.010251 27 109 60
0.010553 0.018955 0.013049 110 152 178
-0.013139 0.005354 -0.008651 124 144 159
0.022441 0.006488 0.032349 55 80 71
0.029134 -0.005275 0.010849 158 138 139
-0.011010 -0.010133 -0.011151 81 155 95
0.002031 -0.014621 -0.009351 183 163 143
-0.010333 -0.014117 -0.013151 137 152 78
-0.000143 -0.007072 -0.004951 123 72 45
0.030649 0.005648 0.033249 75 99 101
-0.005746 -0.001583 -0.004151 144 163 92
0.017034 -0.019837 -0.003251 181 172 126
0.015990 -0.011531 0.001049 166 142 86
0.003451 -0.008558 -0.003451 169 152 134
-0.014677 -0.010364 -0.014551 31 114 60
-0.001228 0.019988 0.007749 105 173 222
-0.018760 -0.008327 -0.016051 11 72 23
-0.025428 -0.000317 -0.015551 4 62 11
0.001872 -0.007174 -0.003851 219 174 138
0.075694 0.030145 0.066249 53 65 110
0.005057 0.019198 0.010249 133 191 234
-0.025489 0.001500 -0.015251 106 142 77
0.039129 0.006113 0.033749 75 86 95
-0.023886 0.000374 -0.014651 147 172 106
-0.017024 -0.000724 -0.011151 94 146 84
-0.016492 -0.011494 -0.016451 134 151 83
-0.020338 0.000275 -0.012551 139 160 95
0.016689 0.017047 0.013649 89 138 95
-0.000555 -0.014769 -0.010151 140 171 171
-0.011217 -0.010949 -0.012151 3 87 24
-0.012347 -0.014696 -0.015151 84 131 69
0.025210 -0.021351 0.001749 198 166 146
-0.016836 -0.013192 -0.017551 114 141 79
-0.001959 0.017717 0.008449 0 65 131
-0.024995 0.000113 -0.015151 144 189 131
0.024144 0.004450 0.035849 31 65 43
-0.004182 -0.000215 -0.049451 111 134 167
-0.022616 0.001906 -0.013051 146 157 91
0.011049 0.009438 0.025749 62 92 86
-0.027858 0.001979 -0.015651 71 91 84
0.012343 0.009236 0.026349 75 96 102
0.010732 0.010569 0.023649 56 83 94
-0.022188 0.008524 -0.012551 85 100 113
0.047080 0.019144 0.030849 169 186 202
-0.023035 -0.003242 -0.015851 147 159 88
0.016618 0.007595 0.031949 60 88 61
0.034934 0.006558 0.033949 65 94 76
0.017210 -0.017656 -0.001951 137 114 66
-0.045792 0.020798 0.020749 95 115 130
0.042279 0.008949 0.026749 114 134 147
-0.008850 0.019979 0.011549 17 54 75
-0.020585 0.018005 0.012949 8 54 17
0.013985 -0.011507 -0.000351 164 142 89
0.042356 0.003303 0.029849 0 27 89
0.030939 -0.022020 0.005849 194 177 159
0.002262 -0.015561 -0.009751 192 162 144
-0.034275 0.019040 0.004949 0 12 62
0.014028 0.008179 0.029549 67 92 85
0.052711 -0.003316 0.042549 46 54 80
-0.021874 0.003466 -0.011651 143 157 92
-0.022627 -0.009976 -0.019751 139 150 84
0.027598 0.008407 0.028449 102 131 130
-0.023571 -0.011755 -0.021251 110 142 78
-0.003787 -0.014926 -0.008751 61 128 72
-0.019922 -0.009197 -0.017351 134 150 87
0.028385 -0.020345 0.004849 184 163 119
0.006459 -0.003652 -0.000851 169 170 164
-0.018562 -0.005207 -0.013851 148 162 95
-0.013647 -0.001794 -0.009051 107 151 83
-0.005574 -0.014377 -0.009951 142 160 87
-0.025695 0.015145 0.026849 23 59 41
-0.022902 -0.004841 -0.016651 148 158 90
-0.026064 -0.002440 -0.017751 85 140 86
-0.011038 0.000681 -0.006151 144 163 92
-0.023998 0.005444 -0.011851 59 138 78
0.011350 0.011986 0.021549 72 108 106
-0.006221 -0.011788 -0.008051 0 30 0
-0.029097 0.016776 0.019749 19 59 30
-0.023856 0.005376 -0.011751 62 139 80
0.000685 0.020491 0.008449 53 82 119
0.026099 0.003810 0.036949 46 76 68
-0.027147 0.007376 -0.013851 156 180 190
-0.019702 -0.012197 -0.018951 137 147 81
-0.026204 -0.000485 -0.016451 31 101 46
0.006839 0.017673 0.011349 142 152 196
0.001385 0.000542 -0.000751 190 171 167
0.043615 -0.019035 0.023149 70 87 101
-0.006903 -0.009793 -0.009251 123 159 86
0.015794 -0.011921 0.000649 145 115 69
-0.025086 -0.006906 -0.019651 13 91 36
-0.018737 -0.003759 -0.013351 145 162 96
0.027112 0.023969 0.021249 123 135 151
0.031698 0.016918 0.020749 65 100 101
-0.004452 -0.000350 -0.002851 30 125 76
-0.005881 0.017502 0.006949 87 170 216
-0.008975 -0.001430 -0.006051 142 161 92
-0.009771 -0.003967 -0.007051 11 67 28
-0.020892 0.015043 0.022149 10 47 26
0.009073 -0.001897 0.001349 174 143 130
-0.017439 0.015942 0.016749 16 64 28
0.041769 -0.014816 0.016849 152 169 185
0.010468 0.000210 0.002449 163 179 198
0.026235 0.017535 0.017049 43 84 37
0.009917 0.006467 0.030649 52 81 78
0.013135 0.011451 0.022449 67 101 100
-0.023482 0.019108 0.007149 0 57 5
-0.004214 -0.000212 -0.049451 156 181 188
-0.028233 0.006879 -0.012751 146 175 185
-0.028721 0.007097 -0.013151 158 190 199
0.002965 -0.016851 -0.009251 205 177 158
0.030204 0.010814 0.023849 139 171 164
0.004024 0.009746 0.014549 0 29 92
0.025335 0.010380 0.025749 44 92 56
-0.012307 0.000003 -0.007351 146 163 95
-0.004130 -0.000221 -0.049451 72 84 90
-0.020726 0.001016 -0.012351 149 163 96
-0.022907 0.019782 0.007049 27 100 47
0.031676 -0.013032 0.008149 221 192 178
-0.013747 -0.000905 -0.008751 80 137 75
0.041492 -0.015796 0.016449 155 170 185
-0.004155 -0.000221 -0.049451 12 18 29
-0.001982 -0.007643 -0.005651 139 162 167
0.026751 -0.015805 0.004649 165 153 135
-0.011849 -0.010807 -0.012551 9 89 22
0.020984 -0.016205 0.002449 225 178 154
0.022425 0.008614 0.028249 53 86 71
-0.010629 0.004070 -0.006751 154 178 188
-0.021646 -0.008647 -0.018251 136 153 87
0.007189 -0.013752 -0.003551 171 112 74
-0.017046 -0.007557 -0.014051 107 148 85
0.004454 -0.002460 -0.001051 169 170 164
-0.019998 -0.004685 -0.014451 74 93 44
0.013101 0.021288 0.014649 29 72 38
0.049000 0.002632 0.034149 89 124 157
0.016847 0.013435 0.018849 84 118 126
-0.020749 0.004801 -0.010151 65 115 63
0.012480 -0.003552 0.002049 169 143 132
-0.026602 -0.001766 -0.017651 59 121 67
0.012209 0.009335 0.026249 75 97 100
0.011685 -0.005144 0.000849 177 141 129
-0.012508 0.018165 0.008249 19 103 44
-0.008321 0.014413 0.008549 0 32 93
0.027341 -0.015920 0.005049 125 68 87
0.028808 0.020768 0.020649 83 124 102
-0.004475 -0.005807 0.001149 83 76 47
0.017115 0.007868 0.029349 75 100 93
-0.024389 -0.004385 -0.017551 117 149 87
-0.033843 0.017460 0.007349 20 46 91
-0.004204 -0.000207 -0.049451 55 80 87
-0.005761 -0.006937 -0.006451 58 121 60
0.009925 -0.018962 -0.004851 186 154 134
-0.023150 -0.011881 -0.021351 118 142 81
0.024409 0.007110 0.029949 60 91 77
0.044031 0.005827 0.024949 1 47 121
-0.024637 -0.004125 -0.017751 114 148 87
-0.019901 -0.008919 -0.017151 129 153 84
-0.004356 -0.014316 -0.008951 61 132 70
-0.004176 -0.000215 -0.049451 37 64 102
-0.014640 -0.007748 -0.013251 80 104 102
-0.002582 -0.003150 -0.000251 89 95 93
0.004196 -0.009372 -0.003451 153 126 71
0.002314 -0.003373 -0.002351 173 174 165
-0.021174 -0.004253 -0.015051 103 129 87
-0.003389 0.010098 0.017449 0 5 22
-0.018446 -0.008745 -0.016151 59 90 33
-0.051241 0.020377 0.020549 104 123 141
-0.022851 0.014500 0.030049 59 79 90
0.024313 0.020358 0.017949 97 147 97
-0.025942 -0.002242 -0.017551 98 141 84
-0.012833 0.014474 0.016949 37 73 108
0.016443 -0.011575 0.001249 161 135 75
-0.021779 -0.011386 -0.019851 141 146 84
0.015354 -0.007406 0.000849 185 170 158
0.009059 -0.007735 -0.001551 189 202 227
0.022033 0.021423 0.016949 83 133 85
-0.017095 -0.003921 -0.012251 49 100 91
-0.008186 0.005868 -0.006951 20 19 46
-0.023455 0.019705 0.006949 31 100 50
0.045828 -0.001978 0.036749 4 18 51
-0.009569 -0.009266 -0.010751 131 166 96
-0.014139 0.017400 0.013749 7 55 19
-0.025857 0.008307 -0.014451 118 130 144
0.016310 0.010265 0.024549 46 63 68
0.017456 0.021394 0.015249 109 145 141
0.005064 -0.010140 -0.003351 146 120 62
0.018576 -0.004541 0.004449 157 153 146
0.010335 0.009085 0.026949 61 88 83
-0.015770 0.004286 -0.007951 146 178 187
-0.020776 -0.012011 -0.019651 131 147 84
-0.040377 0.020175 0.022949 92 107 122
-0.007697 -0.011695 -0.009651 18 84 22
0.017665 -0.008327 0.001749 172 150 140
-0.019646 0.007649 -0.012051 82 103 111
-0.004166 -0.000220 -0.049451 112 132 156
0.007104 0.019881 0.010849 138 168 202
-0.022149 -0.009546 -0.019151 145 156 85
-0.012038 -0.001469 -0.007951 119 154 86
-0.015862 -0.007781 -0.013351 39 130 66
-0.019020 0.005570 -0.011751 158 181 188
-0.012732 0.004267 -0.007551 162 186 196
-0.021614 0.018791 0.007449 33 105 50
0.055128 0.036175 0.053849 67 16 0
-0.023962 -0.008429 -0.019951 137 148 84
-0.027227 0.018495 0.009149 17 76 28
0.040472 0.004154 0.030449 113 144 169
-0.020201 0.006171 -0.011651 146 169 174
-0.016527 -0.010449 -0.015551 53 120 62
0.030038 0.012505 0.020949 150 183 196
0.023053 -0.002536 0.007949 139 151 169
-0.010477 -0.002625 -0.007551 126 163 95
-0.025645 -0.006498 -0.018851 38 55 29
0.045713 0.036947 0.053249 55 29 25
0.021173 -0.017902 0.000849 177 145 125
0.010505 0.019565 0.012649 80 134 174
0.011412 -0.006669 -0.000251 173 136 122
-0.019232 -0.008278 -0.016151 23 71 22
0.026948 -0.002449 0.010149 116 130 150
-0.009904 -0.014573 -0.013151 144 158 89
-0.001078 -0.008314 -0.006551 184 175 178
0.039090 0.006513 0.034149 66 75 85
0.018633 -0.008619 0.002149 193 174 161
-0.027880 0.017656 0.008949 17 75 32
-0.019155 0.005381 -0.010151 154 182 188
-0.047017 0.022291 0.019149 117 138 157
0.001021 -0.005076 -0.003651 178 170 169
-0.024219 0.002919 -0.013451 151 161 95
0.032902 -0.016738 0.007749 189 157 133
-0.009091 0.005451 -0.007251 111 135 163
-0.001270 -0.009033 -0.007051 166 142 128
-0.021177 -0.007652 -0.016851 0 43 0
-0.015766 -0.001780 -0.010151 36 120 70
0.042590 0.013373 0.025449 137 169 162
-0.022639 -0.002463 -0.015251 143 157 88
-0.009362 0.003963 -0.006551 139 166 179
0.017482 0.004582 0.034849 17 51 18
0.036779 -0.006029 0.014249 139 153 173
-0.004167 -0.000219 -0.049451 115 135 159
-0.004845 -0.007574 -0.006251 36 125 64
0.035513 -0.007169 0.013949 166 176 192
0.019315 0.012951 0.019749 145 174 186
-0.000040 -0.011015 -0.007251 176 137 119
-0.012144 0.004758 -0.008351 117 138 146
-0.021319 -0.001661 -0.013851 45 119 52
-0.014241 -0.007199 -0.013051 76 127 90
0.013911 -0.009373 0.000649 229 187 155
0.012219 0.013988 0.018849 105 132 143
-0.020430 0.001133 -0.012151 148 162 97
-0.021781 0.018372 0.007449 28 99 47
-0.004165 -0.000222 -0.049451 134 153 173
-0.004209 -0.000209 -0.049451 70 94 104
-0.012694 0.010886 0.015149 0 13 49
0.006379 -0.014653 -0.005651 167 151 130
0.015720 -0.011921 0.000649 152 122 76
-0.021393 -0.005992 -0.016151 140 162 94
-0.017387 0.007180 -0.010751 85 107 119
-0.016291 -0.004016 -0.011851 0 63 41
0.001965 -0.004685 -0.003151 184 174 162
-0.022546 0.001165 -0.013451 137 156 87
-0.030650 0.017775 0.010349 15 52 31
-0.015792 0.002746 -0.007651 40 78 61
-0.032297 0.017555 0.018249 14 64 30
0.044205 -0.020500 0.021349 82 93 102
-0.024247 -0.005023 -0.017851 126 150 89
0.023174 -0.020164 0.000849 177 131 111
0.013602 0.019433 0.013249 55 99 56
-0.015585 -0.010519 -0.015151 12 62 60
0.019335 0.014554 0.016649 124 149 174
-0.023236 -0.005105 -0.017151 129 154 88
0.010751 -0.005878 0.000449 161 114 92
0.014927 -0.000924 0.004349 149 163 183
0.025877 -0.021404 0.002249 187 162 142
-0.019839 0.001235 -0.011651 148 162 95
-0.023848 -0.004974 -0.017551 126 154 87
0.028987 -0.018018 0.005449 227 196 185
-0.023290 -0.002654 -0.015751 148 162 93
-0.020494 -0.002027 -0.013351 66 127 57
-0.012877 -0.013366 -0.014851 57 124 66
-0.015324 0.015264 0.021949 0 23 40
0.048813 0.000968 0.034049 0 44 120
-0.019728 -0.012704 -0.019251 131 148 80
0.000049 -0.012576 -0.009651 173 132 111
-0.015474 -0.013193 -0.016651 116 139 73
-0.004169 -0.000222 -0.049451 170 185 200
-0.002257 -0.014248 -0.007451 114 139 144
0.064496 0.037075 0.054449 129 73 47
-0.023439 -0.005327 -0.017251 134 158 89
0.014354 -0.006257 0.000849 182 169 158
-0.011879 -0.001981 -0.008151 127 160 93
0.018096 -0.018570 -0.001851 146 140 155
-0.025729 0.000086 -0.015351 130 174 108
0.019186 -0.008552 0.002449 192 175 161
-0.024888 -0.000568 -0.015451 3 82 24
0.027722 -0.002681 0.010449 123 132 153
-0.028595 0.016623 0.021249 15 54 30
-0.012114 -0.014602 -0.014951 84 134 71
-0.017182 0.007332 -0.010851 85 105 118
-0.006224 0.004828 -0.005351 130 160 192
0.024929 0.014080 0.019049 88 134 79
0.071975 0.033133 0.061449 114 92 126
0.012119 0.016721 0.015249 42 97 43
-0.004236 -0.014983 -0.009251 77 127 64
0.026046 0.007461 0.029949 11 17 30
0.028906 -0.018099 0.005449 227 194 177
0.019636 -0.006802 0.003449 173 169 162
-0.021241 -0.009904 -0.018651 136 150 83
0.022150 -0.008157 0.004449 164 145 128
0.010741 -0.017002 -0.003551 172 153 151
0.025779 0.022775 0.019849 109 133 135
0.023556 0.015527 0.016849 117 156 143
-0.022966 -0.007358 -0.018351 6 80 22
-0.013906 -0.003727 -0.010751 37 112 49
0.051357 0.017237 0.032449 170 187 201
0.002863 -0.004302 -0.002851 179 177 167
-0.013259 0.003106 -0.005751 36 94 81
0.016651 -0.016022 -0.001051 162 121 86
-0.016513 -0.004513 -0.012351 39 123 62
0.032302 0.006376 0.032449 68 92 92
-0.022208 -0.008726 -0.018551 135 146 82
0.007680 -0.012900 -0.002951 186 180 182
-0.023122 0.004902 -0.011551 99 147 82
0.017989 0.003947 0.035849 42 71 51
0.042819 0.008159 0.024249 143 173 192
-0.010430 -0.011908 -0.012251 119 147 82
0.025643 -0.013557 0.005249 187 167 168
-0.016135 -0.007771 -0.013651 49 133 70
-0.021427 0.015033 0.022849 10 44 24
-0.026458 -0.000604 -0.016651 52 118 56
0.013872 0.020409 0.013549 57 100 62
0.045068 0.012682 0.027249 151 161 179
-0.026307 0.006299 -0.012351 35 90 68
0.032902 -0.021123 0.007749 178 144 134
-0.032426 0.018169 0.006449 0 30 87
-0.023617 -0.006212 -0.017851 144 170 101
0.027491 0.021470 0.020249 34 81 39
0.012557 -0.017672 -0.005451 189 161 144
-0.018019 -0.009818 -0.016351 140 154 89
-0.002004 -0.002387 -0.002651 178 145 130
0.014423 -0.011467 -0.000051 170 147 88
-0.008768 0.013167 0.011649 0 46 86
0.002934 0.016793 0.010149 120 163 202
-0.005216 0.011934 0.014649 2 69 112
-0.021593 -0.009737 -0.018751 142 153 85
0.016243 -0.013580 -0.000051 168 156 109
-0.003062 -0.004926 -0.000651 65 66 53
-0.022941 0.015528 0.020549 14 53 27
-0.021298 0.004807 -0.010551 47 133 73
-0.010271 -0.003935 -0.007051 2 53 16
0.016720 -0.017235 -0.001951 170 154 106
-0.014937 -0.000540 -0.009351 80 139 79
0.025472 -0.005677 0.008049 168 139 127
0.058458 0.035982 0.053949 115 67 34
-0.004127 -0.000225 -0.049451 59 71 77
-0.018828 -0.004680 -0.013651 150 164 95
-0.020048 0.001938 -0.011551 78 95 40
0.017750 -0.013953 0.000649 170 144 84
0.004539 -0.012877 -0.005651 130 76 48
-0.010693 0.005158 -0.007351 98 122 150
0.020924 0.021324 0.016349 97 147 97
-0.006338 0.019581 0.006949 79 119 150
-0.009913 -0.001007 -0.006451 151 151 91
0.033055 -0.013960 0.008849 205 178 170
-0.022950 -0.007250 -0.017151 17 45 18
-0.012725 -0.006921 -0.012051 86 141 78
0.015570 -0.011898 0.000549 159 129 83
0.016911 -0.017547 -0.002151 144 121 73
0.027446 0.022414 0.020949 85 112 103
-0.023476 0.016855 0.014149 10 52 21
-0.023356 -0.007112 -0.017351 34 63 31
-0.010937 -0.004536 -0.009051 50 117 59
0.009467 -0.018231 -0.004951 176 172 177
-0.012940 0.006742 -0.009151 62 95 108
-0.025262 0.007963 -0.014151 113 128 141
0.011821 -0.014873 -0.003751 182 122 91
0.000104 0.010387 0.013049 6 44 98
-0.016218 -0.006146 -0.012751 48 128 63
-0.023456 -0.003264 -0.016151 153 165 94
-0.014371 -0.000986 -0.009251 99 147 82
-0.024632 -0.008163 -0.020051 122 135 75
-0.016322 -0.007054 -0.013251 86 141 80
0.008277 0.013360 0.012949 94 161 206
-0.018675 -0.011601 -0.017851 108 120 67
0.011394 0.018967 0.013849 92 143 113
-0.012615 -0.008171 -0.012651 90 146 76
-0.025485 -0.006162 -0.018951 137 176 112
0.005496 -0.013687 -0.005851 182 162 142
-0.016824 0.017081 0.015349 6 57 20
0.020019 -0.013463 0.002349 184 167 142
0.033087 -0.003391 0.012249 77 85 102
-0.038228 0.018501 0.005249 9 36 87
0.009276 0.006853 0.030349 45 74 71
0.018470 -0.002236 0.006649 156 161 179
-0.023685 0.006339 -0.011651 152 175 182
-0.022112 -0.012191 -0.020651 122 147 81
0.006189 0.010714 0.012549 64 119 166
-0.023228 -0.012211 -0.021451 110 135 59
-0.045365 0.020996 0.020549 95 115 128
0.023232 0.010503 0.025449 42 89 58
0.025207 -0.006373 0.007049 169 145 133
-0.019192 0.001745 -0.010951 150 164 99
0.045701 0.004513 0.026749 0 33 108
0.020812 -0.013693 0.002649 186 164 140
-0.010654 -0.008586 -0.011251 120 156 83
0.038925 -0.000447 0.033949 1 14 43
0.004516 -0.013309 -0.006251 185 162 143
0.002510 -0.012321 -0.006251 135 85 51
0.027151 0.021223 0.019949 51 93 50
0.019158 -0.010818 0.003249 210 181 158
0.018331 0.007734 0.029749 61 60 64
-0.025413 0.006405 -0.011751 127 161 169
-0.024379 -0.006790 -0.018751 0 32 0
0.019710 0.016469 0.014649 98 145 101
0.058209 0.035732 0.054549 96 60 41
0.012936 -0.010530 -0.000351 178 161 161
0.014025 -0.017188 -0.004051 183 170 148
-0.019462 0.002856 -0.010551 157 167 106
0.006111 0.006818 0.029949 41 72 68
-0.044157 0.020865 0.021149 95 110 123
-0.004209 -0.000212 -0.049451 132 161 169
0.033810 0.006858 0.032449 48 77 47
-0.021513 -0.009495 -0.018651 140 151 83
0.062810 0.035475 0.056749 118 67 42
0.023938 -0.013567 0.004149 189 169 170
0.033499 0.021803 0.023749 122 136 142
0.018798 -0.009873 0.002349 226 192 182
-0.020860 0.007180 -0.012051 118 130 146
-0.028800 0.017643 0.010349 17 54 29
-0.019283 -0.010804 -0.017651 94 115 63
0.040362 0.013992 0.023249 28 70 16
0.011790 -0.013313 -0.002451 198 160 135
-0.010162 -0.013994 -0.013051 143 158 86
0.045617 0.004606 0.026449 0 33 109
0.028312 0.013046 0.020249 110 150 150
-0.008560 0.017998 0.010649 39 85 121
-0.008970 -0.011464 -0.010751 8 90 27
-0.006409 0.001265 -0.002851 22 129 76
-0.012649 -0.013710 -0.014951 53 124 60
-0.027149 0.018818 0.008949 18 76 33
-0.022011 -0.004925 -0.016051 149 161 90
0.004561 -0.006385 -0.002951 169 152 138
-0.004968 -0.012674 -0.008151 6 104 40
0.018519 -0.018614 -0.001551 159 145 112
-0.015966 -0.005855 -0.012351 48 131 75
0.021705 -0.007350 0.004349 172 148 134
0.000916 -0.012344 -0.009051 169 136 119
-0.024957 0.004915 -0.012851 112 136 79
0.030619 0.012775 0.020449 141 173 166
-0.004121 -0.000229 -0.049451 64 74 88
-0.022167 -0.010349 -0.019751 139 150 84
-0.004180 -0.000195 -0.049451 65 107 135
-0.016663 -0.013209 -0.017451 124 151 89
0.031537 0.018290 0.021249 86 127 80
-0.001010 -0.007576 -0.006051 172 152 144
-0.051390 0.022129 0.017749 138 156 179
-0.006360 -0.013473 -0.009951 135 154 85
-0.010208 0.017251 0.013049 32 64 96
0.020084 -0.006760 0.003749 173 169 162
-0.019653 -0.003138 -0.013451 142 159 93
-0.013071 -0.001361 -0.008551 114 155 92
-0.010426 0.018808 0.009049 16 100 50
-0.008772 -0.002275 -0.006451 128 157 87
0.020524 0.018907 0.015549 50 89 67
-0.013644 0.004355 -0.008151 160 187 196
-0.021590 -0.010239 -0.019151 135 146 78
0.019224 -0.007139 0.003049 174 172 164
-0.046729 0.021569 0.019749 102 123 140
0.028802 -0.018562 0.005749 224 184 158
0.052679 -0.001585 0.040149 0 30 78
0.020773 0.015195 0.015449 106 144 140
-0.010958 -0.001027 -0.007051 145 159 94
0.014346 0.008783 0.027249 80 101 107
-0.010612 0.013084 0.012949 45 92 130
0.018645 -0.007887 0.002349 183 172 163
0.008729 0.017573 0.012249 117 165 200
0.043590 -0.000137 0.036149 0 28 74
-0.004451 -0.000727 -0.002951 29 125 71
-0.002034 0.016136 0.008749 114 180 230
-0.007725 -0.005084 -0.006851 26 93 35
-0.019328 0.007366 -0.011951 80 101 109
-0.005521 -0.016130 -0.010651 141 158 90
0.014758 -0.017472 -0.003651 183 174 155
-0.002621 -0.007730 -0.004551 130 107 88
0.004337 -0.006543 -0.003051 196 175 158
-0.018978 -0.011691 -0.018051 135 148 86
-0.026264 -0.000749 -0.016651 66 111 51
0.008546 -0.018295 -0.005751 180 152 133
0.019955 0.010186 0.025549 70 112 69
-0.010692 0.004070 -0.006751 153 177 187
0.011483 -0.019025 -0.005551 172 133 111
0.011079 -0.008275 -0.000851 200 146 120
-0.003608 -0.015519 -0.008851 51 128 69
0.025362 -0.020299 0.002349 192 177 165
0.001358 -0.015186 -0.010351 187 155 131
-0.004205 -0.000212 -0.049451 109 129 140
-0.020467 -0.011183 -0.018951 110 56 18
0.022564 -0.014786 0.002849 193 156 140
-0.008467 -0.014719 -0.012151 134 105 64
0.023516 0.024731 0.019049 127 142 157
0.037679 0.019915 0.025149 89 120 118
-0.003139 -0.014903 -0.008051 22 117 63
-0.050037 0.022666 0.017149 136 152 173
-0.020767 0.005794 -0.010851 158 183 190
-0.030848 0.018818 0.008949 0 7 12
-0.010670 -0.014296 -0.013651 141 151 85
0.042946 0.007420 0.024449 2 88 165
-0.023405 -0.008044 -0.019251 96 122 67
0.000211 -0.006200 -0.004351 143 140 159
-0.011671 -0.011733 -0.013151 122 145 70
0.070395 0.032702 0.061649 125 100 122
0.011367 0.009352 0.025949 64 90 88
-0.002579 -0.017230 -0.008551 89 86 41
-0.022523 -0.004592 -0.016151 151 162 98
0.008929 -0.009859 -0.000451 190 137 106
0.005069 0.002229 -0.000051 106 125 143
0.000238 0.010997 0.012349 0 19 81
0.006194 -0.003336 -0.000751 134 131 126
0.000053 -0.014815 -0.010951 175 158 140
0.021040 -0.019581 -0.000351 181 160 127
-0.045745 0.021285 0.020149 95 112 128
0.042089 -0.011282 0.018249 163 183 198
-0.000565 -0.004232 -0.003651 180 152 135
-0.004210 -0.000213 -0.049451 153 181 187
-0.011632 -0.013062 -0.013851 137 151 82
-0.013376 0.004174 -0.007851 161 188 197
-0.020014 -0.003517 -0.013951 147 157 89
0.001078 -0.003798 -0.003151 180 170 156
-0.015082 -0.003002 -0.009251 37 88 51
0.013058 0.013250 0.021049 113 149 147
-0.008957 0.002433 -0.003451 148 184 194
-0.010306 0.005672 -0.007451 88 113 138
-0.004106 -0.000234 -0.049451 12 20 37
0.010113 0.021786 0.011949 0 70 162
-0.020644 -0.012253 -0.019651 131 149 85
0.035341 -0.007008 0.013749 171 181 197
-0.026868 0.018417 0.009449 16 78 26
-0.011735 -0.000525 -0.007251 143 160 94
-0.015903 -0.006205 -0.012551 56 135 77
-0.019681 -0.008255 -0.016451 15 72 8
0.018645 -0.015461 0.000749 229 193 170
-0.004123 -0.000230 -0.049451 68 74 87
-0.016799 -0.005791 -0.012951 69 131 68
-0.012100 0.002462 -0.005751 63 134 82
0.035273 0.011693 0.022949 22 32 46
0.008511 -0.014164 -0.002151 194 137 105
-0.006463 -0.006797 -0.006951 131 150 83
0.031756 -0.005384 0.012149 153 147 151
0.021341 0.012194 0.022149 129 164 154
-0.005509 -0.015146 -0.010151 146 163 95
0.004556 -0.010693 -0.004051 136 136 154
-0.000459 0.016190 0.009249 109 172 211
-0.019107 0.001745 -0.010951 151 165 100
0.013851 -0.017284 -0.004151 185 168 150
0.009305 -0.018125 -0.005051 172 171 173
-0.025062 -0.004089 -0.017851 106 144 85
0.008300 -0.002539 0.000649 169 143 132
0.017949 -0.014973 0.000349 195 170 150
-0.017677 0.015423 0.017449 14 54 25
0.042693 -0.020135 0.021349 89 105 115
0.038982 0.001446 0.033349 0 24 80
0.002838 0.015554 0.010449 69 170 219
0.000099 -0.015174 -0.011051 175 149 120
0.015054 0.009966 0.024749 10 17 23
-0.004870 -0.016554 -0.010251 139 156 86
-0.026078 -0.000141 -0.015551 22 65 17
0.006001 -0.005514 -0.002151 183 174 165
-0.032208 0.019089 0.004749 8 36 80
0.032236 0.010875 0.024249 56 71 99
0.016001 0.000398 0.005549 73 95 105
-0.037012 0.017931 0.005849 4 28 71
-0.005068 -0.016730 -0.010451 136 153 87
-0.009044 -0.003450 -0.006851 133 189 132
0.019215 0.011716 0.023749 51 111 58
0.026529 -0.003006 0.009849 120 135 159
-0.016847 -0.008101 -0.013951 113 169 112
-0.025924 0.001201 -0.015751 125 157 93
0.067216 -0.004620 0.073349 72 84 98
-0.023050 -0.010432 -0.020451 130 142 85
-0.021274 -0.000753 -0.013051 140 190 129
0.026359 0.019345 0.018749 62 108 69
-0.017300 0.004378 -0.007951 86 130 137
-0.016733 -0.005415 -0.012751 45 127 64
0.034401 0.015998 0.021249 57 95 78
0.019003 -0.017627 -0.000451 186 174 158
-0.012665 -0.007975 -0.012551 87 144 78
0.041196 -0.011300 0.020249 131 140 150
-0.006911 -0.001004 -0.004751 141 160 91
-0.009263 -0.012732 -0.011751 134 153 84
0.025160 0.006619 0.031049 73 100 95
0.004062 0.019440 0.010049 117 175 216
0.004220 0.017349 0.010549 120 174 216
-0.002391 -0.010715 -0.006951 122 144 147
-0.023152 -0.010772 -0.020751 110 139 76
