ply
format ascii 1.0
element vertex 1219
property float x
property float y
property float z
property uchar blue
property uchar green
property uchar red
end_header
0.087615 -0.040813 0.014501 87 94 85
-0.074880 0.029586 -0.143299 32 34 140
-0.086123 0.023813 -0.123499 94 92 86
0.369607 -0.251024 0.429401 65 65 77
-0.091423 0.019151 -0.131199 100 95 90
0.045420 -0.073835 0.041001 71 71 149
-0.000487 0.014716 0.043401 89 106 127
0.091439 0.085570 0.038201 56 82 170
0.372863 -0.204016 0.429401 235 213 199
-0.004134 0.016196 0.049301 168 179 171
0.213778 -0.012372 0.182101 62 63 71
-0.073948 0.011919 -0.141099 85 102 116
-0.075112 0.023332 -0.152199 170 168 162
0.021195 0.091938 0.020101 157 161 161
-0.050959 -0.036736 0.094101 167 161 149
-0.076864 0.012266 -0.117799 95 101 101
0.016341 0.025296 0.021001 122 118 129
-0.067955 0.035421 -0.141899 109 126 154
0.028147 0.039031 0.007001 138 136 137
-0.055485 0.026653 -0.123299 90 88 69
-0.058226 0.030525 -0.124799 115 104 91
-0.112028 0.015854 0.134601 113 118 114
0.021916 0.076638 0.013101 164 168 167
0.119094 0.101981 0.048701 103 103 103
-0.008950 0.037003 0.053701 141 138 158
0.036108 0.025427 0.016801 101 102 123
0.000590 -0.039967 0.038201 182 189 185
-0.056172 0.029576 -0.122399 66 64 52
0.005640 -0.051766 0.045101 145 155 177
-0.078321 0.012595 -0.148199 172 164 148
-0.070196 0.031252 -0.142499 151 141 166
0.029297 0.033857 0.004501 164 164 164
-0.050385 -0.234734 0.429401 208 213 209
0.249606 0.053090 0.230301 74 80 80
-0.069394 0.030157 -0.141699 152 103 8
0.182807 0.072696 0.144701 155 163 151
0.058620 0.018476 0.007401 77 69 119
-0.026863 0.010703 0.067701 166 168 162
-0.046366 0.096659 0.025501 84 88 88
-0.053125 -0.018994 0.112101 76 69 64
0.080397 0.020550 0.015901 148 150 160
-0.057530 0.029918 -0.121499 51 43 22
0.080655 -0.029010 0.056301 121 121 121
-0.051375 0.025018 -0.121799 189 182 172
-0.040317 -0.036626 0.082601 103 133 175
-0.058794 0.026907 -0.125099 107 110 126
0.002046 -0.003913 0.047501 70 58 118
-0.052970 0.038145 -0.121499 127 140 132
0.043824 0.061993 0.005301 161 165 164
0.064324 0.053523 0.039901 78 86 93
0.038261 0.007353 0.010901 98 98 108
-0.060963 0.002126 -0.120399 6 38 68
0.081859 0.049276 0.060901 123 133 135
-0.062534 0.025252 -0.132899 41 38 21
-0.039016 0.066042 0.086601 21 22 30
-0.013005 0.003013 0.061501 114 125 124
-0.032963 0.032739 0.096601 22 28 35
-0.061154 0.032712 -0.130699 179 175 163
0.007007 -0.028211 0.041001 152 165 196
0.125201 0.042726 0.094901 92 97 127
-0.001237 -0.052153 0.050001 133 143 158
-0.066468 -0.010407 -0.142899 51 59 81
-0.067240 0.008418 -0.135099 66 101 162
-0.076937 -0.002545 -0.127299 110 96 72
0.201575 -0.019741 0.167001 156 155 152
-0.078887 0.005836 -0.149999 152 134 95
-0.047151 0.095213 0.030601 80 83 86
-0.060282 0.023690 -0.129499 41 38 21
-0.081830 0.022074 -0.119099 100 99 96
-0.070585 0.029639 -0.142899 36 38 130
-0.052198 -0.012535 -0.131899 179 183 183
-0.067335 0.031314 -0.140199 187 129 1
-0.062444 -0.012575 -0.111599 93 103 105
-0.067417 0.023349 0.108301 76 78 97
-0.055484 -0.010677 -0.129099 63 72 81
-0.049948 0.072073 0.089101 35 39 44
-0.062460 0.001083 -0.135199 8 121 158
-0.077270 0.008400 -0.144299 61 48 28
-0.071949 0.026299 -0.140799 18 26 148
-0.062878 0.024415 -0.130999 32 28 9
0.053370 0.051601 0.046301 86 94 96
0.014969 -0.004797 0.033801 60 65 68
-0.053530 0.034255 -0.122199 90 81 54
-0.036970 -0.013840 0.081801 54 44 124
-0.065443 0.031828 -0.138399 119 102 94
0.194875 -0.058080 0.145901 127 125 142
0.021690 0.060138 0.011801 140 144 143
-0.071522 0.014206 -0.109699 125 126 123
-0.075364 0.012424 -0.143299 161 149 127
0.033927 -0.038548 -0.008299 194 192 192
0.057267 0.085850 0.041001 11 27 10
0.142387 0.094302 0.100101 114 122 124
-0.004398 0.088873 0.043901 20 24 24
0.193737 -0.061685 0.153101 65 94 133
-0.069521 -0.000083 -0.134899 0 37 66
-0.078942 0.002445 -0.150199 126 93 12
-0.070923 0.026111 -0.138699 49 48 129
-0.004050 -0.027781 0.062901 109 127 132
-0.071416 0.030473 -0.143099 171 118 1
-0.019828 0.050862 0.068501 100 104 103
-0.076610 0.007207 -0.145399 134 101 5
-0.077715 0.014326 -0.147699 183 143 1
0.019664 -0.006842 0.026001 188 196 189
0.144588 0.089478 0.089901 115 115 115
-0.061473 0.025544 -0.130899 130 129 107
0.034660 0.084955 0.034901 107 112 115
-0.050209 0.009923 -0.121499 25 92 125
-0.088310 -0.007114 -0.135799 100 98 104
-0.080950 0.001732 -0.143699 35 18 0
-0.073057 0.001625 -0.141599 175 164 132
0.085892 -0.234734 0.429401 158 165 169
-0.078981 0.003924 -0.150199 125 113 96
-0.002312 0.097389 0.042201 71 75 74
-0.082520 -0.010184 -0.129899 90 95 106
0.148216 -0.238458 0.429401 87 87 87
-0.017964 0.030149 0.081101 78 92 109
0.040665 -0.031509 0.002401 181 180 184
-0.083769 -0.004519 -0.131899 141 141 135
0.246904 -0.041881 0.218001 110 106 112
-0.051746 0.035393 -0.121699 189 183 169
0.018316 0.057051 0.026001 72 76 76
-0.053200 0.034422 -0.121999 79 68 41
-0.074525 0.012724 -0.141899 166 170 170
-0.092671 0.024818 0.118901 117 124 120
-0.054014 0.025374 -0.124099 66 58 24
-0.076834 0.005659 -0.145799 111 79 1
0.012299 0.067426 0.042201 197 195 189
-0.073714 0.025953 -0.141199 29 36 161
-0.067101 -0.012645 -0.114399 90 103 109
0.000142 -0.037266 0.043901 197 207 202
0.078037 0.061047 0.013101 108 90 112
-0.041136 0.065546 0.089901 65 63 69
-0.050423 0.055032 0.098401 48 40 53
-0.073642 0.007325 -0.142299 42 58 129
-0.049347 0.027624 -0.120399 187 183 171
-0.029745 0.020776 0.105501 72 79 75
-0.075669 0.027632 -0.146899 30 36 150
0.069294 0.067159 0.004501 190 190 191
0.059846 -0.225891 0.429401 183 191 193
0.032460 0.030713 0.007401 129 133 147
0.065463 0.018232 0.011801 68 62 112
-0.068113 0.023739 -0.126699 26 24 10
0.070059 0.093193 0.014901 99 105 105
-0.072252 0.004472 -0.131399 4 31 48
-0.068990 0.030558 -0.141899 152 137 198
-0.074830 -0.006559 -0.120699 100 108 110
-0.074484 0.005903 -0.144099 164 132 61
-0.012790 0.071806 0.058201 75 88 80
0.214754 -0.029184 0.187901 126 131 127
0.289609 -0.199362 0.429401 178 169 156
-0.087821 0.026334 -0.124699 89 85 78
0.025009 0.049679 0.023001 152 155 158
-0.075610 -0.009861 -0.121599 92 101 105
-0.054015 -0.011599 -0.132299 50 70 122
-0.072866 0.013303 -0.138199 152 119 4
-0.051014 0.005877 -0.123399 113 153 173
-0.062843 -0.006027 -0.142499 58 66 73
-0.057979 0.035631 -0.126799 167 158 147
-0.064220 0.024360 -0.130599 30 25 8
-0.027316 0.009988 0.074201 151 157 150
-0.086899 0.020601 -0.124999 100 99 91
0.048923 0.056941 0.001601 120 93 119
-0.075042 0.024566 -0.135199 12 16 103
-0.078752 0.026981 -0.149799 33 41 148
0.063801 0.084168 0.021001 28 60 29
0.052600 0.056931 0.041001 77 85 87
-0.074724 0.005463 -0.144599 151 128 85
-0.047724 -0.001598 -0.122699 21 130 166
0.012530 -0.043497 0.033801 183 179 167
-0.064574 0.033523 -0.138299 164 129 101
-0.068673 0.026433 -0.141799 27 33 147
-0.076823 0.014064 -0.115699 107 108 105
-0.057344 0.036294 -0.123699 155 148 138
0.026119 0.005053 0.020101 62 47 108
0.069613 -0.241716 0.429401 147 155 157
-0.074192 -0.005396 -0.155599 187 184 188
0.021859 -0.069217 0.042201 157 158 166
-0.003020 -0.015049 0.048101 153 170 184
0.013892 0.035853 0.032201 93 81 167
0.023110 0.067997 0.024501 178 175 172
0.027971 -0.031092 0.007401 179 191 186
0.037295 -0.021257 -0.000799 114 120 120
-0.074012 0.030164 -0.144799 162 109 0
-0.004505 0.061885 0.049301 149 144 139
-0.088069 0.019192 -0.127599 101 98 95
0.133979 0.096098 0.074201 109 113 113
-0.039312 0.050074 0.129201 51 60 59
0.038909 0.064171 -0.002699 164 168 168
-0.057890 0.031524 -0.123599 174 171 161
-0.075921 0.009949 -0.145199 69 65 121
-0.087025 -0.009210 -0.135199 91 96 107
-0.036082 -0.038606 0.084201 127 124 183
-0.017280 -0.051196 0.059501 149 160 178
0.070543 -0.219840 0.429401 182 187 190
0.054903 -0.004441 -0.021599 51 52 119
0.325422 -0.206343 0.429401 199 191 184
-0.069434 -0.005950 -0.153199 190 195 191
0.190640 -0.010661 0.161801 123 122 126
0.003705 0.026329 0.047501 67 57 146
-0.074375 0.034171 -0.145899 123 71 17
-0.002726 -0.024589 0.050001 96 121 164
-0.010133 0.093789 0.044501 63 69 68
-0.031316 -0.222633 0.429401 204 209 205
-0.078571 0.009029 -0.149199 42 41 129
0.327488 -0.070338 0.327501 175 179 179
0.008765 0.084137 0.033301 175 173 167
0.157518 -0.229614 0.429401 81 80 77
0.044810 -0.003529 -0.005699 66 63 117
-0.061631 0.031925 -0.131099 169 165 151
-0.073229 0.029164 -0.144499 75 52 109
0.198947 -0.023548 0.151901 102 98 134
-0.059685 -0.008009 -0.135499 80 84 110
0.170076 -0.230545 0.429401 72 73 70
-0.055364 0.093383 0.039301 89 95 95
-0.083042 0.022542 -0.119399 97 95 89
-0.061428 -0.003756 -0.137499 154 155 147
-0.024222 -0.039474 0.068501 89 128 191
0.223451 -0.040399 0.204801 130 131 128
-0.088484 0.016228 -0.128799 96 93 83
-0.068238 0.023191 -0.125499 30 28 16
0.218030 0.020130 0.175101 80 87 96
-0.078722 0.005513 -0.149499 141 100 8
0.093342 -0.032578 0.060201 113 117 116
-0.062709 0.023490 -0.125899 71 69 55
0.015400 0.065379 0.039301 166 162 163
0.050467 0.020447 -0.005399 83 77 140
0.021018 0.035696 0.028501 102 88 175
-0.001886 -0.036071 0.050601 121 136 155
-0.074550 0.005131 -0.143899 165 146 109
0.099705 0.050126 0.039901 97 67 77
-0.068626 0.018994 -0.105199 98 99 96
0.364491 -0.197500 0.429401 240 216 201
-0.029767 -0.039881 0.078801 158 128 86
-0.020448 -0.024740 0.060901 116 141 186
0.130809 0.095348 0.078001 107 107 108
-0.076119 0.032842 -0.148299 181 179 180
-0.065469 0.025235 -0.132299 29 26 16
-0.084931 -0.008232 -0.132399 152 151 155
-0.059346 -0.009661 -0.127199 18 39 75
0.027155 0.000419 0.000001 204 204 198
-0.073633 0.012792 -0.139999 186 171 143
-0.071312 0.026279 -0.140399 21 30 150
0.021350 -0.020968 0.038201 110 125 151
0.021685 -0.059150 0.038801 76 117 100
-0.027998 -0.025922 0.072801 61 63 73
-0.078516 0.004115 -0.149799 157 144 117
0.017572 0.013866 0.031701 108 120 156
-0.029456 -0.032849 0.076501 140 108 30
-0.039190 0.056387 0.090701 61 76 97
-0.057990 0.003606 -0.123099 0 19 46
-0.074026 0.014202 -0.141299 140 116 48
0.027156 0.086607 0.023501 153 153 154
-0.062962 0.005460 -0.134699 136 137 170
-0.061392 0.039785 -0.131199 143 141 122
0.262167 -0.201689 0.429401 209 203 196
0.091294 0.013497 0.035401 97 95 89
-0.077562 0.029873 -0.150799 182 177 186
-0.073977 -0.004675 -0.155399 164 169 180
0.032460 0.030558 0.007401 126 130 144
-0.074771 -0.010254 -0.121299 94 103 107
-0.064763 -0.171115 0.304201 222 223 215
-0.065562 0.002278 -0.136999 6 124 160
-0.062811 0.025513 -0.137399 25 35 171
-0.054164 0.002957 -0.124999 23 137 177
0.001469 0.085736 0.046301 143 147 147
-0.068132 0.035274 -0.141799 124 137 163
0.010314 0.065790 0.043901 197 195 189
-0.088437 0.021072 0.134601 94 122 137
0.137491 0.058894 0.097501 146 152 145
0.001242 -0.243112 0.429401 185 191 191
-0.034331 0.095091 0.033801 76 80 80
-0.069832 0.036239 -0.142899 148 129 132
-0.050361 0.033483 -0.120599 57 81 162
-0.078880 0.007603 -0.149499 63 72 137
0.004951 -0.035347 0.043401 141 146 196
-0.078722 0.007248 -0.149499 75 71 127
-0.079641 0.001136 -0.149199 108 78 22
0.154810 0.087030 0.109201 115 115 116
0.173574 0.077518 0.145901 83 86 89
0.045588 -0.030926 -0.019299 96 80 159
0.195020 -0.044876 0.177901 167 161 159
0.021069 0.086108 0.016801 165 164 168
-0.060570 0.003022 -0.133099 25 109 165
0.067287 -0.218910 0.429401 178 183 186
-0.077500 0.026930 -0.149499 35 38 141
0.064285 0.051932 0.035401 75 83 90
0.167610 0.084549 0.117901 102 107 103
-0.079427 0.023508 -0.117099 105 104 101
-0.068189 -0.007239 -0.148699 30 43 161
-0.034571 -0.211463 0.429401 213 214 211
-0.041784 -0.018560 0.088201 104 110 109
0.016337 0.093301 0.027501 113 114 106
-0.069213 0.032670 -0.141599 197 154 7
0.059022 -0.062763 0.021001 204 207 230
-0.066060 0.020530 -0.104799 81 88 84
-0.065802 0.033292 -0.139599 83 75 68
-0.050330 0.026036 -0.120899 150 145 161
-0.060569 0.002902 -0.133299 31 137 175
0.057527 0.031445 -0.006099 125 137 161
-0.046472 -0.026690 0.086601 148 151 154
0.396584 -0.215186 0.429401 113 106 101
-0.061401 -0.003433 -0.137099 168 167 159
-0.061784 0.003329 -0.134599 27 117 156
-0.001631 0.034907 0.048701 124 117 169
-0.020804 0.093084 0.047501 59 65 64
-0.063487 0.029284 -0.137399 160 103 0
-0.066806 0.003488 -0.136399 0 90 126
-0.056123 0.041106 -0.121999 60 56 49
-0.064753 0.035365 -0.139399 196 153 13
-0.090939 0.023116 -0.129299 99 95 95
-0.073398 -0.008626 -0.135299 11 21 36
-0.050769 -0.015492 -0.131599 162 174 176
0.101770 -0.032373 0.051801 132 138 131
-0.061687 0.006035 -0.133699 89 115 137
0.138449 -0.224960 0.429401 154 153 150
-0.055688 0.023890 -0.122799 110 106 87
-0.049668 0.005666 0.094901 140 143 135
-0.060693 -0.009129 -0.142099 166 176 178
0.365886 -0.197500 0.429401 240 216 201
0.023468 -0.039740 0.024001 92 120 162
-0.068613 -0.007269 -0.150699 169 180 179
-0.072672 0.010084 -0.139199 146 144 130
-0.024804 -0.251955 0.429401 188 195 191
0.014430 0.071010 0.038201 190 189 181
-0.011159 0.093562 0.039301 68 74 73
-0.081983 -0.010165 -0.129799 87 94 105
0.327282 -0.174228 0.429401 209 195 183
0.296027 -0.053797 0.287501 141 139 139
-0.068284 -0.006240 -0.148999 45 55 157
-0.039040 -0.004569 0.084201 174 181 177
-0.078757 -0.240319 0.429401 203 212 211
-0.035727 0.053252 0.125001 53 62 61
0.031222 -0.034809 0.007401 155 173 178
-0.016954 -0.036590 0.060901 152 178 218
-0.078996 0.011901 -0.143399 24 20 49
-0.075233 0.006207 -0.145799 178 156 129
-0.078933 0.006958 -0.144199 19 19 13
-0.064659 0.001557 -0.136799 38 98 158
-0.066414 0.002972 -0.136799 2 119 158
0.320306 -0.175625 0.429401 213 200 185
-0.053263 -0.041269 0.091501 63 58 132
0.053084 0.038340 -0.005399 165 170 166
0.283097 -0.215652 0.429401 155 146 141
-0.079215 -0.004647 -0.123999 83 89 89
-0.081499 0.092117 0.025501 101 102 99
-0.070967 0.032402 -0.143299 159 125 113
-0.056996 0.023241 -0.119799 61 45 19
-0.024075 -0.000058 0.067701 120 133 159
-0.071451 0.001501 -0.139299 119 90 11
-0.069788 0.036151 -0.142899 127 116 118
-0.064355 0.007043 -0.134899 59 125 154
-0.001001 -0.014170 0.046901 158 158 159
-0.048057 0.006610 -0.121399 9 123 165
0.136588 -0.216117 0.429401 167 167 161
-0.052034 -0.011007 -0.131199 161 166 169
-0.069920 -0.181210 0.429401 229 229 218
-0.062260 0.029363 -0.135199 172 114 0
0.152007 0.088729 0.127101 106 111 107
-0.029253 0.058528 0.067701 173 173 162
0.362631 -0.211928 0.429401 144 132 123
-0.088092 -0.004492 -0.135099 79 77 78
-0.058239 -0.009546 -0.135099 31 53 114
-0.053402 -0.010596 -0.131899 57 79 126
-0.074221 0.012968 -0.141099 172 159 124
-0.069841 -0.007616 -0.140699 8 21 66
-0.056893 0.039106 -0.121699 118 112 100
0.127751 -0.251024 0.429401 145 135 133
0.041913 -0.036412 -0.001499 180 180 180
0.003011 -0.036549 0.045701 96 88 150
-0.060322 0.032060 -0.128899 168 162 155
0.098410 -0.011397 0.027501 109 91 79
-0.075373 -0.010796 -0.121299 93 102 106
0.171818 -0.043538 0.176501 149 153 142
0.024229 -0.057572 0.037701 106 175 203
0.009236 0.021890 0.040501 164 169 165
-0.072267 0.035974 -0.142899 201 173 90
-0.078412 0.007681 -0.149199 78 79 128
0.316120 -0.212394 0.429401 106 93 92
0.051580 0.085300 0.016301 26 48 27
-0.078735 0.022788 -0.114499 106 105 102
0.365421 -0.177021 0.429401 219 203 191
-0.051611 -0.012382 -0.131199 171 180 178
-0.015974 0.007984 0.065001 142 157 163
-0.048703 0.005216 -0.122299 25 142 181
0.077742 0.016744 0.024001 27 29 39
-0.007419 -0.031379 0.065601 21 53 115
-0.087985 0.015798 -0.128099 97 94 84
0.052962 -0.004610 -0.022499 71 71 136
0.291004 -0.217513 0.429401 161 152 147
0.048064 -0.030334 -0.022199 82 77 170
0.136069 0.094539 0.078801 97 103 103
0.051130 -0.001982 -0.019299 57 54 121
0.030946 -0.011437 -0.001899 212 211 203
-0.038615 0.020065 0.103701 50 46 59
-0.046535 -0.063601 0.090701 164 212 228
-0.087602 -0.008979 -0.136399 93 95 114
-0.062042 0.027198 -0.137699 31 40 165
-0.074484 0.007856 -0.144099 110 136 144
0.046921 -0.034789 -0.020999 147 133 200
0.397514 -0.231476 0.429401 92 85 86
0.040185 -0.055115 0.018201 157 156 139
-0.032599 0.012956 0.087401 57 62 65
0.045062 0.079252 0.040501 74 84 79
0.034924 -0.015361 0.001601 140 138 139
-0.051649 0.030459 -0.121499 184 176 160
-0.017987 -0.043027 0.050001 148 152 151
-0.078376 0.011110 -0.148899 167 149 123
-0.033782 0.088683 0.062901 55 61 61
-0.004560 -0.075780 0.067701 114 137 182
-0.052769 0.040219 -0.121199 60 53 35
0.018857 0.050736 0.025501 166 161 170
0.032574 -0.033000 -0.001499 230 226 219
-0.009645 0.098826 0.036001 76 75 79
0.014180 0.093639 0.027001 21 24 27
-0.074474 0.027500 -0.145799 25 31 150
-0.059254 0.016035 0.114001 16 29 42
0.036256 -0.028405 -0.004199 182 179 176
-0.010226 -0.005325 0.063601 23 27 53
0.067515 0.013133 0.037101 81 85 85
-0.065103 0.001638 -0.137199 12 120 158
-0.044235 0.014874 0.101001 10 19 23
0.081623 0.012018 0.041601 146 142 135
-0.078604 0.009694 -0.149499 58 84 124
-0.054456 0.029436 -0.123499 64 57 25
-0.091174 0.016772 -0.131099 96 90 88
-0.021601 -0.052622 0.063601 117 146 177
0.024137 0.060720 0.027501 97 103 102
0.034490 -0.056284 0.024001 132 135 115
0.336585 -0.214721 0.429401 130 120 104
-0.010929 0.000131 0.064301 43 50 59
-0.039891 -0.018851 0.083401 67 73 73
-0.041998 0.068423 0.091501 32 32 33
-0.072661 0.005069 -0.139899 153 133 94
0.344026 -0.202620 0.429401 235 213 199
0.204236 0.031383 0.159301 50 48 42
-0.072790 0.026535 -0.143599 34 42 164
-0.066391 0.013308 -0.105499 84 93 92
-0.050014 -0.030430 0.091501 217 217 211
-0.052657 -0.001562 -0.125099 13 76 147
-0.060439 -0.010514 -0.141899 165 178 177
0.007462 0.048949 0.035401 164 162 162
-0.058215 0.023556 -0.128299 54 43 32
-0.018379 -0.041189 0.051801 195 208 200
0.015120 0.007374 0.052401 32 35 58
-0.017611 -0.085362 0.118901 199 203 203
0.197016 0.044668 0.179301 5 10 13
-0.054275 -0.012287 -0.131999 48 72 119
0.049246 -0.030065 -0.023799 91 83 177
0.186384 0.006436 0.154301 175 176 168
-0.064902 0.011959 -0.133699 33 143 185
-0.059211 -0.030256 0.093201 155 150 125
0.001783 0.047622 0.039901 168 164 164
-0.061755 0.002591 -0.134699 45 127 164
0.005357 0.033675 0.039901 124 119 171
0.060789 0.054489 -0.005399 132 96 110
-0.070712 0.026363 -0.140699 32 41 159
-0.076922 0.002918 -0.145999 113 84 10
-0.077699 0.015158 -0.115599 105 106 103
-0.092059 0.020978 -0.131499 93 92 89
-0.013148 -0.058347 0.060201 151 171 189
-0.047944 -0.009711 -0.126699 80 99 135
-0.076520 0.025205 -0.153299 173 171 165
0.045353 -0.065022 0.028001 179 184 239
0.066695 0.005536 -0.003899 175 173 174
-0.021419 -0.050383 0.060901 46 53 158
0.201433 0.012925 0.169701 34 38 52
-0.078483 0.007267 -0.148799 43 45 118
-0.054437 0.021023 -0.111599 27 29 18
-0.069409 0.007535 -0.133399 9 18 70
-0.058712 -0.010717 -0.136599 92 106 130
-0.039674 0.072808 0.084201 95 99 99
0.035593 0.091108 0.014901 43 80 41
0.032468 -0.055395 0.026001 131 150 125
-0.052669 0.023248 -0.123299 69 62 23
-0.078169 0.025131 -0.139199 47 48 177
0.038765 -0.048911 0.004901 223 228 215
-0.091465 0.017486 -0.131899 93 88 83
0.049031 0.050057 0.038201 86 94 96
0.042836 -0.031167 0.002901 173 171 177
-0.078944 0.023021 -0.116899 103 105 99
-0.036802 -0.006536 0.079501 49 36 119
-0.016569 -0.022496 0.062901 197 196 188
-0.051424 0.005584 -0.123399 87 152 179
-0.061342 -0.007251 -0.137299 104 111 115
-0.071532 0.019585 -0.107899 128 130 124
0.020498 -0.044216 0.029101 196 194 182
0.008045 0.026421 0.053701 42 34 109
0.034150 -0.048675 0.022501 59 58 131
0.043698 -0.039634 -0.012999 131 113 192
0.087786 0.085678 0.033801 114 128 145
-0.085125 0.017717 -0.125299 105 104 96
-0.069967 0.027356 -0.142799 32 45 165
-0.067498 -0.010823 -0.141699 41 49 63
-0.086102 -0.007332 -0.133099 100 99 103
0.028939 0.064932 0.012701 157 163 163
-0.011481 0.093933 0.041001 64 70 69
0.057309 0.052025 0.005301 85 54 67
-0.075526 0.009205 -0.144999 97 122 151
0.069661 0.067719 0.004901 187 187 187
0.041706 -0.217513 0.429401 195 201 201
-0.079565 0.014823 -0.150199 186 156 80
-0.006570 0.039091 0.051801 86 96 145
-0.061893 0.039751 -0.131299 106 96 74
0.020991 -0.034951 0.023501 190 202 197
0.396584 -0.224960 0.429401 101 92 87
0.057578 0.019047 0.004901 81 71 126
0.022106 -0.012394 0.024501 107 135 179
-0.011556 -0.023668 0.058901 155 171 168
0.062216 0.009775 0.037101 84 92 94
-0.060483 0.038252 -0.130199 162 157 147
-0.068946 0.026710 -0.141999 30 38 152
0.019396 -0.040696 0.030101 171 164 165
0.041696 0.053768 0.030601 97 102 105
-0.048662 -0.016378 -0.128099 169 177 170
0.046823 -0.252886 0.429401 160 169 173
0.007489 -0.022105 0.043401 185 184 176
0.235951 0.013640 0.201601 101 109 111
0.000859 -0.019482 0.042801 119 143 175
0.396584 -0.143045 0.429401 251 248 238
-0.050321 0.005220 -0.123299 44 141 172
0.197903 -0.027989 0.151901 61 53 128
-0.040499 -0.000340 0.088201 150 159 170
0.117615 0.094164 0.062901 151 154 157
-0.085741 -0.008259 -0.133099 103 106 114
0.026229 -0.013456 0.021001 136 150 179
-0.066673 0.031691 -0.139999 180 123 0
0.058450 -0.245905 0.429401 157 165 172
-0.083748 -0.004180 -0.130199 105 105 105
-0.071775 0.017319 -0.108899 137 137 131
0.052277 0.053753 0.018701 78 87 91
-0.073852 0.012572 -0.140299 171 171 171
-0.058120 0.021642 -0.114999 96 92 80
-0.078424 0.011851 -0.149299 155 142 127
-0.101045 0.007380 0.135701 74 74 75
-0.000588 0.020327 0.042801 152 156 156
-0.048719 0.007100 -0.122099 21 124 163
-0.065272 0.004995 -0.136299 8 106 160
0.025649 0.052533 0.015401 161 161 161
-0.062892 -0.007579 -0.142999 182 185 177
0.071036 0.057811 0.006601 113 83 107
0.046146 0.003108 -0.016399 42 45 121
-0.000223 -0.069668 0.056301 154 171 192
-0.066972 0.010184 -0.134599 25 112 153
-0.052112 0.073794 0.072001 32 25 20
0.179295 -0.038073 0.165701 164 167 154
0.031564 0.021968 0.005301 104 103 123
0.342166 -0.244508 0.429401 33 33 34
-0.061260 0.039714 -0.131099 138 138 119
-0.065429 0.009563 -0.134399 0 112 154
-0.010198 0.039517 0.054301 134 130 152
0.032823 0.069237 0.022001 90 97 101
-0.050545 0.004059 -0.123399 93 103 171
-0.049471 0.056006 0.095801 47 52 75
0.066357 -0.224495 0.429401 177 182 185
-0.030111 0.040263 0.066301 117 126 130
0.097537 0.025178 0.037701 128 135 144
0.075683 0.056603 0.008301 105 76 104
-0.025302 -0.004299 0.077201 81 89 96
-0.062345 0.008928 -0.132299 22 90 112
0.051871 0.005073 -0.019699 39 40 116
0.175761 -0.055144 0.183501 149 152 144
0.041622 0.063315 -0.004999 154 158 157
-0.016700 -0.051196 0.059501 185 191 198
-0.024693 -0.023677 0.064301 129 147 172
-0.065737 0.026037 -0.139399 130 127 200
-0.078735 0.022005 -0.114499 105 106 103
-0.068104 0.022462 -0.144299 149 144 153
-0.087444 0.017593 0.134601 11 16 19
-0.056901 -0.001677 -0.125099 6 78 110
0.304027 -0.217048 0.429401 124 116 109
-0.038102 -0.022865 0.075701 140 134 152
-0.057602 -0.009919 -0.128599 70 77 88
0.160450 0.088930 0.102801 108 112 111
0.084388 0.088521 0.030101 74 99 71
-0.074840 0.003331 -0.144699 59 55 91
-0.042841 -0.028970 0.083401 125 116 123
0.167751 -0.229614 0.429401 69 70 67
-0.061885 0.003782 -0.134599 26 96 154
0.032832 -0.009844 -0.000399 142 142 136
0.044885 -0.003377 -0.004199 81 79 117
0.004138 0.046684 0.038201 154 150 161
0.053429 0.086838 0.006201 44 91 37
0.073563 0.047647 0.031101 61 53 64
-0.079851 -0.010289 -0.128799 86 93 102
0.004220 0.058575 0.046301 138 138 138
0.391467 -0.205878 0.429401 205 198 188
0.016526 0.075520 0.029601 128 150 136
0.091247 -0.031257 0.030101 102 110 103
-0.023677 -0.054259 0.067701 85 108 132
-0.047379 -0.237671 0.405101 199 204 200
-0.048271 0.019475 -0.122499 164 164 153
0.130834 0.092888 0.081101 107 113 113
-0.080456 0.025684 -0.141699 36 39 135
-0.069438 0.033928 -0.142499 144 137 146
-0.065767 0.023177 -0.142199 182 181 173
-0.070198 0.029492 -0.142399 42 41 148
0.180309 -0.039213 0.183501 131 122 111
-0.035485 -0.005511 0.082601 134 150 162
-0.074411 0.002025 -0.130099 0 25 36
-0.069111 -0.008688 -0.140899 66 66 76
-0.075928 -0.008274 -0.121699 96 104 106
0.036161 0.061840 0.005301 180 185 181
-0.073349 0.005804 -0.141999 147 117 66
-0.008218 -0.006284 0.060901 25 30 46
-0.074608 0.005792 -0.144499 152 116 50
-0.076079 0.020916 -0.112199 113 113 107
-0.063487 0.028220 -0.137399 95 77 131
0.219561 0.070575 0.173701 138 135 125
-0.047939 0.038140 -0.116099 153 146 136
0.183663 0.003839 0.161801 98 105 121
-0.021751 0.099918 0.032201 80 80 81
0.057500 0.068271 -0.004999 174 174 175
0.061412 0.026627 -0.004199 103 101 137
0.007385 0.097664 0.031701 69 74 70
0.349608 -0.253817 0.429401 45 43 43
-0.007332 0.037328 0.053101 140 148 170
-0.061297 0.004345 -0.133999 133 135 161
-0.069207 -0.007583 -0.139499 27 35 49
0.218403 0.011994 0.183501 122 126 126
-0.062492 0.023593 -0.126499 65 66 51
0.111938 -0.239854 0.429401 81 85 84
-0.054585 0.035361 -0.122299 55 49 21
0.044730 0.020554 -0.001499 67 54 144
-0.049862 0.003179 -0.122599 127 122 174
-0.051919 -0.008017 -0.128899 44 56 58
0.050334 0.002596 -0.018999 48 47 120
-0.068512 -0.004918 -0.150899 43 55 157
-0.013514 -0.060661 0.062201 48 44 126
-0.043298 0.003822 0.091501 164 174 169
-0.063343 0.038820 -0.137099 132 94 55
-0.057265 0.037427 -0.123199 160 153 143
-0.053886 0.037043 -0.121799 127 118 105
-0.081204 0.023406 -0.117499 99 99 93
-0.057592 0.021290 -0.133299 163 161 155
0.244340 -0.054759 0.226701 135 132 129
-0.049507 0.035377 -0.119299 83 76 121
0.110077 -0.217048 0.429401 166 171 167
-0.062434 0.036359 -0.136899 190 137 1
-0.065848 -0.007344 -0.110399 105 115 117
-0.055582 -0.023807 0.081101 136 135 139
-0.042478 -0.213324 0.429401 215 217 211
-0.074982 0.008046 -0.144599 88 113 130
0.022773 0.089817 0.018201 167 168 165
-0.068047 0.023045 -0.124699 33 29 17
-0.074097 0.009840 0.137901 24 30 30
-0.065718 0.037602 -0.139699 154 155 188
-0.002260 -0.037191 0.050601 128 134 133
-0.080794 0.009555 -0.143199 135 101 9
-0.058241 0.026635 -0.124999 123 127 127
-0.085813 0.015653 -0.125599 102 101 93
-0.058413 0.089010 0.050601 101 98 95
-0.048990 -0.197034 0.429401 224 223 215
0.045251 -0.055836 0.015401 70 103 110
0.015195 -0.232872 0.429401 188 194 194
0.328213 -0.243577 0.429401 41 39 39
-0.080830 -0.009919 -0.128599 113 118 121
-0.065221 0.008088 -0.135299 15 122 163
0.016488 0.004341 0.032201 133 124 161
-0.076102 0.013534 -0.143699 163 123 1
0.050481 0.016779 0.028501 72 78 92
-0.071401 0.002050 -0.138999 87 67 19
-0.001824 -0.030652 0.047501 170 178 200
-0.049646 -0.000770 -0.122999 21 120 153
-0.048034 0.004425 -0.121699 37 141 178
0.005047 0.047695 0.036501 163 161 161
-0.061689 0.030418 -0.129699 161 157 145
-0.052783 0.032751 -0.121999 77 66 39
0.074264 -0.228218 0.429401 187 192 195
-0.054410 0.002712 -0.124899 22 139 178
0.002140 0.033800 0.043901 86 76 156
0.329045 -0.063724 0.330301 179 183 172
0.036516 -0.023714 -0.007199 121 116 120
-0.077063 0.033513 -0.151699 166 131 103
0.229610 -0.245905 0.429401 96 94 94
0.032955 -0.058571 0.027501 123 148 125
-0.075769 0.013016 -0.143899 167 154 127
0.313329 -0.211928 0.429401 111 101 99
-0.072303 -0.001690 -0.131899 8 52 78
-0.068797 0.001936 -0.134699 4 50 78
-0.080339 0.003262 -0.143699 36 24 2
0.037540 -0.017045 0.005701 123 127 127
-0.054674 0.031716 0.094101 37 89 100
-0.081797 0.021071 -0.119299 101 103 97
-0.065499 -0.010263 -0.110699 103 115 117
-0.051720 0.061144 0.090701 84 94 96
-0.054834 0.027647 -0.123699 53 46 23
0.010707 -0.066427 0.047501 163 165 191
-0.015096 0.077575 0.058201 159 155 155
-0.021329 0.044224 0.052401 169 171 165
-0.062445 -0.003489 -0.138099 159 160 157
0.073062 0.060842 0.009201 146 136 146
0.024984 0.047847 0.019601 130 132 137
-0.073843 0.004556 -0.143099 158 146 129
-0.057815 0.034351 -0.125399 113 118 155
0.129231 0.105224 0.050001 96 96 96
-0.049602 0.014650 0.101001 27 30 46
0.045202 -0.027481 -0.018399 215 217 229
-0.082989 -0.009764 -0.130499 95 97 109
-0.066503 0.033525 -0.139599 101 110 121
-0.045965 -0.019749 0.096601 95 95 95
0.103729 -0.043324 0.031701 118 121 124
-0.075457 0.027760 -0.146699 25 32 149
0.033606 -0.024784 -0.006899 216 210 203
-0.040764 0.078459 0.076501 15 11 17
-0.081851 0.003876 0.160601 51 62 60
0.104961 -0.003305 0.037101 164 155 144
-0.076700 0.028382 -0.148399 158 163 179
-0.073517 -0.004048 -0.155299 28 45 151
0.047177 0.019200 0.004901 63 50 126
0.022691 -0.005577 0.019601 192 198 191
-0.069790 0.003363 -0.133599 3 38 60
0.178272 0.039348 0.143601 37 45 59
-0.062335 0.032032 -0.134099 178 124 11
-0.073656 0.002183 -0.142099 132 132 121
-0.051313 -0.039752 0.091501 49 54 118
-0.003390 0.038812 0.046901 142 146 160
0.038498 0.006719 0.007001 96 98 108
-0.073262 0.025886 -0.139999 29 36 161
-0.062940 0.009145 -0.132399 20 81 104
-0.028093 0.022729 0.101901 47 53 53
0.086759 -0.022697 0.060201 120 119 116
0.021287 0.046398 0.027001 82 93 145
-0.072413 0.012148 -0.136899 157 120 2
-0.080612 -0.005663 -0.148099 26 30 69
-0.076252 0.024158 -0.153999 173 172 164
0.008058 -0.037464 0.034901 108 119 118
-0.050973 0.026009 -0.121099 118 114 162
-0.087606 -0.004946 -0.134399 97 95 96
-0.031923 0.019683 0.108301 49 55 54
0.080808 0.045579 0.036501 42 35 51
0.081644 0.082343 0.030101 53 80 52
-0.078310 0.008173 -0.148699 74 73 146
-0.062414 0.038109 -0.132599 74 59 12
0.027350 0.057529 0.012201 139 143 143
-0.061118 0.007294 -0.132599 8 119 156
-0.055935 -0.014301 -0.129299 56 65 69
0.148731 0.094956 0.099201 113 117 116
0.061706 -0.208670 0.429401 199 203 208
0.029282 -0.031177 0.018201 149 161 163
-0.053884 0.096224 0.038201 93 97 97
-0.069812 -0.002148 -0.146199 171 169 163
-0.009189 -0.017940 0.060901 98 112 115
0.108815 0.103960 0.043401 87 91 90
-0.015236 -0.009987 0.055001 143 153 148
-0.079067 0.009695 -0.150299 46 41 134
-0.068738 -0.007818 -0.137199 37 44 53
0.022813 -0.057395 0.037701 114 179 204
0.065259 0.086945 0.015901 64 91 56
-0.041570 0.004376 0.088201 132 146 154
-0.056052 0.007034 -0.124399 35 52 105
0.029216 -0.031688 0.001201 125 123 123
0.148136 0.092733 0.094101 109 114 110
-0.069429 -0.009597 -0.140799 40 48 68
-0.053719 0.021984 -0.118699 54 43 16
0.213495 -0.033711 0.169701 99 93 106
0.060887 0.090986 0.010501 48 84 56
-0.065252 0.036389 -0.139699 80 82 135
-0.068530 0.027007 -0.141399 25 34 152
-0.048915 0.089746 0.051201 77 81 80
-0.074704 0.002563 -0.143699 114 112 106
0.016400 0.087351 0.029101 180 179 171
0.034151 0.094356 0.029601 136 141 137
-0.009349 0.026283 0.050601 74 60 152
-0.058914 -0.007644 -0.135399 57 74 102
-0.092182 0.021250 -0.131399 98 94 94
-0.061972 0.038723 -0.135999 197 155 28
0.006400 0.073308 0.048101 73 75 80
-0.073057 -0.009160 -0.118599 154 158 158
-0.006111 -0.055986 0.052401 185 189 189
-0.052278 0.006778 -0.123599 52 142 181
0.073031 -0.037242 -0.002299 131 123 141
0.043880 0.089877 0.033301 76 83 79
-0.068206 0.027319 -0.141199 169 170 198
0.084730 0.012025 0.041001 118 118 112
-0.084116 0.015144 -0.123199 112 111 103
0.002065 0.005970 0.044501 162 173 172
-0.076894 0.029255 -0.148599 119 112 164
0.028773 -0.054876 0.032201 154 170 187
-0.063089 0.024181 -0.129899 35 28 10
-0.108665 -0.063782 0.115001 195 197 191
0.104477 0.093118 0.050001 138 143 173
-0.080914 0.015639 -0.119999 98 99 96
-0.047023 -0.017868 -0.124399 166 179 185
-0.047572 -0.051167 0.100101 111 62 7
0.043297 0.061051 0.010901 150 154 154
-0.043631 0.092508 0.043901 79 83 82
0.010949 0.076032 0.037701 152 167 173
-0.076296 0.025776 -0.153199 165 163 157
0.020576 0.004384 0.027501 151 134 158
-0.075208 0.011249 -0.144199 82 97 118
0.068062 0.019870 0.007401 80 75 136
-0.063456 0.038299 -0.137199 120 76 34
0.031686 0.033973 -0.003899 178 180 174
-0.011516 -0.039206 0.057601 196 206 201
-0.047489 0.018796 -0.121799 166 165 157
0.000642 0.089128 0.036501 52 48 54
0.084448 -0.038099 0.011301 131 133 127
0.014717 -0.004894 0.050601 35 38 46
-0.063462 0.008505 -0.133899 24 80 99
-0.067173 0.037187 -0.141499 82 76 178
-0.059704 0.009532 -0.129199 12 124 164
0.051719 0.090508 0.046301 72 76 75
0.070564 0.047516 0.023001 69 57 67
0.023033 0.068852 0.026001 185 182 179
-0.032462 0.054919 0.078801 187 182 177
-0.046827 0.040084 -0.114199 79 74 69
-0.060843 -0.003405 -0.136499 168 168 157
0.051699 -0.000410 -0.020299 54 54 119
-0.032593 -0.074417 0.081101 164 219 222
0.035401 0.023742 0.007401 84 85 106
0.114101 -0.031809 0.101901 66 98 62
0.024621 0.002150 0.028001 99 91 153
-0.071337 0.020778 -0.106699 78 83 79
0.070692 -0.037812 -0.004599 154 148 166
0.216981 -0.021459 0.179301 154 161 157
0.071544 -0.035268 -0.003099 122 125 146
-0.064176 0.024705 -0.131599 28 24 10
-0.000301 -0.071250 0.058201 142 162 187
-0.066359 0.007920 -0.135599 41 91 141
-0.096703 0.018405 0.141301 46 43 47
0.036473 0.028484 0.004101 89 82 134
0.394258 -0.190984 0.429401 220 205 197
-0.024038 -0.018732 0.059501 182 184 178
0.058983 -0.028114 0.023501 110 115 118
-0.071532 0.019445 -0.107899 130 131 128
-0.057854 -0.012240 -0.128699 39 47 67
-0.052817 0.009286 -0.123499 0 77 107
-0.074367 -0.008620 -0.134299 41 48 64
-0.078655 0.013583 -0.148899 135 115 96
0.001181 0.045655 0.045701 164 162 156
-0.087726 0.017075 -0.127799 93 93 87
-0.073750 0.024011 0.124001 7 10 13
-0.064672 0.006231 -0.135599 116 119 169
-0.018142 0.080979 0.065001 147 151 150
-0.024346 -0.028286 0.063601 129 151 185
0.126715 0.094286 0.075001 102 108 108
-0.018327 0.099212 0.037101 69 73 73
-0.074711 0.006941 -0.144699 155 167 162
-0.089337 0.024614 -0.126899 93 88 83
-0.048583 0.036709 -0.117699 167 161 154
0.089769 -0.038612 0.017301 127 128 120
-0.051479 0.027427 -0.120899 142 136 124
0.041327 0.064016 -0.005699 165 165 165
0.120776 0.103810 0.044501 102 105 108
0.186629 0.052428 0.169701 48 51 72
0.007627 0.002481 0.048701 50 33 101
-0.078363 0.013063 -0.143999 88 62 0
-0.073545 0.005462 -0.142399 166 151 118
-0.061366 0.028114 -0.129899 161 155 153
-0.072697 0.011396 -0.130599 24 67 86
0.047161 0.002120 -0.017999 50 49 123
-0.058470 -0.002050 -0.123899 7 67 95
0.052101 -0.023186 0.021001 109 115 115
0.047653 -0.022006 -0.020599 231 226 216
-0.051362 0.096708 0.028501 97 101 101
-0.070369 0.030976 -0.142699 145 141 184
-0.058310 0.006532 -0.121799 4 24 49
0.042040 -0.020818 0.006201 113 118 121
-0.027104 -0.037277 0.070601 142 104 57
0.064519 0.065828 -0.000799 189 188 192
0.057985 -0.242647 0.429401 166 172 179
-0.116681 0.022533 0.144701 130 134 133
0.327282 -0.184002 0.429401 223 206 191
-0.058368 -0.011948 -0.135599 36 61 119
-0.074250 0.012979 -0.113199 137 141 140
-0.046792 -0.042248 0.093201 211 176 106
0.170871 0.011740 0.149501 26 26 38
-0.079711 -0.005675 -0.124299 86 94 96
0.019802 0.095711 0.021001 151 151 152
0.292399 -0.252886 0.429401 80 80 69
0.027633 0.040689 0.009201 162 166 165
-0.080537 0.022167 -0.117999 98 99 96
0.069209 0.049356 0.008701 60 27 47
-0.085577 0.015832 -0.124899 102 100 94
-0.060418 0.006351 -0.132099 20 131 168
-0.083551 0.016447 -0.122699 108 110 104
-0.038316 0.076073 0.075001 147 148 145
0.188506 0.007563 0.150701 190 192 186
-0.071968 0.006302 -0.131699 28 32 58
-0.084906 -0.005764 -0.131399 146 147 144
0.330923 -0.074379 0.333001 166 165 169
0.245889 -0.232872 0.429401 104 104 98
0.031043 -0.025641 0.010501 64 116 166
-0.086837 0.023793 -0.124199 99 93 91
0.094524 0.043389 0.045101 28 56 112
0.063327 -0.011213 -0.006899 96 104 106
-0.062994 0.007356 -0.134099 47 112 139
-0.060473 0.032710 -0.129599 58 69 148
-0.078005 0.025834 -0.141099 32 37 154
-0.061893 0.010744 -0.131299 31 132 171
-0.074915 0.025600 -0.152099 170 165 192
0.066822 -0.200758 0.429401 184 187 195
-0.002014 -0.256609 0.429401 180 185 188
0.057095 0.078953 0.042801 19 37 20
0.013922 -0.005486 0.048701 41 40 44
-0.070142 0.033404 -0.142899 161 146 118
-0.050057 0.031601 -0.120599 69 67 137
-0.087842 0.016523 -0.127699 97 92 87
0.003102 -0.239389 0.429401 187 193 193
0.233331 -0.237527 0.429401 98 96 96
0.013976 0.078840 0.031101 139 154 160
0.016257 -0.057699 0.039901 97 104 95
0.056357 0.084803 0.046901 91 93 82
-0.061831 -0.010055 -0.142999 174 184 186
0.213421 0.059390 0.185001 32 38 57
0.053765 0.050250 0.006601 65 50 62
-0.086528 -0.004774 -0.133399 98 97 101
-0.048135 -0.015672 -0.127799 139 146 162
-0.058882 -0.009860 -0.138199 136 150 153
-0.050640 -0.041765 0.090701 107 101 149
0.053435 -0.024608 -0.021599 184 181 178
-0.076781 0.029630 -0.148399 127 126 173
0.036484 -0.003365 0.007401 132 135 138
-0.038757 -0.226356 0.429401 206 211 207
-0.062008 -0.010630 -0.142999 176 184 177
0.072574 0.025180 0.008301 131 132 165
-0.037500 0.060537 0.088201 35 37 63
-0.070332 0.001631 -0.133899 9 42 63
-0.056330 0.027397 -0.121499 87 86 69
-0.082858 0.001147 0.135701 47 62 68
-0.070468 0.017436 -0.106999 111 112 109
-0.055738 -0.073809 0.108301 174 245 253
-0.049768 0.035623 -0.119799 131 124 140
-0.000383 -0.029484 0.045101 161 180 221
0.191427 0.084688 0.134601 98 103 106
0.018974 0.016779 0.028501 113 132 168
0.023023 0.068187 0.016301 158 162 161
-0.060837 0.037541 -0.131099 169 165 153
-0.073035 -0.005299 -0.155499 183 183 183
-0.010301 0.036544 0.055001 162 162 163
-0.002282 0.026541 0.048101 83 70 160
0.083318 0.091434 0.027501 44 62 60
0.043226 0.032091 -0.001899 141 139 175
-0.070170 -0.007337 -0.114999 110 119 118
-0.074785 0.031929 -0.146499 167 141 121
-0.078888 0.006890 -0.150499 160 134 98
-0.061082 -0.230545 0.429401 213 218 214
-0.057164 -0.061006 0.095801 95 144 169
-0.048099 -0.042030 0.093201 160 128 111
-0.065153 0.033877 -0.139199 172 131 20
-0.077260 0.023088 -0.112599 110 110 104
0.275082 -0.016008 0.257101 161 167 160
-0.001661 0.013253 0.045101 145 143 144
0.017306 -0.050860 0.032701 187 190 193
-0.051612 0.008626 -0.123299 83 129 150
0.032512 0.035803 0.004101 96 100 105
-0.075804 0.010774 -0.145399 57 58 139
-0.065867 0.037286 -0.139799 85 82 183
0.225424 -0.242647 0.429401 99 96 93
-0.067952 0.092825 0.033801 92 96 95
-0.083525 0.006436 0.154301 56 68 63
-0.027678 -0.015082 0.053101 218 221 213
-0.052475 0.088666 0.046901 87 91 90
0.056534 -0.036446 -0.021299 168 160 183
0.237249 0.017532 0.204801 97 106 104
-0.042841 -0.054480 0.083401 124 168 176
-0.075613 -0.005559 -0.121299 89 98 97
-0.076742 -0.082435 0.125001 155 216 221
-0.062200 -0.002694 -0.137499 166 166 160
0.043024 -0.005488 0.011801 109 113 113
-0.068343 0.031100 -0.141199 157 147 188
0.198468 -0.056796 0.145901 32 32 70
0.042756 -0.031211 -0.018699 68 66 151
-0.025115 0.063782 0.067001 86 106 97
-0.071603 0.036594 -0.142899 196 169 104
-0.073019 -0.004546 -0.155199 58 63 161
0.047473 0.090891 0.042201 77 88 80
0.088986 0.099225 0.032201 118 126 114
0.179543 0.087328 0.121901 103 104 101
-0.073521 -0.004675 -0.155399 161 163 173
-0.061151 0.027413 -0.129899 106 102 145
-0.074446 0.029923 -0.145399 156 110 20
0.005591 0.007446 0.043901 138 146 160
-0.084028 -0.004686 -0.124999 95 95 89
0.004553 0.013232 0.048101 163 172 181
0.185061 -0.037072 0.160601 143 141 147
-0.000065 0.059259 0.048101 178 177 169
-0.072668 0.008516 -0.139499 32 61 94
0.026353 0.088781 0.022501 159 159 160
-0.079137 0.012293 -0.150199 153 152 149
-0.046664 -0.219375 0.429401 216 218 212
0.099062 0.091974 0.042201 85 100 160
0.092566 0.044322 0.050001 95 103 110
-0.073894 0.005635 -0.143499 154 134 86
-0.081159 -0.010467 -0.128599 82 89 105
-0.085235 -0.005829 -0.131899 142 141 138
0.000427 0.088210 0.039301 110 115 118
0.042381 0.019008 0.002901 77 74 128
-0.054408 -0.010261 -0.130299 49 74 119
-0.062270 0.037407 -0.135499 179 122 0
0.075442 0.049641 0.069901 101 109 116
0.022246 0.071471 0.025001 146 142 142
-0.069435 0.023370 -0.127999 43 36 26
0.043491 0.035805 -0.008699 157 157 151
-0.050026 0.034586 -0.120299 33 40 123
-0.075291 0.027636 -0.146699 23 27 146
-0.064739 0.006803 -0.135399 46 67 142
0.385886 -0.257075 0.429401 14 23 34
-0.071488 -0.057982 0.110201 74 69 64
0.258447 -0.200292 0.429401 208 204 197
-0.066951 0.029044 -0.139999 176 120 0
0.055039 0.014730 0.031701 79 84 93
0.056161 -0.006633 -0.019999 57 56 123
0.030633 -0.015811 0.025001 191 186 176
-0.009847 0.085419 0.043901 66 71 67
0.115673 0.102401 0.054301 98 100 94
-0.074234 0.013630 -0.112499 144 146 140
-0.026664 0.068491 0.067701 106 122 125
-0.029182 -0.040552 0.078001 177 135 66
-0.041355 -0.017060 0.088201 100 104 118
-0.053765 0.053720 0.116901 56 46 24
-0.076705 0.012672 -0.145099 30 29 91
0.001476 -0.021925 0.042201 120 146 186
-0.017736 -0.067208 0.076501 148 165 184
-0.051792 0.024421 -0.122299 174 169 152
-0.056576 0.036648 -0.120099 23 20 10
-0.032414 0.012028 0.074201 122 121 125
-0.077199 0.017518 -0.114099 112 113 110
0.017710 -0.021985 0.047501 81 96 110
-0.083455 0.015675 -0.122999 108 110 104
0.211077 -0.002412 0.175101 73 81 103
0.304957 -0.192380 0.429401 202 196 184
-0.081491 0.019055 -0.118899 104 105 102
0.162713 0.084536 0.130301 87 92 88
-0.044956 -0.028247 0.084201 143 147 173
0.051939 -0.226356 0.429401 188 193 196
0.066064 0.087428 0.015901 46 74 41
-0.001920 -0.014538 0.046901 153 150 159
0.021968 -0.031601 0.030101 197 209 204
0.065211 0.059178 0.000801 153 147 153
0.193835 0.044119 0.190901 61 64 67
-0.029642 0.000597 0.086601 62 69 73
0.110542 -0.235200 0.429401 150 154 154
0.063101 -0.199827 0.429401 199 207 214
-0.036456 0.033067 0.098401 66 72 71
-0.055242 0.028406 -0.122999 76 70 49
0.024399 0.043665 0.021501 145 146 167
-0.080710 0.001929 -0.143799 38 24 2
0.073735 0.047475 0.031101 58 50 63
0.202189 -0.027812 0.148301 56 51 117
0.043588 -0.000055 0.006601 120 124 129
0.050600 -0.006417 -0.015999 58 58 128
-0.062048 0.010651 -0.131499 29 125 165
-0.038700 -0.006567 0.077201 55 47 129
0.012762 0.098637 0.029601 70 74 74
-0.010940 -0.038247 0.057601 86 128 183
0.010850 0.093299 0.026501 22 26 25
-0.045619 -0.054640 0.104601 87 74 59
-0.074809 0.034127 -0.148199 184 163 138
-0.016578 0.019078 0.097501 65 73 75
0.085892 -0.207274 0.429401 184 189 192
0.046604 -0.053339 0.013601 134 166 176
-0.002008 -0.025858 0.047501 84 117 172
0.054682 0.088623 0.051201 32 40 33
-0.008017 0.098116 0.029101 73 77 77
0.043656 0.024251 -0.007999 119 97 188
0.021594 -0.034475 0.027501 104 113 122
0.153130 0.087344 0.120901 111 116 112
0.007288 -0.226356 0.429401 190 196 196
0.012937 0.022382 0.033301 162 169 165
0.323562 -0.170970 0.429401 201 192 174
0.000859 0.025247 0.048101 79 69 158
-0.066082 0.031423 -0.139599 180 120 0
-0.054240 -0.012797 -0.131899 42 69 120
0.142170 -0.214255 0.429401 166 166 160
-0.039428 0.008020 0.088201 174 183 174
-0.077728 0.025287 -0.139399 50 50 181
0.200308 -0.249628 0.429401 97 96 93
-0.078346 0.001039 -0.144999 54 32 0
-0.066871 -0.072358 0.113001 164 230 239
0.079882 0.049616 0.017301 117 92 101
0.028279 0.010286 0.013601 109 112 115
-0.083221 0.020005 -0.121599 114 114 114
-0.073543 -0.003951 -0.155099 40 53 106
0.034806 0.017916 0.011801 111 111 128
-0.063779 0.034837 -0.137099 156 119 83
0.129042 0.100465 0.069901 98 98 98
0.038820 -0.059796 0.023501 112 131 154
0.048322 -0.011961 0.018201 113 117 116
0.069783 0.000437 -0.002299 84 100 130
-0.047459 -0.011132 -0.124799 63 79 123
-0.056592 0.033885 -0.120699 32 30 18
-0.048079 -0.010353 -0.127799 175 181 180
0.032655 -0.047290 0.023501 144 171 188
-0.055826 0.010060 -0.123699 7 89 126
0.196715 0.035507 0.156801 59 60 57
0.313148 -0.030303 0.311801 169 176 172
-0.062784 0.025531 -0.133099 40 38 24
-0.061930 0.030259 -0.130199 164 158 146
-0.039229 -0.014539 0.086601 52 40 120
-0.063548 0.011663 -0.105699 86 95 93
-0.089256 0.021997 -0.127299 99 94 89
-0.070721 -0.003286 -0.147199 111 114 117
-0.040322 -0.029563 0.081801 247 221 201
0.074495 -0.030713 0.002901 97 97 123
-0.062367 0.031708 -0.136799 193 155 87
-0.089283 0.021572 -0.127699 96 96 90
-0.014946 0.059460 0.073501 102 102 103
-0.068232 0.022277 -0.144399 122 114 127
-0.024752 -0.045818 0.072801 195 206 198
0.145500 0.094997 0.101901 112 119 115
0.047288 0.010414 0.023001 87 92 101
0.339375 -0.239854 0.429401 73 73 73
-0.037808 0.091785 0.044501 69 73 73
0.093473 0.086605 0.039301 85 114 174
-0.059371 0.027321 -0.126099 147 142 146
-0.055319 0.004721 -0.125299 13 122 166
0.301702 -0.172367 0.429401 203 190 170
0.021878 0.086917 0.016801 167 167 168
-0.074361 0.012219 -0.141699 133 136 128
0.074595 0.051158 0.008301 124 96 106
0.304957 -0.191915 0.429401 204 195 184
0.005206 -0.017875 0.045701 171 172 180
0.047026 0.088950 0.021501 53 73 64
0.027949 0.008695 0.025001 39 28 79
-0.064211 0.038206 -0.138799 85 56 116
0.062684 0.017231 0.022501 63 62 95
0.044732 0.090328 0.014501 51 88 49
-0.077359 0.003066 -0.145699 88 57 4
-0.084726 -0.008357 -0.131699 160 158 164
0.036403 0.030547 -0.000799 131 122 186
0.058556 0.026884 -0.007199 112 111 139
-0.057904 -0.057510 0.093201 118 160 168
-0.072669 0.011985 -0.137599 127 111 99
0.046561 -0.027889 -0.018399 176 164 187
-0.076143 0.014254 -0.115299 111 112 109
-0.079353 -0.004249 -0.124199 111 103 82
-0.062732 0.025545 -0.137799 18 29 168
0.053036 -0.019583 0.020101 113 117 117
0.066329 0.050830 0.060901 89 94 103
-0.059515 -0.000503 -0.132999 18 149 188
0.041487 0.089329 0.018201 31 91 32
-0.066141 -0.184553 0.353101 218 220 214
-0.072845 0.022618 -0.114199 146 146 140
-0.054092 0.029196 -0.123199 96 82 58
0.000290 0.052279 0.036501 55 64 68
-0.048762 -0.002420 -0.122999 41 132 161
-0.048118 -0.013656 -0.127999 189 194 190
-0.059281 -0.000112 -0.132899 16 147 186
0.055516 0.023455 -0.009799 96 75 162
-0.053661 0.039106 -0.121699 103 93 71
-0.082768 0.018908 -0.120699 104 104 104
0.134566 0.101819 0.053701 103 103 104
-0.028261 -0.033943 0.075701 131 94 5
0.021968 0.071360 0.030101 187 187 181
-0.070516 -0.004554 -0.154299 37 59 173
-0.026988 -0.062682 0.076501 137 192 200
0.252865 -0.246835 0.429401 100 98 98
0.119630 0.093978 0.065601 120 124 129
0.049977 0.088818 0.005701 57 100 51
0.007283 -0.027475 0.045101 137 169 213
0.175468 0.006692 0.143601 186 187 184
0.078128 0.083003 0.030601 54 64 71
-0.085560 0.012069 0.141301 31 40 39
-0.007088 -0.010851 0.041601 216 218 212
0.013381 0.025729 0.042201 31 30 84
-0.071494 0.010357 0.136801 53 59 59
-0.065896 0.029180 -0.139599 179 122 0
-0.080155 -0.005822 -0.147999 41 46 55
-0.047195 0.034966 -0.115699 168 162 150
-0.053934 0.005716 -0.124999 65 71 166
-0.063850 -0.008790 -0.143399 157 168 167
-0.080299 0.021107 -0.118799 103 105 99
-0.067116 0.006442 -0.135699 10 70 138
-0.073168 0.003224 -0.141199 175 161 144
0.041673 0.007085 -0.022499 171 171 165
0.027241 -0.053518 0.031701 163 178 197
-0.004144 -0.016065 0.058201 115 124 123
-0.067846 0.026845 -0.141299 59 49 138
-0.067198 0.092836 0.034901 90 95 91
0.095194 -0.215652 0.429401 175 181 180
0.001348 -0.069962 0.054301 97 136 177
-0.075599 0.007711 -0.127799 36 45 54
-0.078667 0.015058 -0.148999 178 144 18
-0.060666 0.050139 -0.103499 152 127 128
-0.049682 0.007806 -0.121999 96 140 154
-0.064114 -0.009336 -0.144099 134 140 159
-0.016706 0.005991 0.065601 140 149 167
0.048659 -0.051509 0.011301 123 180 197
-0.056959 0.000967 -0.124799 4 57 86
-0.013048 0.051688 0.062901 97 103 103
-0.075602 0.001353 -0.145599 113 81 3
-0.002016 0.012144 0.046301 134 144 159
0.003662 0.076001 0.049301 100 99 103
-0.040486 0.056171 0.090701 26 49 73
-0.032989 0.051570 0.081801 151 151 145
-0.075730 0.024123 -0.153599 172 171 163
-0.062434 0.030553 -0.136099 164 113 0
-0.075915 0.033919 -0.149699 108 80 10
0.028842 0.094591 0.022501 149 150 147
0.030543 -0.003194 0.003701 202 204 198
-0.055406 0.079662 0.081801 59 46 26
-0.075269 0.020705 -0.111299 138 137 134
-0.070369 0.035599 -0.142699 77 67 58
0.174320 -0.042716 0.193901 107 113 113
0.290074 -0.224960 0.429401 93 86 87
-0.082612 0.020139 -0.120399 98 99 96
-0.001051 0.064064 0.050001 161 163 152
-0.059875 0.008346 -0.119799 0 30 53
0.015317 0.017208 0.038201 151 160 159
0.008983 0.076616 0.039301 112 134 152
-0.019537 -0.028316 0.060201 137 155 180
-0.077771 0.028283 -0.150999 45 43 81
-0.084660 0.023695 -0.123499 114 111 108
-0.061351 -0.009568 0.110201 86 133 152
0.316120 -0.218910 0.429401 96 88 81
-0.060993 0.032060 -0.130299 180 176 164
-0.087475 -0.006758 -0.134899 103 100 109
0.090592 0.012217 0.039901 54 48 41
-0.061680 0.007234 -0.132999 11 120 156
0.157156 0.086697 0.115901 113 117 116
-0.030200 0.063734 0.073501 125 138 144
0.081854 0.052058 0.014501 131 106 115
-0.050777 0.009942 -0.121799 25 89 118
-0.078751 0.009091 -0.149399 43 39 129
-0.007703 -0.007858 0.058901 33 33 45
-0.064018 -0.057961 0.112101 90 85 80
-0.067101 0.023748 -0.143499 184 182 176
0.031747 0.059996 0.017301 110 116 116
