ply
format ascii 1.0
element vertex 1217
property float x
property float y
property float z
property uchar blue
property uchar green
property uchar red
end_header
0.018249 0.030857 -0.089064 156 177 206
-0.066250 -0.004244 0.005736 125 122 112
-0.038033 -0.015353 0.013136 122 121 113
0.110561 0.034689 0.085636 52 55 47
0.132118 -0.056137 0.006736 122 122 103
0.113690 0.017249 -0.009164 8 10 4
0.117629 -0.060717 0.023736 113 112 95
0.031570 -0.005653 0.004336 22 22 16
0.035432 -0.040094 0.031836 108 99 88
0.046631 0.035193 -0.096364 129 158 184
-0.010753 0.015156 0.034536 112 109 106
-0.110073 0.073008 -0.009964 138 129 111
-0.079303 -0.056286 -0.014464 173 167 139
0.114570 0.027166 0.070636 69 69 63
0.032914 -0.021077 0.005036 42 42 31
0.106562 -0.002582 -0.015864 6 12 5
0.010475 -0.056182 0.014336 169 161 140
0.021996 -0.062228 0.009936 176 166 142
0.117480 0.012123 0.056536 76 80 69
-0.122016 0.020966 0.002036 115 111 97
0.013841 0.037596 -0.104164 159 176 197
0.008843 0.011498 0.039136 85 83 83
-0.007470 -0.062634 0.009136 172 167 144
0.005715 0.038051 -0.025464 11 12 9
-0.085792 -0.058143 -0.022064 175 169 135
-0.014678 -0.044955 0.009136 163 155 134
-0.062071 -0.024913 0.002636 123 123 112
0.032025 0.032003 -0.090664 144 171 195
0.085699 -0.011109 -0.020264 95 98 85
-0.058766 -0.025087 0.009536 125 125 114
-0.018694 -0.018853 0.020436 119 117 111
-0.035836 -0.027343 0.010936 122 122 111
0.118816 -0.075678 0.022036 105 110 95
-0.022542 0.059517 0.025736 162 152 143
-0.031714 0.020921 0.034536 119 118 110
-0.078078 -0.051622 -0.016664 177 168 136
-0.054030 0.055428 0.029636 126 120 108
0.015385 0.002285 0.005736 8 7 4
-0.007469 0.031675 0.041536 109 103 101
0.061958 0.023970 -0.004964 8 9 6
-0.088435 -0.037467 -0.014764 174 163 131
0.028800 -0.064828 0.019636 172 165 142
-0.116261 0.045239 0.020436 107 108 93
0.037213 0.029766 -0.084064 150 176 203
0.048977 0.031481 -0.016964 36 33 23
0.111746 -0.022899 0.059936 85 84 76
-0.088130 0.050536 0.033636 110 106 99
0.046878 -0.023741 0.000736 45 42 32
0.099889 -0.059286 0.045536 108 109 94
0.016228 0.036687 -0.101964 158 176 201
-0.110181 0.021924 0.008836 116 113 96
-0.112607 0.003309 0.000736 120 117 100
0.009702 0.039175 -0.096664 3 4 1
0.088714 0.023031 -0.024764 17 16 13
-0.117115 0.050142 0.015036 108 106 94
-0.053859 0.066192 0.012036 154 145 132
0.029478 0.033033 -0.021564 33 30 20
0.020570 0.037965 -0.104764 142 161 189
-0.072885 -0.021374 0.004336 123 123 112
0.088738 -0.015097 -0.021564 13 20 11
-0.082147 -0.028263 -0.002164 104 100 86
0.046812 0.031493 -0.018764 36 33 23
-0.001342 -0.056055 0.016136 163 157 136
-0.092314 -0.056802 -0.019264 175 169 135
-0.040195 -0.055712 -0.004964 172 166 138
0.114517 -0.010433 0.060536 88 89 81
-0.119926 0.006081 -0.002164 117 113 99
0.118057 -0.040168 0.043536 98 102 84
-0.118119 0.072198 -0.004964 149 141 120
-0.003212 0.050363 0.042536 100 88 84
-0.024197 -0.064461 -0.001864 176 170 142
0.089410 0.020159 -0.020264 9 11 5
-0.128926 0.040135 0.010636 111 107 95
0.017357 0.035463 -0.098664 152 174 201
0.012913 -0.062370 0.009936 169 162 137
-0.119140 0.006468 -0.001564 117 113 94
0.021976 0.029849 -0.085464 152 175 204
-0.089172 0.051740 0.034936 109 105 93
-0.126281 0.035327 0.010936 110 108 94
0.029954 0.037094 -0.028964 36 32 25
-0.029977 0.068397 0.007036 181 170 157
-0.094319 -0.053904 -0.023764 171 164 132
-0.050343 0.000045 0.016936 124 121 111
0.013207 0.038074 -0.105264 144 162 187
0.084736 -0.071721 0.031836 162 153 126
-0.044702 -0.046786 0.000036 172 165 140
0.099291 -0.009795 -0.018264 5 12 3
0.118919 0.027407 -0.009964 0 4 0
0.111403 0.029646 0.078936 59 65 58
0.048297 0.036673 -0.098964 133 164 185
-0.086094 0.026265 0.022936 120 121 108
0.027964 0.013942 0.012436 10 11 8
0.022651 0.034209 -0.095764 151 173 200
-0.079227 -0.020460 -0.001864 120 121 108
0.010358 0.023120 -0.000264 32 28 21
-0.109700 0.000921 -0.002764 117 114 97
0.032949 0.033252 -0.092964 146 171 195
0.071494 -0.055113 0.041036 165 153 129
0.090826 -0.055570 0.042036 109 111 100
-0.125139 0.063440 0.008836 102 98 84
-0.046437 -0.054379 -0.004664 171 164 139
0.119134 -0.043277 0.039136 99 100 85
0.040998 0.003575 0.004636 8 9 6
0.060502 -0.054336 0.026236 165 155 131
-0.044743 -0.020904 0.011736 123 123 112
0.089094 -0.036732 0.049636 100 99 91
-0.002552 -0.024395 0.024936 120 116 109
0.089647 0.037655 0.067536 63 62 54
-0.126245 0.048028 0.018536 112 103 92
0.118708 0.000454 -0.010864 6 8 2
-0.093372 0.008959 0.005036 120 118 106
-0.051435 -0.057962 -0.008264 174 168 140
-0.044164 0.056491 0.030936 147 143 131
-0.108636 0.069648 0.002636 122 114 93
-0.090528 0.017498 0.011336 120 121 106
0.118764 -0.073141 0.032236 102 107 94
-0.030986 0.027919 0.035936 114 112 106
0.012295 0.040006 -0.028564 10 11 8
-0.013911 0.019940 0.037736 112 108 108
0.111873 -0.015096 -0.014464 7 14 5
0.063323 0.025212 -0.072464 152 177 194
0.054390 0.037685 -0.102364 139 166 185
-0.049729 -0.035762 0.009136 173 161 137
0.110572 0.011961 -0.013364 8 8 2
0.017560 -0.003775 0.005036 29 27 21
0.050970 -0.049127 0.031336 161 149 127
0.028611 0.022982 0.001636 35 32 22
0.128347 -0.055144 0.016936 117 116 99
-0.002095 -0.005783 0.034036 115 110 105
-0.052078 -0.041383 -0.004664 173 164 137
-0.097805 -0.023993 -0.007664 114 113 96
0.106160 -0.019653 0.068736 92 93 85
0.065352 -0.055415 0.023336 168 158 134
0.051685 0.006142 0.001036 3 8 4
-0.064649 -0.029475 -0.000264 104 100 81
-0.087650 0.069600 0.001636 140 132 116
-0.124494 0.066420 0.004636 110 102 81
-0.027636 -0.010773 0.024936 121 119 113
0.039455 0.028110 -0.080164 157 183 210
0.077051 0.025645 -0.072864 145 172 184
-0.088403 -0.049426 -0.015264 178 168 134
0.040448 0.032195 -0.088664 152 176 198
0.025641 -0.038865 0.020836 160 148 131
-0.048421 -0.011888 0.013136 127 123 116
-0.083724 -0.029276 -0.009964 171 159 130
-0.035208 0.064757 0.012036 167 158 147
0.008038 -0.037976 0.016536 163 152 132
-0.020745 -0.017151 0.018936 121 119 113
-0.099225 -0.013408 -0.002764 120 116 102
-0.046734 0.017153 0.022436 124 119 114
-0.118394 0.036622 0.013136 110 109 92
0.033421 0.035839 -0.099064 146 170 192
-0.119792 0.000021 -0.005564 115 114 97
0.060374 0.032896 -0.090064 155 174 188
0.027085 0.025854 -0.007364 33 30 20
-0.081824 0.052890 0.031836 14 19 15
-0.050867 0.012092 0.014636 125 121 114
0.044092 0.035317 -0.097464 134 157 181
0.127277 -0.048957 0.015436 109 112 92
0.029768 -0.060039 0.025336 171 161 139
-0.035204 0.068709 0.005336 172 163 152
-0.114934 0.005124 -0.001264 118 113 96
-0.029505 -0.046384 0.010636 177 167 145
0.110112 -0.018610 0.069336 92 92 86
0.129796 -0.043751 0.001636 117 115 96
0.054877 0.030177 -0.085264 148 173 192
0.037928 0.001299 0.006036 8 9 6
-0.092933 0.039227 0.019236 118 114 102
-0.054768 0.044741 0.036336 115 114 106
0.072572 0.029933 -0.082464 133 160 179
0.006133 -0.055865 0.017336 167 159 138
0.121751 -0.037215 0.020836 108 108 89
0.093489 -0.010225 -0.021564 8 11 3
-0.099706 -0.016016 -0.002164 118 120 102
0.018521 -0.052889 0.022036 158 150 129
0.054570 0.029336 -0.083264 152 179 196
-0.041049 -0.063792 -0.010564 177 170 138
0.026554 -0.061311 0.018136 172 165 140
-0.097665 -0.037790 -0.019564 173 163 127
-0.056932 0.045243 0.035436 110 110 104
-0.021839 -0.002741 0.026236 118 116 110
-0.093840 0.060908 0.022036 109 106 89
-0.011082 0.052042 0.043536 139 130 125
0.051441 0.034935 -0.095464 135 161 183
-0.097082 -0.042498 -0.018764 173 165 131
-0.074715 0.008751 0.013936 121 119 113
0.087513 -0.000177 -0.022564 12 13 5
-0.100669 0.027020 0.019236 120 118 104
0.106439 -0.003197 -0.015864 8 10 4
-0.077217 -0.012997 0.005736 120 121 108
-0.072750 0.059517 0.025736 113 112 95
-0.000705 -0.022495 0.024536 115 113 107
-0.067925 -0.024478 -0.002464 125 125 114
0.102119 0.036949 0.105836 6 10 9
0.080678 -0.030085 0.053836 102 101 93
0.100413 -0.040720 0.052236 102 102 91
-0.064058 0.023945 0.024536 124 121 111
0.027746 0.037163 -0.028564 31 30 22
0.045421 0.034192 -0.093664 157 179 197
-0.101833 0.050947 0.022036 104 102 90
-0.047783 0.016061 0.021236 123 119 112
0.090020 -0.053227 0.042536 102 103 95
0.028204 0.036942 -0.101364 131 153 185
-0.050788 -0.010397 0.011336 127 123 116
-0.053414 -0.040643 -0.002164 170 160 136
0.010496 0.034360 -0.024564 29 28 20
0.017130 0.022777 0.002636 29 29 18
-0.113263 0.070046 0.001336 120 117 95
-0.081482 -0.026799 -0.002164 114 115 100
-0.022123 -0.013917 0.019236 122 117 112
-0.032076 0.068043 0.006336 174 168 156
0.040450 0.032489 -0.089764 143 170 194
0.113246 0.005920 0.040136 82 83 75
0.013494 0.030004 -0.086464 158 178 203
-0.028874 0.074188 -0.005264 197 188 177
0.081407 -0.044525 0.038236 142 138 119
-0.117340 0.028821 0.005736 113 112 95
0.000056 -0.054046 0.013136 165 157 136
-0.019515 0.058666 0.028736 164 153 147
0.103509 -0.020321 -0.003464 36 33 23
0.088628 -0.012131 0.063436 91 91 85
-0.000420 -0.047554 0.014636 163 154 136
-0.048981 0.063287 0.017336 146 142 130
0.041501 -0.072086 0.017336 171 166 141
-0.107910 -0.046579 -0.023264 170 160 138
-0.015338 0.071612 -0.001264 147 141 129
0.128395 -0.064540 0.005736 116 119 104
-0.086231 -0.014555 -0.004064 122 120 108
0.050342 0.030240 -0.015064 33 33 22
0.082059 0.023716 -0.036364 29 31 20
0.043442 0.033385 -0.020764 32 30 18
-0.092196 0.056135 0.041536 9 15 8
-0.072268 -0.055133 -0.009964 177 168 141
0.034845 0.036753 -0.100264 130 155 184
-0.044139 0.063939 0.019236 157 151 139
-0.111601 -0.010424 -0.009964 111 109 95
-0.036523 -0.051667 0.005036 175 165 141
-0.120951 -0.007382 -0.004664 119 115 103
0.078143 -0.034164 0.049636 96 98 87
0.131879 -0.043122 0.011736 113 111 92
0.121376 -0.042201 0.038736 101 99 87
-0.030096 0.067415 0.008436 173 164 153
0.036193 0.033730 -0.093164 145 170 194
0.061606 0.029435 -0.081964 153 178 195
0.055206 0.035144 -0.095864 137 164 183
-0.048227 0.056241 0.028336 144 140 128
-0.092309 0.066629 0.006736 125 122 105
0.008937 -0.063311 0.002636 174 167 142
-0.009763 -0.056066 0.007736 168 161 138
-0.042128 0.055534 0.033136 142 136 124
0.038150 0.020756 0.008136 31 31 20
0.117015 -0.005819 -0.012864 9 12 4
0.003700 0.028957 -0.007364 17 19 13
-0.045963 0.041778 0.035936 119 117 111
-0.031558 -0.011901 0.021236 120 121 113
-0.131344 0.053633 0.014336 106 102 88
-0.060095 -0.060810 -0.009164 182 173 146
0.019619 -0.025537 0.003036 40 40 29
-0.048364 -0.059617 -0.004364 176 167 140
0.108092 0.035546 0.090636 38 39 36
0.028257 0.032123 -0.091864 148 174 201
0.009578 0.027025 -0.009964 34 33 25
0.035679 0.022413 0.003336 35 32 22
-0.079265 0.003465 0.011736 120 121 108
0.010845 0.000706 0.028336 88 88 82
-0.047174 0.069482 0.006036 178 167 154
0.122373 -0.053874 0.026236 108 111 91
0.088315 -0.037964 0.046536 95 98 90
0.029685 0.030793 -0.086764 154 176 203
0.122537 -0.059959 0.014336 115 115 96
-0.010793 -0.025921 0.018936 121 119 113
0.009036 -0.020120 0.022936 108 106 100
0.037847 0.010909 0.008836 10 11 8
-0.049272 -0.058055 -0.007364 177 168 141
-0.058029 0.011239 0.018936 127 123 116
0.087390 -0.014242 -0.023264 20 19 11
-0.037214 0.004727 0.029236 121 120 112
0.038878 -0.018968 0.001336 41 41 30
0.123520 0.003749 -0.010864 2 6 5
0.023798 0.031344 -0.089664 149 172 201
-0.052895 -0.045602 -0.003764 173 168 138
-0.097591 -0.012881 -0.003764 124 122 103
-0.055395 0.030580 0.030036 120 117 107
-0.086782 0.031612 0.020436 118 116 104
-0.008630 0.068736 0.009536 141 130 124
-0.105050 0.061806 0.011736 101 97 83
-0.035523 -0.066595 -0.001864 177 174 144
0.039690 0.027278 -0.078764 141 162 185
0.024639 -0.058017 0.022936 170 160 138
0.035464 0.038627 -0.104364 134 157 181
0.033333 0.027897 -0.080964 149 172 196
-0.094953 -0.028257 -0.005864 169 154 126
0.023463 -0.047192 0.021636 163 154 136
0.100721 -0.002094 -0.017464 9 11 5
0.051350 0.014246 0.006336 0 5 1
0.071556 0.004296 0.059336 90 89 81
0.013021 0.031232 -0.017964 35 32 22
0.099268 -0.003052 -0.017664 9 12 4
0.052647 0.037225 -0.099364 132 163 184
0.005676 -0.057220 0.010236 170 159 139
-0.048003 0.071511 -0.001564 188 180 164
0.015464 -0.007613 0.004636 22 18 11
-0.061935 -0.025186 0.002636 125 125 114
0.036432 0.038248 -0.103964 133 158 182
0.109470 -0.019477 -0.009164 19 25 18
0.101651 -0.053464 0.041036 100 105 92
-0.030812 -0.060906 -0.002764 176 170 142
0.015899 0.031413 -0.090864 162 179 207
0.011071 -0.007286 0.030936 88 88 82
0.095170 -0.015616 -0.018264 13 17 6
-0.011734 -0.032360 0.014336 118 116 110
0.022751 -0.056469 0.016936 168 161 138
0.062959 0.026368 -0.073464 150 177 196
-0.022377 -0.067123 -0.001564 176 172 144
-0.023168 0.020097 0.034036 116 114 108
-0.039477 -0.057817 -0.010264 173 168 138
0.052984 0.030486 -0.085164 140 168 190
-0.048291 -0.043776 0.000336 174 165 138
-0.077125 0.003009 0.012436 120 118 106
-0.084951 0.033525 0.024136 122 118 106
0.064006 0.025522 -0.073164 146 173 192
0.018583 0.037043 -0.102864 151 171 196
0.048842 0.036020 -0.098264 136 162 184
0.021013 -0.017364 0.003336 34 33 25
0.047192 -0.025152 0.000336 41 42 29
-0.118068 0.020966 0.002036 114 108 96
-0.099894 -0.039587 -0.020764 172 162 133
0.045548 0.034130 -0.023764 35 32 22
-0.038153 0.067142 0.014336 176 170 158
0.035018 0.035177 -0.023064 34 34 23
-0.002963 -0.027390 0.023736 118 116 110
0.028312 0.011922 0.011736 6 7 4
-0.112390 0.059248 0.022036 93 90 68
0.127221 -0.066970 -0.003164 115 121 114
-0.018279 0.061157 0.027436 167 156 150
0.002936 -0.016191 0.026636 107 105 99
-0.094572 0.008259 0.005736 118 116 104
-0.053735 -0.004266 0.013536 125 122 112
0.021924 -0.011859 0.004336 30 29 21
0.027886 0.021255 0.004636 30 30 19
0.036284 -0.012541 0.002036 31 32 24
0.111349 0.035239 0.048536 66 67 59
-0.049454 0.020178 0.022436 122 122 111
0.018038 0.036678 -0.101064 154 175 198
0.125759 -0.029078 0.026236 103 101 87
-0.037129 0.031963 0.037736 118 112 110
0.119277 -0.013056 -0.013964 12 14 8
-0.039503 -0.058944 -0.004064 174 168 140
-0.101113 0.068877 0.009536 121 118 96
0.050283 -0.070463 0.024536 171 164 139
-0.076430 -0.055549 -0.014764 176 165 138
0.098368 0.008010 -0.016664 5 7 1
0.105045 0.010559 0.078936 80 82 76
0.047192 -0.026097 0.000336 38 34 22
-0.073800 -0.002288 0.012036 125 121 107
0.095430 -0.001104 0.072436 86 88 82
-0.008630 -0.050456 0.009536 165 156 138
0.042493 0.019519 0.011736 3 4 1
0.113493 0.021897 0.087036 62 65 57
-0.106172 -0.007201 -0.002464 112 113 100
-0.038494 -0.024273 0.011336 122 120 114
0.104394 -0.025112 0.061636 93 94 86
0.128387 -0.057533 0.004036 121 122 100
0.013461 -0.061876 0.012836 171 161 139
-0.003348 0.057286 0.022036 162 151 145
0.095745 -0.068217 0.031336 112 112 101
0.096101 0.041518 0.064536 68 67 59
0.115750 -0.011239 0.051736 90 91 78
0.022083 0.018197 0.010936 4 5 2
-0.039997 0.007179 0.022036 124 120 113
0.110547 -0.078302 0.039636 110 113 98
0.127562 -0.054398 0.005736 117 118 96
-0.087761 -0.032344 -0.013964 177 163 132
0.044556 0.031448 -0.087964 147 175 197
-0.032911 0.042485 0.045536 111 108 105
0.024738 0.036144 -0.100264 153 176 200
-0.024954 0.061077 0.023336 165 154 148
0.014465 0.031661 -0.090964 158 177 205
0.083734 0.008004 0.063436 64 61 51
0.050145 0.035666 -0.097564 136 162 184
0.033433 -0.000632 0.005736 9 11 5
-0.104935 -0.049390 -0.018764 172 163 131
0.121064 0.018700 -0.008264 2 9 0
-0.055643 -0.032460 -0.001864 173 161 137
0.119161 -0.071069 0.038236 102 103 90
0.104808 0.035814 0.082936 59 62 54
0.054880 0.012671 -0.024264 60 56 44
0.052552 -0.014993 -0.001864 33 32 24
0.059551 0.016410 -0.024264 65 59 47
-0.003825 0.062450 0.019236 172 162 153
-0.096470 0.049099 0.032736 113 111 99
0.037711 -0.018743 0.001636 42 42 31
0.014007 -0.073350 0.015436 178 172 144
-0.042259 0.028563 0.035936 119 117 111
-0.046759 -0.003803 0.023736 127 123 116
0.015305 -0.041948 0.024136 165 154 134
-0.065841 0.006564 0.014636 125 122 112
-0.082166 -0.027801 -0.006164 119 109 93
-0.108229 0.041250 0.015036 107 108 95
0.073405 0.028360 -0.079164 144 172 187
-0.063116 0.011677 0.017736 125 119 112
0.062139 0.038291 -0.101464 133 160 184
0.129452 -0.045741 0.008436 117 116 99
-0.071380 0.012412 0.017336 123 122 114
0.114791 -0.010176 0.047536 94 95 82
0.048977 -0.014178 0.001036 37 34 24
0.126298 -0.057060 0.004636 118 115 98
-0.042317 0.000407 0.021636 125 121 114
-0.005631 -0.028817 0.022436 118 116 110
0.012588 -0.030466 0.008836 121 120 112
0.090375 -0.070349 0.034536 114 115 102
0.125480 -0.049258 0.005736 115 113 94
0.052129 -0.050588 0.028736 157 152 129
-0.022715 -0.010212 0.027036 121 119 113
0.099035 -0.008411 -0.019764 8 9 6
-0.104314 -0.031870 -0.013364 171 161 127
-0.019887 -0.004555 0.027936 121 116 111
-0.116966 0.035072 0.016936 117 115 96
0.098984 0.013541 -0.015564 5 8 0
0.095027 0.000020 -0.020064 6 8 2
0.018771 0.032276 -0.092064 149 171 198
-0.107660 -0.040266 -0.021264 171 160 128
0.004636 -0.032436 0.025336 118 114 107
-0.131703 0.048672 0.009136 115 106 95
0.062030 0.029154 -0.080664 149 174 191
-0.111588 0.064934 0.008136 101 99 75
-0.019491 -0.012608 0.020836 120 118 112
0.028956 0.031241 -0.088264 152 176 203
0.104539 -0.015332 -0.016164 12 12 6
0.118331 0.006768 0.061036 80 87 78
0.003030 -0.049911 0.018136 164 156 135
-0.090122 0.001965 0.009936 119 120 107
-0.022082 0.065774 0.014636 157 147 138
-0.081424 0.042044 0.027036 107 106 98
-0.042609 -0.029565 0.010636 118 117 109
0.039874 0.029344 -0.084364 152 179 203
0.083882 -0.063353 0.042536 166 159 136
0.012366 0.030766 -0.089164 161 179 209
-0.050760 -0.056075 -0.009164 176 171 141
-0.019383 -0.048269 0.003036 168 160 139
-0.095183 0.060676 0.022936 113 108 91
0.119881 -0.038950 0.042536 99 102 87
-0.017592 0.071606 -0.002464 152 137 129
-0.011009 0.033098 0.042536 111 105 103
-0.046411 -0.048399 -0.002464 172 166 138
-0.115419 -0.015901 -0.009964 115 110 93
0.059533 0.037407 -0.099564 132 159 178
0.070011 -0.040271 0.041036 106 106 95
-0.013197 -0.025231 0.019236 121 120 112
-0.013329 0.041172 0.044536 106 103 100
0.124527 -0.025116 0.012836 104 102 88
-0.042406 0.035384 0.032236 116 116 110
0.120142 -0.059485 0.050136 93 101 89
-0.085638 -0.041082 -0.018264 177 167 138
0.120229 0.000638 0.061636 88 90 79
0.044360 0.029773 -0.084764 145 172 196
0.014869 0.031207 -0.089664 158 179 208
0.053393 0.021320 0.010636 6 7 4
-0.042023 0.044903 0.036336 115 113 107
-0.055855 0.008867 0.018136 124 121 111
-0.049575 -0.056575 -0.008864 175 170 140
-0.020041 0.061861 0.020436 165 158 148
0.106843 -0.014591 0.068136 91 94 86
-0.077764 0.050405 0.028736 68 64 57
-0.113408 0.046324 0.018136 113 110 93
0.037476 0.037761 -0.102664 138 161 185
0.122580 -0.045568 0.027436 107 107 88
0.049970 0.012139 0.004636 2 3 0
0.117157 0.013195 0.057736 80 79 71
-0.048425 -0.043776 0.000336 173 164 137
-0.017364 0.071175 -0.002164 153 138 130
-0.068000 -0.014836 0.007036 125 122 112
-0.067264 0.026542 0.024536 121 121 110
0.047992 0.015409 0.008136 13 14 11
0.035998 0.037259 -0.100764 134 160 187
-0.079978 -0.014046 0.000036 120 118 104
-0.082816 -0.050059 -0.015564 176 165 138
0.041925 0.036843 -0.100364 138 163 187
-0.098065 0.018406 0.009136 115 117 99
-0.080465 -0.054595 -0.020264 176 167 135
0.002082 -0.043833 0.022036 163 155 134
0.019725 -0.024503 0.002636 44 41 31
-0.097269 0.009234 0.005336 120 118 104
-0.035742 0.062542 0.024936 161 151 142
0.099980 -0.014593 0.070036 90 92 86
-0.126991 0.030103 0.006036 111 111 100
0.042912 0.027046 -0.007064 32 29 19
-0.051714 -0.021808 0.007736 126 126 115
0.110817 0.012566 -0.014764 8 8 2
-0.104052 -0.014519 -0.005264 116 115 98
-0.079396 -0.025019 -0.003764 118 120 102
-0.088561 0.022121 0.022036 120 118 106
-0.030116 -0.027921 0.012436 121 120 112
0.102876 0.008097 0.073736 83 84 81
0.012028 -0.007644 0.017336 86 86 80
-0.016224 0.068847 0.005336 154 145 134
-0.022009 -0.041134 0.007036 162 155 137
0.029146 0.038526 -0.104964 142 165 189
0.083713 -0.009314 0.062236 91 92 84
-0.068241 0.058066 0.030936 117 113 99
-0.094725 -0.041054 -0.013964 174 164 128
0.128907 -0.063293 0.005036 117 120 107
0.054657 0.038834 -0.103464 143 165 185
0.049582 0.005337 0.000736 5 6 3
-0.090884 0.063909 0.002636 122 119 102
-0.093011 0.043744 0.027036 117 114 104
-0.122977 0.020065 0.003036 115 111 99
-0.070609 0.038024 0.027036 119 118 110
0.014393 -0.016275 0.005336 24 21 11
0.011763 -0.052408 0.022936 160 151 133
-0.013750 0.061208 0.032236 160 153 143
-0.106406 -0.049931 -0.019264 175 162 135
0.119454 0.017530 -0.008564 5 8 0
0.059955 0.039060 -0.103164 135 160 179
-0.024380 -0.025591 0.020436 121 121 110
0.040151 0.030771 -0.014764 33 32 24
0.094058 -0.064722 0.034936 112 113 100
-0.053318 -0.053207 -0.006464 176 168 139
0.029904 0.006980 0.007436 5 6 3
-0.034654 -0.037658 0.012836 167 157 135
0.002855 -0.045807 0.020436 163 154 136
-0.005432 -0.009632 0.027436 114 112 106
-0.072517 0.044619 0.034536 114 114 103
-0.032332 0.024906 0.039136 120 115 110
-0.077774 0.024369 0.019636 123 121 109
-0.037096 -0.002713 0.023336 121 120 112
0.038034 0.015031 0.009936 12 13 10
-0.019553 0.073366 -0.006464 190 176 166
-0.032084 0.073343 -0.006164 200 191 180
-0.058555 -0.004377 0.015036 124 121 111
0.112408 0.040537 0.061036 44 39 34
-0.014245 -0.018534 0.022436 121 119 113
0.051716 -0.005471 -0.000964 19 18 15
-0.081980 -0.056867 -0.020564 178 170 136
0.048235 -0.023310 0.001336 47 44 34
-0.098086 -0.036155 -0.016364 173 163 129
0.115462 0.037187 0.071836 5 12 8
0.066935 -0.038041 0.040636 106 108 97
0.042097 0.032420 -0.089764 147 173 195
-0.076696 0.072209 -0.001864 174 164 140
-0.002530 -0.039151 0.016536 166 155 135
0.106153 0.010366 0.076336 82 82 76
-0.096383 0.036676 0.013536 115 114 97
0.018543 0.031549 -0.090864 159 177 202
-0.071493 0.069375 0.002636 172 163 145
-0.082251 -0.024317 -0.004664 115 116 101
0.012164 0.016688 0.012836 7 6 3
0.105218 -0.043549 0.051736 102 102 91
-0.113661 0.042546 0.015836 103 106 91
0.030307 0.028000 -0.081664 98 114 138
-0.015485 0.061749 0.030536 162 155 145
-0.000768 -0.039885 0.016536 166 155 135
0.014350 -0.027985 0.001636 25 22 12
0.067627 -0.075517 0.032236 164 158 130
-0.065272 -0.048408 -0.010264 179 170 138
0.123946 0.003887 -0.011164 3 8 4
0.121682 -0.047908 0.022036 114 115 93
-0.059794 0.003678 0.013936 124 121 111
-0.006206 -0.067557 0.004636 174 169 144
0.006628 -0.067432 0.004336 174 167 142
0.047717 0.003123 0.002036 11 11 5
0.050122 -0.001966 0.000736 25 25 19
-0.018271 0.038802 0.047036 101 98 95
0.055089 0.029193 -0.082064 147 174 193
0.049184 0.003693 0.001336 8 10 4
0.115640 -0.011357 0.051136 92 92 81
-0.118419 0.013985 0.000336 115 110 93
-0.065966 -0.059771 -0.008564 183 173 144
0.002632 0.017652 0.004336 11 10 7
-0.013534 0.037278 0.047036 109 103 101
0.040502 0.037082 -0.100564 131 160 186
0.008009 0.010029 0.037736 86 85 82
-0.021974 -0.016599 0.018136 120 118 112
-0.070526 -0.022806 0.004636 125 126 113
0.112830 0.014470 0.040636 78 79 71
-0.025342 0.001778 0.024936 118 115 112
-0.031886 -0.024012 0.017336 118 119 111
0.032217 -0.066483 0.017336 173 166 141
0.041555 0.038352 -0.102664 137 160 184
0.030156 -0.020744 0.003036 45 46 33
-0.047402 0.000781 0.016936 124 120 113
0.089789 0.012618 -0.019764 2 7 3
-0.057059 -0.051753 -0.006164 175 169 141
-0.114938 0.016880 0.002036 117 113 99
0.126549 -0.056270 0.020836 115 114 97
-0.063970 -0.025594 0.003336 122 122 111
0.015398 0.033299 -0.094064 152 173 202
0.048348 0.027435 -0.007064 35 33 19
0.100000 0.030258 0.089936 64 69 65
0.099587 -0.019422 0.062236 91 93 87
0.110262 -0.008149 -0.014464 13 11 5
0.064527 0.027197 -0.076864 156 182 197
0.122204 -0.052895 0.042536 102 100 86
0.001076 0.025567 0.000036 21 18 15
-0.059338 -0.042648 -0.005264 175 167 138
-0.027028 0.072957 -0.003164 190 179 168
0.052574 0.034154 -0.093064 148 170 188
-0.008450 -0.063236 0.007036 173 166 141
0.076603 -0.039447 0.041036 83 87 76
0.042626 0.025671 -0.003464 32 29 19
0.046676 0.038413 -0.103164 131 154 178
0.108885 0.020493 -0.010564 1 7 0
-0.110108 -0.010463 -0.008564 116 114 95
0.000644 -0.056836 0.006736 171 161 139
-0.012802 -0.052264 0.004336 166 159 136
0.102312 -0.075755 0.034036 114 113 96
0.043772 0.015022 0.009536 12 13 10
-0.008209 0.006391 0.032236 114 110 103
0.049872 0.035599 -0.097364 136 162 184
-0.106665 0.045977 0.027436 113 112 95
0.047049 0.031918 -0.088964 146 172 194
0.039531 -0.059939 0.024136 165 157 136
0.116898 -0.042531 0.048036 90 93 85
-0.116984 0.064900 0.012036 107 99 78
0.081529 0.003120 0.069336 91 91 85
-0.044314 -0.029946 0.005736 116 113 103
0.025520 -0.001605 0.005736 17 17 11
-0.097539 0.022209 0.013536 123 119 107
0.038308 0.033929 -0.093164 145 170 194
-0.022370 0.054924 0.034036 141 135 128
0.127415 -0.039198 0.016136 110 107 90
0.002572 -0.051133 0.019236 164 156 135
0.018504 0.034808 -0.097264 147 169 196
0.108158 -0.010679 -0.015064 6 13 4
0.100355 0.025778 0.024536 73 74 66
-0.103930 0.064319 0.014636 99 96 79
-0.081934 0.032237 0.024936 121 117 110
-0.018816 0.009243 0.032236 113 111 105
-0.004331 -0.051824 0.014336 166 157 139
0.074222 -0.038555 0.048536 105 106 98
0.023255 0.034562 -0.096564 149 173 200
-0.040222 0.036561 0.035436 115 113 107
-0.070454 0.031067 0.027036 121 120 112
0.037560 0.031071 -0.087764 150 177 201
-0.061942 -0.002360 0.010936 128 125 115
0.093417 -0.068893 0.034936 112 112 101
-0.023147 0.022784 0.036336 117 111 109
0.099583 -0.000477 -0.017964 5 11 4
-0.036803 0.058354 0.028736 150 142 135
-0.096698 0.060524 0.022936 109 106 89
0.110198 -0.013194 -0.014764 10 13 5
0.047964 0.027790 -0.080264 156 184 206
0.018148 0.037742 -0.027864 31 30 22
-0.079978 -0.012968 0.000036 123 121 107
-0.047263 0.018982 0.019236 123 119 112
-0.031271 0.037721 0.039636 115 112 109
-0.050098 0.070011 0.004636 178 168 152
-0.042925 -0.028708 0.011336 120 118 112
0.003538 0.030907 -0.016664 31 24 19
0.101459 -0.001674 0.061036 86 89 81
-0.015271 0.014363 0.034936 115 110 105
-0.041564 -0.004715 0.021636 122 120 114
0.126282 -0.041708 0.019636 109 109 90
-0.074508 0.056217 0.038736 101 99 87
-0.102938 -0.051463 -0.021564 173 163 134
0.085148 -0.060118 0.039136 153 151 127
-0.049667 -0.046242 0.001336 174 165 138
-0.034766 0.062142 0.027036 159 152 142
0.095906 0.036787 0.080936 61 64 56
-0.110597 0.038509 0.010236 109 105 91
0.120709 -0.036833 0.015436 111 108 91
-0.022208 -0.056701 0.003636 170 165 140
0.120765 -0.028556 0.036336 101 100 83
0.112731 -0.031200 0.059336 98 99 86
-0.043636 0.051361 0.036336 122 119 109
-0.033802 -0.046062 -0.000564 170 165 142
0.126110 -0.036979 0.015436 110 106 92
0.013236 0.036833 -0.102064 151 170 198
0.130046 -0.029566 0.011336 108 111 91
0.125150 -0.045578 0.014336 112 109 92
0.002941 0.025292 0.001636 8 7 4
-0.106967 -0.056666 -0.022764 173 162 135
-0.081990 0.015213 0.017336 122 119 109
-0.043135 0.070283 0.003336 179 170 157
0.091035 0.003667 -0.021264 10 12 6
-0.083356 -0.026953 -0.005864 111 110 93
0.128354 -0.046130 0.005036 117 117 98
0.106684 -0.048984 0.052736 103 106 93
-0.087843 0.008528 0.006736 119 120 107
0.043275 0.019930 0.011336 3 4 1
0.053982 0.032218 -0.088264 149 176 193
-0.002517 0.074661 -0.000964 153 139 129
-0.035806 -0.018053 0.012836 124 120 113
-0.083506 -0.026102 -0.005564 108 107 90
0.084250 0.024639 -0.069264 136 163 180
0.085963 -0.012742 -0.023064 29 28 20
0.002602 -0.037778 0.016936 163 153 131
0.042640 0.031731 -0.088564 148 175 199
-0.104058 0.019164 0.010236 118 117 100
0.072635 -0.070045 0.026636 163 156 131
-0.102415 0.005864 0.001336 119 115 103
0.053121 0.025309 -0.006164 32 29 19
-0.082258 -0.008579 0.004636 122 123 108
-0.133919 0.060813 0.020436 46 42 28
0.034801 0.037282 -0.101064 133 156 185
0.017299 -0.054557 0.019236 164 156 135
-0.040302 -0.040425 -0.002464 168 158 136
-0.023445 -0.023778 0.021236 120 118 112
0.103787 -0.011726 -0.015564 9 12 4
0.045123 0.029793 -0.084664 143 173 196
-0.028932 -0.063576 -0.004964 178 172 144
0.003984 -0.008308 0.031836 99 94 89
0.084230 0.024222 -0.068564 133 162 179
0.035388 0.036641 -0.099264 133 158 187
-0.018063 -0.058145 0.002336 172 167 144
0.026644 -0.004850 0.004636 27 25 19
0.007716 -0.025758 0.026636 113 109 102
-0.078803 -0.050459 -0.017164 178 168 139
0.067153 0.033431 -0.090664 134 166 184
0.039489 0.026888 -0.007364 31 31 20
-0.023368 -0.047620 0.004036 172 165 142
-0.003412 0.040766 0.039136 74 73 70
0.073007 -0.078730 0.024936 166 159 136
-0.005700 -0.021760 0.023736 118 114 107
0.039103 0.030736 -0.087364 155 183 205
0.039885 -0.054920 0.020836 164 156 135
0.019636 0.018469 0.010636 7 6 3
0.060145 -0.054151 0.026636 165 155 131
0.128094 -0.022086 -0.002464 104 109 84
0.019815 0.033469 -0.094664 146 170 197
0.104514 -0.030294 0.057136 100 97 87
0.022372 0.034773 -0.097164 149 172 196
0.105835 -0.063671 0.044536 108 109 94
-0.105657 -0.013724 -0.004364 116 114 100
0.126905 -0.058130 0.023736 110 110 91
0.043020 -0.000613 0.003036 22 24 18
-0.004355 0.043062 0.046036 12 16 15
0.056168 0.038704 -0.103664 135 162 181
-0.064868 0.064053 0.013136 138 134 122
-0.097103 -0.017942 -0.003464 123 119 105
0.126002 -0.043118 0.024536 108 107 90
0.069073 -0.039852 0.040636 109 108 100
-0.077130 -0.034860 -0.008564 170 161 134
0.080634 0.023269 -0.034064 2 7 3
0.069709 -0.046630 0.044036 155 145 123
-0.029536 -0.019029 0.016536 122 118 111
0.099747 -0.015010 -0.017464 13 15 4
0.049007 0.030660 -0.085364 149 175 197
0.081203 -0.014026 0.058836 96 96 90
-0.081891 0.066124 0.005036 150 143 125
0.089911 -0.011137 0.064536 91 90 87
0.074418 0.027523 -0.077264 147 171 184
-0.070737 -0.056415 -0.014764 181 170 138
0.114441 -0.005647 -0.013364 3 11 4
-0.080945 0.028467 0.020436 120 120 109
0.030353 0.025255 -0.005264 35 32 22
0.014535 0.034680 -0.098364 142 163 192
-0.072609 -0.021404 0.005336 124 122 110
0.017982 0.032157 -0.022764 33 33 22
0.082854 -0.066342 0.035436 165 156 129
-0.018045 -0.009433 0.025336 118 116 110
0.013762 -0.025652 0.003636 21 22 14
0.068952 -0.050736 0.042536 158 152 124
-0.099112 0.052522 0.025336 92 94 76
0.009643 0.029869 -0.017164 36 33 23
0.111131 -0.028989 0.062236 92 94 83
0.109890 -0.014600 -0.014464 6 12 5
-0.049021 -0.051595 -0.004364 173 167 139
0.063066 -0.025977 0.012036 76 76 65
0.080718 -0.035777 0.049136 98 100 89
0.052024 0.031677 -0.087564 148 172 194
-0.128670 0.032212 0.007436 112 107 90
0.106896 0.004554 0.080236 83 86 78
-0.077235 -0.057095 -0.013364 176 168 139
0.003352 0.001970 0.031836 82 84 78
-0.090822 -0.057824 -0.020564 176 168 134
-0.076465 -0.032312 -0.005264 173 162 135
0.020954 -0.007012 0.002636 25 26 18
-0.090704 -0.022158 -0.000564 117 115 103
-0.093244 0.067487 0.007736 124 119 102
-0.132670 0.063150 0.013536 97 89 68
0.010456 -0.034609 0.019236 107 103 96
0.116895 -0.047914 0.042536 98 101 86
0.129650 -0.041366 0.014336 112 110 91
-0.085874 -0.051324 -0.014464 177 166 134
0.029014 0.002090 0.007036 10 10 4
-0.104261 -0.032746 -0.012864 175 161 130
0.100471 -0.018425 0.064536 91 92 84
0.033112 0.035900 -0.099064 148 172 194
0.100919 0.001710 -0.017964 5 11 4
0.044660 0.034043 -0.023564 36 33 23
0.116531 -0.005456 0.045536 90 92 81
-0.102888 0.060401 0.013536 103 100 83
-0.073760 -0.037738 -0.009764 173 165 136
0.024794 0.030984 -0.088164 156 178 205
0.075571 -0.074463 0.025736 161 154 129
-0.094823 0.070582 -0.005864 129 124 101
0.113762 -0.020612 0.064536 80 77 67
-0.100897 0.003652 -0.001264 119 116 99
-0.008875 0.005906 0.032736 113 108 103
-0.041640 -0.014342 0.013136 125 121 114
-0.005905 -0.049234 0.013936 161 151 135
0.056953 0.036209 -0.098664 138 165 182
0.031746 0.031355 -0.020764 32 29 19
0.070694 -0.075985 0.028336 161 156 131
0.052073 -0.026842 0.002036 31 32 19
0.044763 0.035410 -0.024564 34 33 25
0.025935 0.011059 0.010936 13 14 11
-0.110276 0.044041 0.020436 109 107 93
0.014538 0.034351 -0.097764 148 170 197
-0.050201 -0.012895 0.014336 125 121 114
0.018672 -0.054247 0.022036 165 154 134
0.027354 -0.016997 0.003636 36 35 27
0.122052 -0.040994 0.033636 111 107 88
-0.085811 0.004194 0.011336 121 119 105
0.027773 0.035230 -0.097764 155 178 202
-0.078653 -0.032618 -0.006164 173 162 135
0.018647 0.032911 -0.023264 33 33 22
-0.081770 -0.011963 -0.001564 121 119 105
-0.052820 -0.057693 -0.007964 175 169 141
-0.075979 -0.019413 0.000736 124 122 110
-0.051868 -0.036977 0.010636 174 164 140
0.131150 -0.031014 0.003036 113 112 95
0.045269 0.029386 -0.083764 149 177 199
-0.043373 0.031761 0.037336 117 112 107
-0.108190 -0.035515 -0.015564 166 155 123
-0.063416 -0.005020 0.013936 123 122 114
0.037737 0.034530 -0.095764 158 180 198
-0.082246 0.023474 0.019636 121 118 108
-0.025802 0.052004 0.041536 129 123 116
-0.039958 0.002709 0.016536 123 119 112
0.028699 -0.020354 0.002336 40 40 29
0.117606 0.005630 0.054936 84 86 75
0.016590 0.030926 -0.089064 156 177 206
-0.111077 -0.009084 -0.008264 117 114 97
0.039117 0.012180 0.008836 10 15 11
0.042007 0.031400 -0.087864 143 168 192
-0.084847 -0.052101 -0.016364 176 167 135
0.005707 -0.028605 0.024536 114 112 106
-0.077149 -0.051846 -0.015064 176 168 139
-0.055643 -0.032031 -0.000264 171 162 135
-0.036139 0.033720 0.035936 118 115 112
-0.088384 0.019214 0.011336 124 120 108
-0.091924 0.033632 0.023736 120 118 106
-0.070960 -0.058050 -0.013164 181 170 138
-0.083970 0.064411 0.005336 131 125 111
0.067182 0.024935 -0.069564 143 170 187
-0.038819 0.069911 0.001336 181 170 157
-0.027878 0.058623 0.024536 156 149 139
-0.033199 -0.055864 -0.002764 173 166 141
-0.097103 -0.005387 -0.003464 118 116 104
0.022310 -0.010309 0.004036 27 25 19
-0.065278 -0.022027 0.005736 129 123 111
0.117489 0.024160 0.088536 71 72 69
-0.014560 0.021239 0.037736 111 109 103
-0.103642 0.068570 0.005336 117 114 97
-0.110927 0.022366 0.009136 113 110 93
0.018981 0.029120 -0.011764 34 29 19
0.057700 0.030792 -0.085764 142 169 188
0.118162 0.024919 -0.006164 0 5 1
-0.087692 -0.049991 -0.012264 175 165 136
-0.005157 -0.005899 0.031336 116 111 106
0.091968 -0.010692 0.065736 90 89 86
-0.059318 0.071902 -0.002764 190 179 159
0.001981 0.004105 0.018936 56 52 45
0.060145 0.031933 -0.087364 139 166 185
-0.053300 -0.055198 -0.011464 174 168 140
-0.040865 -0.058113 -0.008864 173 167 139
-0.001705 0.005942 0.009936 62 55 45
-0.070068 -0.064250 -0.006164 180 171 139
-0.008724 -0.036360 0.012836 165 157 136
-0.089131 -0.042365 -0.017664 175 164 132
0.015156 -0.004802 0.004036 20 18 12
0.104944 0.035530 0.106636 5 9 9
0.117373 -0.017997 -0.011164 14 17 4
-0.116594 0.023472 0.006736 115 113 99
0.072120 0.029455 -0.081464 132 165 179
0.009230 0.029251 -0.013964 35 33 21
-0.107884 0.039732 0.019636 111 110 93
0.032276 -0.059649 0.033136 165 157 136
-0.078382 0.044975 0.027936 116 116 105
0.028491 0.037338 -0.102864 140 161 190
0.087367 -0.009125 -0.023764 16 19 11
-0.035963 -0.014278 0.018536 125 124 116
0.110920 -0.070547 0.045036 107 110 95
0.014921 0.030063 -0.014464 35 32 22
0.011579 0.032597 -0.093464 159 176 204
0.099433 0.036342 0.084336 57 60 52
0.074307 0.025185 -0.072064 142 169 186
-0.033123 -0.059182 0.000036 173 168 143
-0.025501 -0.061507 -0.005864 176 170 142
0.070987 0.032006 -0.087664 142 173 185
-0.062993 0.063331 0.013136 133 127 113
-0.120518 0.015371 0.001636 111 109 97
0.018411 0.020464 0.005336 28 28 17
0.068734 -0.046672 0.043536 155 145 123
-0.014073 0.021889 0.037736 114 109 104
0.027762 -0.056312 0.026636 164 156 135
-0.011904 0.015646 0.034936 114 108 106
0.073034 -0.053372 0.040136 160 148 124
0.052743 -0.053534 0.026636 163 152 132
-0.122033 0.006916 -0.004064 123 112 99
0.119799 -0.055679 0.047036 99 97 83
-0.032183 -0.015368 0.018936 122 120 114
0.008652 0.004677 0.037336 87 89 83
0.026689 -0.007097 0.005036 26 27 19
0.033903 -0.010081 0.000736 28 29 21
0.023193 -0.008579 0.004636 26 26 20
0.105666 0.018955 -0.010864 5 7 1
0.118826 -0.044503 0.040136 103 99 87
-0.049495 -0.064518 -0.007064 176 171 141
0.064997 0.029823 -0.082264 138 167 184
-0.093223 0.070480 -0.006164 127 121 100
-0.003047 0.050197 0.042536 99 87 83
-0.057842 0.073604 -0.007964 198 187 167
-0.102411 -0.016459 -0.000964 119 116 99
-0.085718 0.002043 0.008136 123 121 109
0.005095 -0.026376 0.026636 116 115 107
0.022613 0.027083 -0.011964 35 32 22
-0.089650 0.070898 0.001036 138 135 113
-0.072823 -0.031665 -0.001264 168 159 132
0.031402 0.036414 -0.100564 128 155 186
-0.116534 -0.011123 -0.009464 116 114 100
-0.122495 0.069143 0.002336 115 108 90
0.011451 -0.019205 0.017736 102 100 94
0.070488 0.027151 -0.075664 156 178 191
-0.073487 -0.022489 -0.000964 124 122 110
0.041024 -0.068318 0.025736 167 160 137
-0.032751 0.038503 0.040636 115 113 107
0.111552 0.025388 -0.008264 0 5 1
-0.107817 0.011162 0.002636 114 112 98
-0.098363 -0.037566 -0.018264 174 164 130
-0.046372 0.002400 0.016936 124 120 113
0.130056 -0.039231 0.003036 117 114 97
0.071772 -0.040776 0.042536 108 108 97
0.009908 0.044399 -0.087164 6 7 4
-0.077148 -0.006910 0.009136 124 122 110
-0.048656 0.001112 0.016136 124 120 113
-0.031784 0.063052 0.023336 172 166 154
-0.004979 0.057248 0.024536 157 149 142
-0.102865 -0.015388 -0.003764 120 118 104
0.075368 0.025021 -0.072064 138 165 182
-0.010716 0.001885 0.034036 116 111 106
-0.050585 -0.012321 0.013136 125 121 114
0.035795 0.032503 -0.090564 151 176 200
-0.071717 0.052609 0.033636 16 20 20
-0.054441 0.062519 0.022436 142 132 123
-0.094466 0.048620 0.031836 115 111 97
-0.041369 0.016993 0.031836 121 116 111
-0.101234 -0.021615 -0.007964 115 114 97
0.057508 0.036394 -0.099464 131 157 179
-0.032834 -0.008707 0.019236 125 124 116
0.072715 -0.051142 0.044036 159 149 125
-0.084028 -0.034853 -0.005564 173 161 137
-0.058620 -0.055007 -0.006164 175 169 141
-0.107342 0.060516 0.011736 92 87 70
0.063514 -0.043644 0.042036 106 101 84
-0.043371 0.062617 0.021636 149 143 131
-0.121983 0.006250 -0.003764 118 110 103
-0.070202 0.008309 0.014636 124 120 108
-0.104961 -0.040530 -0.019264 169 160 128
-0.098485 0.007978 0.006036 120 118 106
-0.120102 0.004278 0.000036 120 112 96
-0.063183 -0.054444 -0.009764 177 168 141
0.128177 -0.067245 -0.000964 117 118 110
-0.118434 0.068169 -0.005264 117 106 86
-0.063707 0.014189 0.017736 127 122 112
0.079694 -0.034922 0.049136 99 101 90
0.022914 0.033863 -0.020764 33 30 20
0.037921 0.031887 -0.016664 33 30 20
-0.005457 -0.010766 0.027936 114 112 106
0.029155 -0.060039 0.025336 171 161 139
0.028964 0.035798 -0.025764 33 30 20
-0.036035 0.020280 0.034536 120 118 112
0.122909 -0.052639 0.041036 103 107 89
-0.101287 0.005672 0.003636 116 114 100
-0.003826 0.075517 -0.001564 156 142 132
-0.064363 0.027001 0.024536 121 120 112
-0.132964 0.060711 0.021236 38 37 29
0.035041 -0.042666 0.035936 158 147 127
-0.105491 0.063160 0.018536 106 103 81
0.006822 0.030405 -0.018764 38 33 23
0.125759 -0.033852 0.026236 107 102 85
-0.031126 -0.053261 -0.001864 174 167 142
-0.049711 0.062075 0.018936 148 142 130
-0.121100 0.054287 0.020036 99 95 76
-0.061492 0.012145 0.020436 125 122 112
-0.108806 -0.030622 -0.013364 169 157 128
-0.100538 -0.036523 -0.016364 173 163 129
-0.110106 0.070838 -0.003164 130 120 98
-0.092904 -0.027277 -0.005564 103 98 73
-0.073691 0.008600 0.014636 125 125 114
0.055519 -0.034863 0.026636 82 85 72
0.094622 0.042449 0.067536 65 67 61
-0.108963 -0.020820 -0.007364 115 111 97
0.017179 -0.051792 0.024936 157 148 130
-0.095066 -0.045351 -0.015264 172 164 130
-0.042686 0.010044 0.024536 123 121 115
-0.090568 -0.000029 0.007436 122 120 108
0.056218 0.036452 -0.099864 133 159 181
0.026851 0.033823 -0.094064 147 171 198
-0.007137 0.025596 0.044536 109 103 101
-0.079587 0.014166 0.016536 120 119 111
0.052432 -0.004859 -0.000264 17 17 11
-0.097365 0.040436 0.015436 116 114 100
-0.007324 0.041378 0.051136 103 97 95
-0.049852 0.071518 0.003336 190 181 168
-0.003295 0.066837 0.007436 154 142 133
0.025615 0.033333 -0.093164 147 171 198
0.044452 -0.008723 0.003336 28 29 21
0.122062 -0.066618 0.013536 117 116 99
0.110874 0.030463 0.079536 52 59 50
-0.112400 0.033863 0.015436 113 111 97
0.023718 -0.046944 0.026236 164 155 137
0.097325 0.044204 0.057736 66 64 58
0.068751 -0.065716 0.029636 168 159 132
-0.074682 0.035190 0.029236 120 119 111
-0.024840 -0.047115 0.004636 173 166 143
0.131169 -0.042459 0.013536 117 115 96
-0.107561 0.044627 0.017736 109 107 93
0.056611 0.019749 -0.014764 7 5 6
-0.009617 -0.043013 0.011336 164 154 138
-0.087092 0.017998 0.009536 120 118 104
0.057713 0.032802 -0.087564 148 173 190
-0.056534 0.041185 0.034036 116 111 106
-0.073103 0.031991 0.030036 121 121 110
0.122057 -0.038305 0.021636 106 107 92
0.048986 0.034074 -0.093364 158 182 195
-0.071992 0.061624 0.024936 126 122 108
0.017411 0.037549 -0.103964 141 159 189
0.035830 0.038166 -0.103864 137 162 186
-0.043940 -0.061968 -0.009764 171 166 141
-0.057451 -0.040404 0.004336 169 163 135
-0.109429 0.008836 0.003036 113 112 95
0.053184 0.032465 -0.015064 19 20 12
0.069927 0.026235 -0.073264 146 171 188
0.024849 -0.011894 0.004636 29 28 20
-0.009202 -0.056908 0.007736 167 162 139
-0.088401 0.004338 0.006736 120 118 106
-0.092479 0.062906 0.008436 110 107 90
-0.104598 0.064596 0.009936 103 97 83
-0.000598 -0.009257 0.031836 114 112 106
-0.028554 -0.011997 0.024936 122 120 114
-0.001962 -0.046178 0.021236 163 151 134
-0.120432 0.067305 0.010936 100 95 78
-0.086106 -0.008244 0.004036 120 118 106
0.128173 -0.058884 0.001036 119 120 105
-0.065624 -0.006163 0.007036 125 122 112
-0.044526 -0.051337 -0.005864 174 165 138
-0.044760 0.051785 0.037736 123 120 110
0.091227 -0.013170 0.061036 93 95 89
-0.103710 0.037644 0.019636 116 114 100
-0.094385 -0.015617 -0.002164 120 118 104
-0.031683 0.059576 0.025336 156 149 139
0.086756 -0.044401 0.037736 101 101 90
-0.027690 0.072824 -0.003164 187 176 163
0.014775 -0.062971 0.007436 174 167 142
-0.129847 0.064977 0.006336 106 93 92
-0.115466 0.029298 0.013536 115 113 99
0.105332 -0.008119 -0.015864 10 13 5
-0.050491 -0.004042 0.018536 125 122 112
0.126333 -0.049547 0.005336 119 117 98
-0.054702 0.071546 -0.000264 185 176 163
0.050914 0.038924 -0.103864 145 166 182
-0.083318 -0.038708 -0.004364 176 167 135
-0.065445 0.065031 0.013536 137 133 121
0.049789 -0.001851 0.001036 27 27 21
-0.060932 -0.042231 -0.007964 171 162 135
-0.081742 -0.052891 -0.022764 177 169 135
-0.090493 -0.024767 -0.000964 116 115 98
0.051538 0.038289 -0.102164 136 163 182
0.115894 0.004263 0.068136 85 86 78
-0.106481 -0.037184 -0.011764 163 154 127
-0.004855 -0.065634 0.002636 173 168 143
0.061017 0.025289 -0.074264 147 174 193
-0.066343 -0.000732 0.012436 125 122 112
0.074335 -0.053302 0.035936 132 119 99
0.057248 0.033816 -0.092064 143 170 187
-0.112634 0.029479 0.012436 117 115 96
-0.111833 0.072933 -0.004364 133 126 108
0.019869 0.035104 -0.097764 149 171 198
-0.013552 -0.068819 0.006336 175 169 141
-0.041981 -0.036922 0.002036 173 161 137
-0.105551 -0.040417 -0.017664 168 160 126
-0.011904 0.008428 0.034936 113 111 105
-0.071389 0.031507 0.028336 119 118 110
-0.071114 -0.027934 0.000736 119 120 107
-0.042668 -0.021957 0.012036 122 122 111
0.123555 -0.038011 0.038236 103 102 85
-0.082659 -0.050566 -0.015864 176 167 135
-0.082691 -0.052855 -0.016964 179 169 135
0.065209 0.035179 -0.093664 134 163 180
0.029583 0.034005 -0.094364 151 174 198
-0.079871 0.033805 0.026636 119 119 108
-0.073691 0.001472 0.014636 122 122 111
-0.004258 -0.038685 0.015836 167 156 136
0.109308 -0.059742 0.047036 106 107 92
0.089689 -0.050072 0.042536 106 105 97
0.058812 0.032333 -0.088964 147 173 188
-0.102629 -0.037193 -0.016164 168 159 127
0.024706 0.030907 -0.016664 28 30 19
0.028990 0.032041 -0.091364 150 175 199
0.038616 0.035380 -0.097464 147 172 191
0.021471 -0.046853 0.027036 167 155 138
0.010240 0.044256 -0.087564 1 6 2
-0.060932 0.019745 0.026236 125 121 114
0.024454 0.032042 -0.021864 36 33 23
0.040099 -0.067885 0.026636 168 161 138
0.008301 0.040511 -0.029464 20 20 20
-0.039620 -0.017952 0.013136 123 121 115
0.042175 0.036240 -0.098964 139 164 188
0.029317 -0.007236 0.005036 24 25 17
-0.073514 -0.053023 -0.009464 177 166 139
-0.095741 -0.034448 -0.007664 175 162 127
0.019050 0.007526 0.008436 6 7 4
-0.046020 -0.017150 0.009536 122 121 113
0.078637 -0.058537 0.037736 121 117 130
-0.062771 0.020310 0.022036 122 119 109
0.025170 0.032868 -0.091564 150 175 199
-0.019057 -0.058802 0.002636 172 165 140
0.043151 -0.016398 0.002336 37 37 26
0.065242 0.026931 -0.076564 154 180 195
0.043218 0.033188 -0.091364 147 171 193
0.038380 0.027732 -0.079264 154 178 205
-0.112500 -0.009428 -0.009764 114 117 97
-0.008468 0.005145 0.031336 112 109 106
0.040261 0.037701 -0.101964 135 160 184
-0.008500 0.040108 0.050636 108 102 100
-0.073572 0.033951 0.027936 120 119 111
0.058027 0.025372 -0.073664 128 155 174
-0.110590 0.009427 -0.005864 119 116 99
0.078449 -0.041968 0.039136 46 46 40
-0.070194 -0.054428 -0.009464 179 170 138
0.081570 -0.044851 0.038236 141 139 120
-0.127760 0.028221 0.006736 115 111 99
0.087109 -0.041968 0.039136 98 98 87
0.043157 0.024600 -0.000264 33 33 22
0.031000 0.031093 -0.087664 147 173 200
-0.011673 -0.068823 0.004036 176 170 142
-0.023501 -0.039826 0.009536 162 155 137
-0.120836 0.044910 0.022036 109 106 89
0.093111 -0.081367 0.031836 114 118 100
0.011068 -0.058677 0.009936 168 161 138
-0.051609 -0.046962 0.001036 172 166 138
-0.047664 -0.039241 0.000036 171 161 137
0.104221 0.017627 -0.012264 4 6 0
-0.019816 0.056042 0.034036 149 142 132
-0.029599 -0.059268 0.001336 176 170 142
-0.105895 0.005194 0.001036 116 113 96
0.031785 0.035807 -0.098964 155 177 197
-0.001125 0.052196 0.028336 104 97 92
-0.043997 -0.026297 0.009936 125 125 114
-0.022322 -0.067022 0.000736 176 172 144
-0.053080 -0.010106 0.009936 127 123 116
-0.007117 -0.040009 0.010236 166 158 137
-0.003143 -0.069373 0.004036 174 172 146
0.105528 0.026705 -0.011964 0 4 0
0.063315 0.031870 -0.086064 137 164 183
0.064141 0.026258 -0.073664 153 178 197
-0.018472 0.069961 0.002336 159 147 138
-0.113364 -0.021230 -0.011464 113 109 95
-0.089244 -0.012824 0.001036 121 119 105
-0.029575 -0.012934 0.023736 122 121 113
-0.026865 -0.014057 0.022936 119 119 113
-0.011630 0.044825 0.051136 20 20 21
-0.074252 -0.018524 0.004636 122 122 111
0.119227 -0.058474 0.039636 102 104 86
0.043231 0.032355 -0.089164 146 172 194
0.085556 0.021064 -0.024564 7 13 6
0.076582 0.029044 -0.078764 131 163 181
-0.094675 -0.040977 -0.012564 177 167 133
0.052358 -0.062965 0.024936 166 159 136
-0.082253 -0.057772 -0.023764 180 170 136
-0.021055 0.052760 0.037736 134 126 119
0.038567 -0.073814 0.016536 176 169 144
0.026718 0.035067 -0.025264 30 29 21
0.041186 0.036849 -0.099964 138 160 187
-0.057401 -0.052355 -0.005564 177 169 140
-0.089367 -0.044866 -0.017464 175 164 132
0.079618 -0.012675 0.057736 93 92 89
0.114505 -0.010753 0.041036 92 94 83
-0.054398 -0.061840 -0.013364 175 169 141
0.063219 -0.042533 0.041536 102 100 88
-0.020926 -0.057053 0.002336 170 165 140
0.011613 0.036956 -0.025764 26 28 17
-0.014814 -0.062103 0.007736 173 167 139
-0.066192 0.049023 0.037736 109 106 96
-0.065935 -0.039087 -0.003464 173 164 137
0.098078 0.012182 -0.015864 6 8 2
-0.061599 0.042852 0.031336 116 115 107
-0.047805 -0.027579 0.004336 119 120 112
0.125531 -0.045931 0.013536 106 105 88
0.086016 -0.027052 0.050136 95 96 88
0.028039 -0.060057 0.024936 171 161 137
-0.093956 -0.054745 -0.022264 177 169 135
-0.015193 -0.034287 0.011336 152 146 125
-0.103800 0.027306 0.017336 120 118 104
0.120881 -0.073067 0.024936 109 114 94
0.020777 0.035560 -0.098964 146 170 197
0.113681 -0.019628 0.063936 85 85 74
-0.134561 0.059852 0.022036 20 19 16
-0.052731 0.058022 0.030036 140 135 125
0.086471 -0.020671 0.056536 94 89 84
0.054990 0.037489 -0.102064 136 163 182
0.034854 0.019751 0.007736 20 20 14
0.086733 -0.002540 -0.021064 97 91 79
-0.049651 0.036489 0.029636 115 113 107
0.063315 -0.056511 0.022036 166 157 130
-0.007759 -0.050737 0.011336 166 157 139
-0.078286 0.008180 0.013136 121 118 108
0.045883 0.035100 -0.096464 140 164 186
0.113863 0.016178 0.063936 76 77 69
0.075522 -0.054389 0.033636 149 137 113
0.020081 -0.050100 0.027036 156 148 132
0.121988 -0.033443 0.014636 112 108 89
-0.076715 -0.038278 -0.013664 171 162 135
0.114267 0.037685 0.071236 6 12 5
0.004964 -0.055608 0.010936 167 159 138
-0.092202 -0.041429 -0.016364 172 164 130
0.049739 -0.070155 0.024136 171 164 139
-0.106386 0.022585 0.008136 120 116 97
0.014174 -0.013287 0.003636 21 19 13
0.129136 -0.068949 0.004336 118 117 100
-0.061880 0.002273 0.012836 127 124 114
0.048954 0.035537 -0.026664 38 34 27
0.118667 -0.044055 0.036336 103 101 89
-0.024197 -0.064195 -0.001864 179 173 145
