ply
format ascii 1.0
element vertex 1215
property float x
property float y
property float z
property uchar red
property uchar green
property uchar blue
end_header
-0.003309 0.007524 -0.033099 205 105 52
0.022579 0.003426 0.022576 96 142 148
-0.003246 0.007485 -0.033099 101 117 108
-0.003367 0.007551 -0.033099 93 92 66
-0.035514 -0.026290 0.055351 121 137 128
-0.003378 0.007543 -0.033099 102 95 62
-0.003292 0.007544 -0.033099 145 154 147
0.018199 0.009387 0.022451 138 59 7
0.016076 0.009014 0.018026 144 55 16
-0.003267 0.007543 -0.033099 173 118 124
0.087441 -0.037898 0.109251 96 114 110
-0.034559 -0.027153 0.055401 124 133 124
-0.003378 0.007548 -0.033099 100 100 67
-0.007165 -0.019556 0.063501 110 116 116
-0.003254 0.007497 -0.033099 17 47 41
-0.003329 0.007514 -0.033099 128 119 98
0.000247 -0.028994 0.062801 121 130 123
-0.042246 -0.014698 0.057276 123 135 127
-0.003279 0.007532 -0.033099 157 158 152
0.029358 -0.016828 0.087126 106 110 105
-0.029170 -0.028576 0.057676 123 138 124
-0.057893 -0.015178 0.048726 117 129 119
0.023863 -0.026990 0.077326 111 122 118
0.060173 -0.030917 0.096601 106 123 109
-0.003368 0.007539 -0.033099 99 92 61
-0.003360 0.007541 -0.033099 114 110 83
-0.003375 0.007539 -0.033099 100 97 63
0.005531 -0.002497 0.048576 84 118 124
-0.000858 -0.015374 0.069526 114 125 121
-0.013715 -0.026539 0.066526 93 95 34
-0.023523 -0.026410 0.061476 126 139 126
-0.020559 -0.013096 0.069426 130 132 121
0.021188 0.000485 0.045376 111 154 164
-0.003382 0.007539 -0.033099 91 96 59
-0.003287 0.007535 -0.033099 75 11 6
-0.003329 0.007556 -0.033099 117 125 122
-0.052641 -0.022648 0.048476 116 135 125
0.012335 -0.029047 0.069676 114 126 118
-0.003329 0.007546 -0.033099 86 87 83
-0.003376 0.007508 -0.033099 98 100 87
0.006260 -0.019303 0.071651 117 126 119
-0.003330 0.007549 -0.033099 84 79 75
-0.003309 0.007535 -0.033099 111 22 3
0.010623 -0.027854 0.069276 112 127 122
-0.003347 0.007510 -0.033099 146 139 120
0.019768 0.004946 0.022401 101 147 149
-0.003365 0.007520 -0.033099 111 103 79
-0.013870 -0.029670 0.064576 90 99 40
0.028878 0.004413 0.021751 11 16 25
0.032238 0.004467 0.018776 66 83 95
-0.003323 0.007540 -0.033099 101 94 88
-0.003354 0.007528 -0.033099 117 101 67
-0.003361 0.007502 -0.033099 122 136 127
-0.026983 0.017184 0.015876 115 114 86
-0.003278 0.007497 -0.033099 112 119 111
-0.032568 0.018406 0.016201 104 93 68
-0.003294 0.007524 -0.033099 97 94 89
0.029597 0.009474 0.019301 128 160 149
-0.003282 0.007540 -0.033099 109 109 113
-0.050196 -0.023571 0.048701 118 132 121
-0.003321 0.007550 -0.033099 79 62 44
-0.003283 0.007548 -0.033099 85 84 84
-0.051234 -0.016065 0.052151 120 129 122
-0.003336 0.007504 -0.033099 126 133 125
-0.003331 0.007535 -0.033099 128 112 89
-0.003326 0.007556 -0.033099 147 153 151
-0.003249 0.007542 -0.033099 61 24 0
-0.003363 0.007538 -0.033099 110 103 74
-0.003354 0.007515 -0.033099 118 114 87
0.001453 -0.028929 0.063001 120 129 122
-0.003378 0.007539 -0.033099 111 104 73
-0.029218 -0.013582 0.064376 126 134 123
-0.003317 0.007537 -0.033099 60 14 6
-0.003260 0.007558 -0.033099 65 60 72
0.052811 -0.028448 0.093926 110 122 114
-0.003319 0.007493 -0.033099 97 100 77
-0.003377 0.007532 -0.033099 98 93 64
-0.026262 -0.026673 0.059926 128 137 130
-0.003334 0.007552 -0.033099 75 74 74
-0.003363 0.007547 -0.033099 107 100 71
-0.003305 0.007552 -0.033099 75 74 76
-0.003379 0.007548 -0.033099 100 100 67
-0.015684 -0.010038 0.072751 82 90 79
-0.003298 0.007550 -0.033099 65 60 72
0.029293 -0.002462 0.049276 95 138 150
-0.003340 0.007514 -0.033099 136 126 98
-0.003382 0.007508 -0.033099 104 102 83
-0.003377 0.007515 -0.033099 103 105 73
-0.003278 0.007512 -0.033099 101 142 150
-0.003244 0.007485 -0.033099 97 115 109
-0.003297 0.007562 -0.033099 0 3 33
-0.003288 0.007541 -0.033099 162 151 155
0.000685 0.006630 0.017026 172 102 54
-0.003314 0.007530 -0.033099 151 152 146
0.023656 -0.022156 0.080201 115 122 114
-0.046908 -0.017144 0.053751 121 133 125
-0.019637 -0.026004 0.063101 129 142 129
0.023989 -0.004879 0.056251 115 159 166
-0.017551 -0.020546 0.067301 131 140 133
0.014721 0.011377 0.019551 135 51 15
-0.003342 0.007548 -0.033099 105 108 107
0.007585 -0.011197 0.077301 66 69 68
-0.003328 0.007507 -0.033099 122 123 117
-0.003378 0.007525 -0.033099 94 91 59
0.041314 0.018253 0.031976 19 17 7
-0.003278 0.007529 -0.033099 131 57 13
0.002362 -0.026779 0.065326 115 130 125
-0.003324 0.007547 -0.033099 83 79 70
-0.003258 0.007537 -0.033099 60 33 0
0.053821 -0.039902 0.086851 99 115 106
-0.003289 0.007519 -0.033099 228 106 49
-0.003331 0.007532 -0.033099 132 124 98
-0.036324 -0.014915 0.059826 120 129 122
0.018176 -0.014355 0.081551 92 96 91
-0.057398 -0.016837 0.048251 113 129 120
-0.003323 0.007541 -0.033099 98 89 82
-0.003303 0.007533 -0.033099 144 44 6
-0.046434 -0.017328 0.053951 126 133 125
0.002567 0.015479 0.016451 66 13 0
-0.003370 0.007542 -0.033099 100 89 55
-0.003344 0.007507 -0.033099 129 131 122
0.002102 -0.018579 0.070001 119 130 126
-0.003251 0.007537 -0.033099 111 81 24
-0.003361 0.007541 -0.033099 109 103 77
-0.003320 0.007546 -0.033099 119 107 80
-0.003361 0.007541 -0.033099 113 100 76
-0.003303 0.007550 -0.033099 80 78 85
-0.003290 0.007533 -0.033099 36 29 21
-0.003368 0.007520 -0.033099 108 96 76
-0.005372 0.005552 0.023726 46 43 38
0.031035 0.006013 0.020651 62 70 71
-0.003283 0.007519 -0.033099 143 10 0
-0.003287 0.007562 -0.033099 157 103 123
-0.003336 0.007554 -0.033099 76 76 78
-0.003379 0.007556 -0.033099 109 99 69
0.016809 0.004838 0.023826 189 108 57
-0.003369 0.007536 -0.033099 103 98 67
-0.003334 0.007507 -0.033099 117 119 110
-0.003380 0.007518 -0.033099 98 91 70
0.030912 0.011901 0.034151 9 5 6
0.026413 -0.003548 0.051576 107 146 155
-0.003345 0.007544 -0.033099 119 111 87
-0.003344 0.007530 -0.033099 127 115 88
-0.003269 0.007537 -0.033099 132 145 65
-0.003338 0.007560 -0.033099 69 68 75
-0.003363 0.007541 -0.033099 107 100 69
-0.003350 0.007502 -0.033099 126 133 125
-0.003265 0.007555 -0.033099 172 128 139
-0.003382 0.007549 -0.033099 113 109 82
-0.003264 0.007538 -0.033099 120 141 62
-0.003297 0.007518 -0.033099 28 17 8
-0.003247 0.007551 -0.033099 173 132 142
-0.003360 0.007521 -0.033099 110 106 79
-0.003257 0.007553 -0.033099 173 133 150
0.012031 -0.024246 0.072251 113 127 118
0.066025 -0.034143 0.097776 104 119 114
0.019169 0.013463 0.016326 131 155 73
0.023546 0.012436 0.018101 127 110 51
-0.003363 0.007518 -0.033099 118 107 84
-0.003288 0.005274 0.019501 30 23 17
-0.003335 0.007532 -0.033099 129 119 91
-0.003353 0.007506 -0.033099 112 108 97
-0.003348 0.007536 -0.033099 117 105 78
-0.003266 0.007511 -0.033099 99 134 147
-0.039820 -0.021457 0.055251 123 135 127
-0.001856 0.001187 0.031701 35 28 20
0.015314 -0.004418 0.057726 125 165 176
0.013770 -0.003594 0.055926 122 162 173
-0.003297 0.007516 -0.033099 38 32 17
0.023624 0.012480 0.017401 118 85 29
-0.003301 0.007528 -0.033099 92 77 67
0.052834 -0.016468 0.100876 96 108 98
0.029074 -0.005067 0.030626 5 32 23
-0.003267 -0.015974 0.067901 120 128 117
-0.003279 0.007557 -0.033099 179 128 141
-0.000318 -0.014642 0.069976 118 125 119
-0.003319 0.007560 -0.033099 115 118 121
-0.003318 0.007515 -0.033099 57 58 54
-0.003350 0.007537 -0.033099 118 107 82
-0.003300 0.007554 -0.033099 54 48 54
-0.003305 0.007545 -0.033099 57 47 17
-0.003315 0.007554 -0.033099 114 118 111
-0.003285 0.007524 -0.033099 153 144 135
-0.003342 0.007513 -0.033099 137 128 109
-0.048499 -0.024594 0.049326 120 134 123
-0.003348 0.007516 -0.033099 117 111 85
-0.003344 0.007534 -0.033099 125 115 85
0.040999 -0.028220 0.086901 108 123 107
-0.003342 0.007543 -0.033099 123 112 87
-0.003324 0.007511 -0.033099 82 86 79
-0.003373 0.007507 -0.033099 101 104 86
-0.003342 0.007545 -0.033099 156 164 163
-0.003353 0.007524 -0.033099 118 110 86
-0.003283 0.007542 -0.033099 95 94 96
-0.001250 0.002520 0.029876 119 93 53
-0.003244 0.007544 -0.033099 168 130 143
-0.003305 0.007550 -0.033099 93 93 97
0.016627 -0.028021 0.072451 113 127 118
0.029085 -0.021848 0.083601 112 119 111
0.029762 -0.006188 0.029976 9 39 33
-0.003374 0.007560 -0.033099 64 69 74
-0.003258 0.007532 -0.033099 42 15 0
-0.003322 0.007553 -0.033099 146 154 153
0.030057 0.009434 0.016276 2 3 16
-0.003285 0.007526 -0.033099 118 119 110
-0.003362 0.007552 -0.033099 142 157 156
0.031996 0.001911 0.019901 35 49 40
0.025118 -0.030709 0.075926 112 121 112
-0.003375 0.007542 -0.033099 95 95 62
-0.003347 0.007534 -0.033099 118 108 78
0.014217 0.005822 0.017001 168 73 20
-0.003328 0.007544 -0.033099 88 89 78
-0.003270 0.007548 -0.033099 185 141 152
-0.003338 0.007518 -0.033099 131 122 101
-0.003346 0.007516 -0.033099 121 115 91
0.082076 -0.044186 0.100676 99 118 108
-0.003297 0.007521 -0.033099 114 114 116
0.018204 0.005506 0.022676 3 6 7
-0.003289 0.007522 -0.033099 219 102 45
-0.003367 0.007537 -0.033099 105 91 58
-0.003323 0.007549 -0.033099 80 69 60
-0.049070 -0.025261 0.048726 122 134 126
-0.003280 0.007527 -0.033099 141 59 26
-0.028010 -0.012100 0.065551 124 132 121
0.023261 0.011621 0.020726 126 87 24
0.031020 -0.029279 0.080651 112 124 114
-0.003344 0.007507 -0.033099 135 137 126
-0.003252 0.007562 -0.033099 174 191 192
-0.003382 0.007545 -0.033099 105 98 65
-0.003327 0.007519 -0.033099 136 123 99
-0.025695 -0.014560 0.065551 125 134 125
0.017679 -0.022265 0.076326 112 118 116
-0.003343 0.007509 -0.033099 133 120 98
-0.003327 0.007527 -0.033099 146 141 121
0.021184 0.013678 0.018751 57 39 5
-0.003363 0.007537 -0.033099 109 102 69
-0.003563 -0.015689 0.067951 120 127 119
-0.003296 0.007559 -0.033099 0 3 6
-0.003353 0.007558 -0.033099 62 67 72
-0.003271 0.007556 -0.033099 174 130 141
-0.003334 0.007524 -0.033099 128 119 98
-0.003298 0.007533 -0.033099 103 13 1
-0.003279 0.007534 -0.033099 145 145 141
-0.003356 0.007559 -0.033099 57 66 59
-0.003310 0.007533 -0.033099 133 32 17
0.056573 -0.025280 0.097251 105 122 108
-0.057550 -0.016374 0.048301 111 128 114
-0.003378 0.007512 -0.033099 110 105 72
0.014355 -0.005611 0.060051 133 167 177
-0.003251 0.007554 -0.033099 170 133 142
0.000551 0.006760 0.015801 202 110 56
-0.003247 0.007492 -0.033099 16 51 43
-0.020343 -0.010104 0.070401 117 117 111
-0.003307 0.007557 -0.033099 71 73 79
-0.003371 0.007550 -0.033099 95 86 51
0.005665 0.002626 0.029126 31 22 13
-0.003382 0.007544 -0.033099 104 97 68
-0.003380 0.007547 -0.033099 111 101 71
-0.003271 0.007543 -0.033099 51 36 6
-0.003346 0.007530 -0.033099 117 105 76
-0.008359 -0.028708 0.058176 91 98 90
0.029913 -0.004183 0.028201 0 18 8
0.051921 -0.023173 0.096426 103 115 105
-0.003370 0.007559 -0.033099 68 69 65
-0.003270 0.007539 -0.033099 126 140 50
-0.003365 0.007543 -0.033099 109 102 73
-0.003380 0.007544 -0.033099 104 94 66
-0.003333 0.007524 -0.033099 128 118 88
-0.003335 0.007545 -0.033099 90 90 90
0.029999 -0.000820 0.026976 73 98 103
0.014874 -0.001688 0.049376 121 162 168
-0.003369 0.007521 -0.033099 109 102 85
-0.003380 0.007546 -0.033099 106 99 66
-0.050455 -0.017543 0.051651 120 134 125
-0.029131 0.018337 0.016551 107 100 69
-0.003265 0.007555 -0.033099 171 129 143
0.027559 0.009424 0.018976 27 49 61
-0.047063 -0.018146 0.053051 122 136 125
-0.003245 0.007533 -0.033099 99 118 108
-0.003317 0.007534 -0.033099 79 16 4
-0.003321 0.007531 -0.033099 168 181 176
0.032037 -0.001191 0.024751 25 31 42
-0.003376 0.007531 -0.033099 106 99 70
-0.003333 0.007537 -0.033099 125 110 84
-0.003333 0.007522 -0.033099 132 121 96
-0.003295 0.007530 -0.033099 199 88 34
0.089649 -0.041378 0.107851 96 114 110
-0.003328 0.007551 -0.033099 80 70 68
-0.003267 0.007554 -0.033099 173 132 142
-0.003326 0.007525 -0.033099 160 153 136
-0.055809 -0.023027 0.046651 117 132 118
-0.003331 0.007514 -0.033099 162 150 130
0.020658 0.004086 0.021826 84 128 135
-0.003318 0.007504 -0.033099 81 85 80
-0.003343 0.007557 -0.033099 64 68 63
-0.003348 0.007562 -0.033099 63 63 59
0.018785 0.003778 0.024076 118 154 160
-0.003263 0.007542 -0.033099 156 91 107
-0.027233 -0.011812 0.065926 123 132 125
-0.003284 0.007505 -0.033099 103 103 97
0.057339 -0.019244 0.101501 68 74 74
-0.003338 0.007516 -0.033099 133 125 99
-0.003379 0.007517 -0.033099 103 96 65
-0.003335 0.007546 -0.033099 84 83 85
-0.003374 0.007492 -0.033099 117 129 119
-0.003286 0.007529 -0.033099 105 105 101
0.008812 -0.031569 0.066126 114 123 116
-0.003358 0.007517 -0.033099 116 110 84
-0.047917 -0.020088 0.052026 118 135 121
-0.003362 0.007552 -0.033099 141 159 157
0.016411 -0.027318 0.073376 114 125 121
0.028446 -0.034774 0.076101 105 123 117
0.033698 -0.007153 0.024826 11 36 29
-0.003381 0.007556 -0.033099 99 92 61
-0.003346 0.007557 -0.033099 67 67 63
0.007698 -0.003825 0.048651 120 164 171
0.015307 0.007361 0.018601 43 1 0
-0.003368 0.007524 -0.033099 108 107 81
-0.003293 0.007548 -0.033099 68 64 65
-0.003366 0.007512 -0.033099 113 103 71
-0.026408 -0.013743 0.066126 125 132 124
-0.003321 0.007518 -0.033099 149 154 140
0.033423 -0.006191 0.022976 12 35 31
-0.003295 0.007535 -0.033099 101 24 0
0.021861 0.007715 0.022076 44 55 53
0.009465 -0.023629 0.071476 115 126 122
-0.027529 -0.025020 0.060076 131 139 128
0.019647 0.003279 0.022901 80 121 129
-0.005613 -0.020549 0.063751 125 131 129
-0.003244 0.007561 -0.033099 142 112 124
-0.030436 -0.021642 0.060201 126 133 125
-0.003332 0.007543 -0.033099 112 112 112
-0.003304 0.007524 -0.033099 217 108 42
-0.003322 0.007531 -0.033099 164 176 168
0.007328 -0.001995 0.045901 100 142 157
-0.003322 0.007533 -0.033099 173 182 173
-0.003376 0.007524 -0.033099 98 97 69
0.057878 -0.029612 0.095376 108 119 115
0.076372 -0.035949 0.102826 98 118 111
-0.003295 0.007523 -0.033099 143 146 128
-0.003374 0.007545 -0.033099 99 92 59
-0.015306 -0.028891 0.064026 100 112 104
-0.003344 0.007530 -0.033099 123 110 86
0.022862 -0.028669 0.076526 112 124 116
-0.003261 0.007554 -0.033099 74 77 80
-0.003245 0.007547 -0.033099 170 130 145
-0.003250 0.007556 -0.033099 170 130 143
0.011657 0.003065 0.037351 69 109 120
0.019051 -0.002518 0.050751 119 162 174
-0.003303 0.007560 -0.033099 62 57 55
-0.003321 0.007500 -0.033099 161 141 121
-0.027774 -0.024798 0.060226 124 137 124
-0.026388 -0.017676 0.063901 125 134 127
0.021992 -0.021629 0.079451 112 121 114
-0.009101 -0.021231 0.061551 92 96 91
-0.003311 0.007536 -0.033099 107 29 9
0.079191 -0.037633 0.103701 97 116 106
-0.003362 0.007538 -0.033099 112 106 80
-0.003270 0.007559 -0.033099 170 125 140
-0.003351 0.007555 -0.033099 62 62 58
-0.003382 0.007532 -0.033099 98 98 67
0.033322 -0.000056 0.021176 100 115 114
-0.003354 0.007562 -0.033099 69 64 72
0.014454 -0.025756 0.072876 116 125 118
-0.003367 0.007509 -0.033099 116 109 90
0.068148 -0.034455 0.098151 103 122 112
-0.003366 0.007530 -0.033099 112 104 78
-0.050747 -0.021157 0.049876 116 134 128
-0.003299 0.007530 -0.033099 167 58 23
-0.007757 -0.011354 0.068951 106 116 104
-0.003294 0.007553 -0.033099 60 56 57
-0.003355 0.007555 -0.033099 65 69 62
0.012682 -0.016049 0.077276 112 119 111
-0.003379 0.007534 -0.033099 107 100 71
-0.003342 0.007523 -0.033099 127 116 91
-0.049280 -0.023964 0.049101 121 137 128
0.008927 0.012290 0.016576 116 31 4
0.027775 -0.008759 0.063326 123 169 173
0.004459 -0.023249 0.068201 115 126 124
-0.003326 0.007551 -0.033099 81 76 72
-0.003358 0.007523 -0.033099 114 103 78
0.024505 0.001978 0.021151 115 149 144
0.015940 -0.003663 0.053926 122 165 175
-0.003324 0.007537 -0.033099 130 134 127
-0.003356 0.007516 -0.033099 114 112 89
-0.003297 0.007528 -0.033099 106 77 67
0.015338 0.012711 0.016076 129 139 57
-0.003309 0.007540 -0.033099 79 3 0
-0.003335 0.007538 -0.033099 127 114 90
-0.003344 0.007504 -0.033099 128 133 123
0.014531 0.002429 0.076701 68 99 99
-0.003249 0.007493 -0.033099 103 122 110
-0.028869 -0.022608 0.060226 129 136 128
0.028813 0.010572 0.015926 25 52 63
0.073474 -0.035965 0.100726 99 117 111
-0.003286 0.007539 -0.033099 135 140 87
-0.003328 0.007527 -0.033099 140 127 105
-0.003344 0.007514 -0.033099 130 123 94
-0.003342 0.007532 -0.033099 129 119 91
-0.003370 0.007533 -0.033099 103 99 63
0.030243 -0.009638 0.063101 120 161 167
0.006538 -0.012977 0.075576 108 115 109
-0.003304 0.007518 -0.033099 22 17 0
-0.003267 0.007547 -0.033099 115 91 106
-0.003381 0.007519 -0.033099 96 100 70
0.024156 -0.028083 0.077201 111 123 115
-0.003375 0.007560 -0.033099 69 72 75
-0.003247 0.007551 -0.033099 178 132 142
0.027135 0.003484 0.024076 1 23 26
-0.003293 0.007561 -0.033099 1 1 3
-0.003325 0.007525 -0.033099 162 155 136
-0.003378 0.007506 -0.033099 119 131 121
-0.003285 0.007535 -0.033099 79 11 3
-0.003336 0.007534 -0.033099 130 120 92
-0.003344 0.007519 -0.033099 123 116 95
-0.003357 0.007548 -0.033099 110 102 76
-0.003360 0.007539 -0.033099 114 104 74
-0.003334 0.007557 -0.033099 60 66 64
-0.003313 0.007559 -0.033099 86 86 86
-0.003343 0.007523 -0.033099 129 116 94
-0.003312 0.007536 -0.033099 77 18 0
-0.003260 0.007559 -0.033099 116 80 101
0.031275 -0.006529 0.028626 5 44 35
-0.046109 -0.024922 0.050326 116 136 121
-0.003305 0.007543 -0.033099 44 8 0
-0.036924 -0.026657 0.054626 122 137 123
-0.050140 -0.012441 0.054076 121 130 121
-0.003374 0.007533 -0.033099 100 97 67
-0.003356 0.007519 -0.033099 117 109 85
-0.003330 0.007528 -0.033099 134 126 100
-0.003292 0.007541 -0.033099 181 119 131
-0.003249 0.007551 -0.033099 180 133 149
-0.003301 0.007562 -0.033099 121 103 71
0.029505 -0.003146 0.032326 2 15 10
-0.003308 0.007540 -0.033099 39 0 0
-0.003336 0.007512 -0.033099 159 150 131
-0.042059 -0.025386 0.052326 123 135 125
-0.003342 0.007528 -0.033099 127 119 93
-0.003345 0.007528 -0.033099 128 116 87
-0.003350 0.007509 -0.033099 140 138 117
-0.003255 0.007536 -0.033099 66 42 0
-0.003361 0.007506 -0.033099 103 107 86
-0.003379 0.007504 -0.033099 121 132 128
0.058111 -0.021619 0.100176 100 114 105
-0.003371 0.007505 -0.033099 134 143 134
-0.003329 0.007540 -0.033099 124 124 126
-0.003296 0.007523 -0.033099 100 101 95
0.014887 0.012453 0.017126 124 123 54
-0.003350 0.007517 -0.033099 121 116 94
-0.003362 0.007555 -0.033099 107 120 117
-0.003303 0.007522 -0.033099 223 109 51
-0.003286 0.007549 -0.033099 74 73 75
0.029696 0.008028 0.017051 82 94 86
0.018495 -0.000590 0.046901 116 156 169
-0.003315 0.007555 -0.033099 111 118 112
-0.020026 -0.013332 0.069851 127 132 122
-0.003331 0.007528 -0.033099 131 126 95
-0.003365 0.007527 -0.033099 114 107 76
0.029941 0.008894 0.019176 47 66 66
-0.029735 -0.014561 0.063651 126 134 121
-0.003296 0.007552 -0.033099 55 55 57
-0.003369 0.007508 -0.033099 115 118 95
0.027556 0.012551 0.016276 89 94 82
-0.003251 0.007552 -0.033099 175 130 145
-0.003318 0.007544 -0.033099 69 44 10
-0.003350 0.007551 -0.033099 94 105 105
-0.003352 0.007556 -0.033099 65 62 59
0.025136 -0.013532 0.086426 104 105 99
-0.003244 0.007558 -0.033099 156 122 128
-0.003313 0.007523 -0.033099 30 26 15
-0.003356 0.007502 -0.033099 120 130 118
0.022171 -0.032251 0.073626 113 126 121
0.015573 -0.026667 0.073051 117 125 122
-0.038801 -0.014000 0.058826 124 131 123
-0.003260 0.007550 -0.033099 191 143 151
-0.003338 0.007510 -0.033099 121 122 95
-0.003328 0.007523 -0.033099 136 123 99
-0.003358 0.007538 -0.033099 113 106 77
-0.004606 -0.014001 0.068376 120 124 117
-0.003347 0.007553 -0.033099 65 65 65
-0.003336 0.007524 -0.033099 133 120 96
-0.013692 -0.029659 0.064926 92 102 36
-0.003352 0.007512 -0.033099 122 110 90
0.031125 -0.027803 0.081001 111 122 118
-0.002197 -0.023438 0.064351 123 132 123
0.014994 -0.022074 0.075626 114 122 119
-0.003255 0.007558 -0.033099 165 124 132
-0.003357 0.007529 -0.033099 112 102 74
0.028011 -0.035945 0.075426 106 122 111
0.035416 -0.026414 0.084901 113 122 113
-0.003295 0.007549 -0.033099 56 55 57
-0.003295 0.007555 -0.033099 61 56 64
-0.033161 -0.019108 0.059951 130 134 127
-0.003323 0.007536 -0.033099 140 146 144
-0.038753 -0.021994 0.055501 121 136 120
-0.003294 0.007542 -0.033099 147 115 91
-0.005178 0.006949 0.021701 25 15 13
-0.003311 0.007545 -0.033099 116 65 18
-0.003288 0.007557 -0.033099 167 113 135
-0.003335 0.007550 -0.033099 79 75 76
-0.044072 -0.022870 0.052476 121 138 124
-0.026034 -0.013072 0.066401 124 131 123
0.029105 0.004281 0.022626 26 35 28
0.007385 -0.031506 0.065051 113 127 118
-0.055941 -0.011948 0.051376 119 131 121
-0.003256 0.007539 -0.033099 73 35 10
0.085009 -0.042346 0.103701 100 116 105
-0.003282 0.007534 -0.033099 115 96 92
-0.003330 0.007556 -0.033099 116 124 123
0.031162 -0.002296 0.032101 40 98 96
0.033020 -0.005483 0.024026 4 33 30
-0.003363 0.007550 -0.033099 86 74 45
-0.003343 0.007542 -0.033099 119 112 83
0.027482 0.009687 0.032826 6 5 7
-0.003289 0.007522 -0.033099 216 107 39
-0.048139 -0.016981 0.053176 121 130 121
-0.003381 0.007528 -0.033099 93 93 69
-0.003295 0.007542 -0.033099 124 124 60
-0.000090 0.002507 0.031851 102 76 36
0.048763 -0.023598 0.094276 103 110 102
-0.003321 0.007489 -0.033099 89 101 25
-0.003370 0.007519 -0.033099 105 95 63
-0.003329 0.007543 -0.033099 97 95 87
-0.001882 -0.010863 0.071701 84 88 83
-0.003292 0.007508 -0.033099 131 166 169
-0.003304 0.007551 -0.033099 85 88 91
-0.003310 0.007533 -0.033099 171 68 34
0.000984 -0.013123 0.072251 118 127 120
-0.003292 0.007521 -0.033099 224 100 43
-0.003288 0.007537 -0.033099 91 80 28
0.028918 0.003533 0.023376 4 10 12
-0.003365 0.007502 -0.033099 118 130 122
-0.003322 0.007508 -0.033099 7 12 19
-0.030499 -0.016790 0.062101 124 132 119
0.002958 -0.013731 0.072976 114 121 115
-0.003280 0.007521 -0.033099 129 20 1
0.018894 -0.031889 0.071826 114 125 121
-0.057895 -0.018404 0.047926 115 128 123
0.004744 -0.010594 0.076101 94 95 86
-0.003309 0.007533 -0.033099 174 72 23
0.024172 0.007158 0.020576 11 22 18
-0.001860 -0.017591 0.067851 119 128 121
-0.003372 0.007548 -0.033099 103 91 62
-0.031972 -0.018029 0.060751 118 133 119
-0.000846 0.004284 0.020551 109 67 35
-0.003359 0.007519 -0.033099 112 104 78
-0.003380 0.007554 -0.033099 104 94 64
-0.003354 0.007507 -0.033099 111 109 88
-0.003337 0.007561 -0.033099 81 84 83
-0.003303 0.007542 -0.033099 109 28 9
0.058022 -0.018961 0.102576 97 110 105
-0.003381 0.007541 -0.033099 101 91 61
-0.019870 -0.023621 0.064476 129 136 128
-0.042027 -0.012438 0.057851 124 132 129
-0.041460 -0.012927 0.058251 121 133 123
-0.003273 0.007550 -0.033099 184 135 148
0.013676 0.008945 0.016926 145 64 22
-0.023644 0.016618 0.023051 116 104 77
-0.003349 0.007549 -0.033099 136 142 144
-0.054968 -0.015268 0.050601 113 128 123
-0.003307 0.007529 -0.033099 117 122 112
-0.042954 -0.021489 0.053601 121 137 126
-0.003382 0.007514 -0.033099 111 104 71
-0.003301 0.007525 -0.033099 219 115 65
-0.003373 0.007533 -0.033099 101 98 66
0.020874 0.005492 0.021951 43 76 89
-0.003321 0.007536 -0.033099 126 134 121
-0.003340 0.007518 -0.033099 129 117 97
-0.003382 0.007559 -0.033099 137 138 132
-0.041642 -0.025844 0.052376 119 138 126
0.008433 -0.021202 0.071851 114 126 118
0.020231 0.012208 0.019776 104 121 51
-0.003330 0.007518 -0.033099 129 117 90
-0.003372 0.007561 -0.033099 65 70 58
-0.028028 0.017445 0.017201 112 107 78
0.044740 -0.030540 0.088126 110 123 110
0.052704 -0.022477 0.096701 104 116 106
0.029953 -0.003124 0.029376 2 15 12
-0.003286 0.007548 -0.033099 72 68 71
-0.003354 0.007551 -0.033099 139 150 146
0.029105 -0.005500 0.031151 10 33 25
-0.003365 0.007510 -0.033099 112 107 78
0.059270 -0.030661 0.096701 103 112 105
-0.003282 0.007560 -0.033099 175 112 129
-0.003318 0.007539 -0.033099 108 71 26
-0.003332 0.007520 -0.033099 127 117 89
-0.003278 0.007519 -0.033099 131 36 1
0.015486 -0.003621 0.053601 123 166 176
-0.003346 0.007532 -0.033099 119 104 78
-0.003336 0.007534 -0.033099 132 122 94
-0.045798 -0.017956 0.054351 117 129 121
-0.003250 0.007544 -0.033099 164 131 142
0.009431 -0.016128 0.075776 116 125 116
-0.003265 0.007494 -0.033099 108 122 113
-0.003362 0.007503 -0.033099 118 131 116
-0.003316 0.007544 -0.033099 76 49 23
-0.003302 0.007546 -0.033099 115 123 53
0.020233 -0.006897 0.064601 125 163 175
-0.003320 0.007520 -0.033099 149 151 142
-0.003346 0.007559 -0.033099 57 70 65
-0.003362 0.007552 -0.033099 133 152 142
-0.003303 0.007548 -0.033099 141 149 134
0.030457 -0.002471 0.034926 93 106 101
-0.003287 0.007508 -0.033099 122 161 168
0.028901 0.010574 0.015951 17 48 48
-0.003349 0.007527 -0.033099 122 110 90
-0.003374 0.007517 -0.033099 100 95 62
-0.003322 0.007510 -0.033099 120 127 121
-0.036309 -0.013255 0.060951 124 131 123
-0.003266 0.007553 -0.033099 180 134 146
-0.003347 0.007528 -0.033099 124 112 85
-0.003300 0.007535 -0.033099 131 34 9
0.029434 -0.033750 0.077001 111 126 121
-0.003376 0.007552 -0.033099 105 100 59
-0.003382 0.007516 -0.033099 100 94 58
-0.003286 0.007555 -0.033099 172 118 136
-0.003279 0.007525 -0.033099 122 28 13
-0.003370 0.007561 -0.033099 58 63 51
-0.003273 0.007541 -0.033099 133 146 68
-0.003335 0.007539 -0.033099 130 114 91
0.029348 0.007089 0.024501 5 12 16
-0.003321 0.007519 -0.033099 145 148 132
-0.003302 0.007548 -0.033099 79 74 70
-0.003325 0.007559 -0.033099 133 144 144
-0.003362 0.007505 -0.033099 131 140 133
-0.003282 0.007559 -0.033099 181 127 145
-0.003348 0.007526 -0.033099 126 116 86
-0.014511 -0.027375 0.065176 96 101 89
-0.003326 0.007546 -0.033099 88 81 73
-0.003279 0.007558 -0.033099 182 130 139
-0.003312 0.007550 -0.033099 91 89 81
-0.003344 0.007506 -0.033099 148 161 148
0.030183 0.009814 0.015876 12 11 18
-0.003295 0.007562 -0.033099 0 2 10
-0.003367 0.007543 -0.033099 112 102 74
-0.028851 -0.028929 0.057726 119 138 128
-0.055622 -0.024128 0.045751 125 135 123
0.023469 0.003279 0.022901 85 136 141
-0.003243 0.007561 -0.033099 131 101 111
-0.003330 0.007537 -0.033099 128 116 89
-0.051536 -0.024782 0.047826 123 132 123
-0.003259 0.007496 -0.033099 99 118 106
-0.003279 0.007549 -0.033099 189 138 151
-0.029617 -0.023876 0.059726 123 137 128
-0.019049 -0.026257 0.063826 127 136 127
-0.003243 0.007493 -0.033099 0 37 28
0.012970 -0.019364 0.075951 114 126 118
0.018485 0.011882 0.019126 130 155 68
-0.003339 0.007519 -0.033099 129 118 95
-0.003344 0.007523 -0.033099 130 117 95
-0.006053 -0.010269 0.069601 86 89 88
0.004586 -0.020126 0.069851 117 128 124
-0.003371 0.007521 -0.033099 104 94 64
0.013627 -0.014081 0.079251 107 115 102
-0.003380 0.007528 -0.033099 100 95 64
0.055985 -0.019819 0.100451 72 78 76
-0.003376 0.007552 -0.033099 100 92 66
-0.003292 0.007554 -0.033099 68 64 65
-0.003377 0.007500 -0.033099 117 131 120
-0.003296 0.007528 -0.033099 91 77 69
-0.025237 -0.017682 0.064476 125 134 127
-0.022025 -0.018855 0.065651 131 136 124
-0.003245 0.007492 -0.033099 15 54 32
-0.016261 -0.025913 0.065326 103 112 105
-0.003258 0.007535 -0.033099 68 42 2
-0.003368 0.007505 -0.033099 111 112 103
-0.003332 0.007561 -0.033099 114 125 123
-0.027245 -0.013284 0.065676 127 131 124
-0.003363 0.007514 -0.033099 111 110 84
-0.034638 -0.026916 0.055626 124 137 122
0.035403 -0.028941 0.083301 111 121 109
-0.003341 0.007533 -0.033099 127 120 91
-0.003289 0.007539 -0.033099 187 127 137
-0.003330 0.007526 -0.033099 132 122 94
-0.039824 -0.012493 0.059026 123 132 123
-0.003263 0.007501 -0.033099 77 97 90
-0.003292 0.007557 -0.033099 124 78 90
-0.003364 0.007503 -0.033099 114 128 117
-0.003347 0.007510 -0.033099 147 140 119
-0.025724 0.017295 0.017001 120 111 90
-0.003277 0.007537 -0.033099 113 123 59
-0.003335 0.007508 -0.033099 164 171 165
0.031860 -0.004546 0.025376 2 36 31
-0.003333 0.007525 -0.033099 127 120 89
0.029525 0.009334 0.017526 10 19 31
-0.059940 -0.011380 0.049701 114 129 113
-0.003312 0.007546 -0.033099 120 73 33
-0.021702 -0.021430 0.064326 127 135 124
-0.003321 0.007487 -0.033099 92 97 15
0.002059 0.015338 0.015801 85 23 4
0.024637 -0.023293 0.079801 109 118 109
-0.003256 0.007560 -0.033099 166 125 135
-0.003314 0.007537 -0.033099 47 3 1
-0.026952 -0.019831 0.062726 126 136 124
-0.003362 0.007551 -0.033099 88 76 49
-0.003319 0.007519 -0.033099 185 189 182
-0.003305 0.007489 -0.033099 118 127 120
-0.003302 0.007525 -0.033099 202 109 71
-0.003305 0.007555 -0.033099 65 64 66
0.019064 0.006695 0.022576 60 78 72
-0.003341 0.007533 -0.033099 128 121 92
-0.003328 0.007506 -0.033099 118 126 113
0.072772 -0.037219 0.099501 100 118 114
-0.026991 0.018009 0.016726 115 109 83
-0.049697 -0.012434 0.054326 115 131 122
-0.003357 0.007523 -0.033099 118 102 79
-0.003375 0.007517 -0.033099 100 97 63
-0.003352 0.007525 -0.033099 119 112 83
-0.003293 0.007519 -0.033099 221 113 53
0.022639 0.001142 0.027601 114 153 162
-0.003354 0.007516 -0.033099 118 111 90
-0.003350 0.007550 -0.033099 121 134 131
-0.003383 0.007542 -0.033099 103 97 59
-0.041025 -0.025452 0.052826 120 134 123
0.005375 -0.026698 0.066776 119 132 119
-0.039851 -0.018874 0.056601 122 138 129
-0.003357 0.007525 -0.033099 112 100 71
-0.003261 0.007543 -0.033099 165 92 113
0.057848 -0.017121 0.102851 92 107 93
-0.030071 -0.015628 0.063076 127 132 122
-0.003341 0.007541 -0.033099 126 114 87
-0.003266 0.007543 -0.033099 157 81 94
-0.003334 0.007528 -0.033099 133 122 97
-0.003307 0.007555 -0.033099 83 78 86
-0.042382 -0.022379 0.053601 123 135 125
-0.003361 0.007508 -0.033099 120 115 95
0.059066 -0.037039 0.091901 102 123 112
-0.003326 0.007556 -0.033099 147 151 146
-0.003317 0.007540 -0.033099 122 88 53
-0.003277 0.007545 -0.033099 185 141 150
0.033292 -0.003224 0.022526 3 21 15
-0.003320 0.007523 -0.033099 147 145 124
0.007297 -0.015745 0.074376 116 125 118
-0.003375 0.007544 -0.033099 103 92 58
-0.003356 0.007550 -0.033099 145 153 142
0.020658 0.010045 0.022576 108 59 4
0.007632 -0.022064 0.070826 118 127 118
-0.003340 0.007528 -0.033099 131 118 94
-0.003294 0.007531 -0.033099 159 10 9
0.021047 0.011856 0.019276 65 35 1
0.010705 -0.017479 0.075751 113 120 112
-0.003320 0.007507 -0.033099 0 7 11
-0.003298 0.007558 -0.033099 60 50 60
-0.045602 -0.020857 0.052651 118 135 121
-0.003323 0.007540 -0.033099 97 92 90
-0.003380 0.007536 -0.033099 110 103 74
0.010058 -0.025005 0.070726 114 126 116
0.058803 -0.040665 0.089926 103 124 113
-0.003275 0.007550 -0.033099 184 133 146
-0.041763 -0.026161 0.052226 122 134 124
0.039133 -0.019632 0.091501 104 112 99
-0.003315 0.007547 -0.033099 51 26 6
-0.003295 0.007552 -0.033099 56 55 55
-0.054489 -0.015137 0.051026 114 128 119
-0.003317 0.007521 -0.033099 182 196 187
-0.003363 0.007532 -0.033099 108 103 72
-0.027757 -0.027164 0.058876 125 137 129
-0.003316 0.007530 -0.033099 144 132 112
-0.037775 -0.020860 0.056851 127 136 127
0.029168 0.008541 0.020826 42 47 65
0.022117 0.013743 0.017426 58 33 0
-0.003243 0.007502 -0.033099 6 24 20
-0.008798 -0.020207 0.062326 86 90 85
-0.003318 0.007535 -0.033099 81 71 69
0.033226 -0.000992 0.024551 3 15 17
0.041954 -0.018081 0.093776 81 89 90
0.019644 -0.028279 0.074626 115 127 119
-0.003261 0.007560 -0.033099 161 124 133
-0.003247 0.007554 -0.033099 173 129 140
-0.003330 0.007513 -0.033099 135 127 101
0.028396 -0.000738 0.033426 98 137 146
-0.003315 0.007547 -0.033099 61 32 9
-0.003367 0.007558 -0.033099 63 69 67
0.058544 -0.014854 0.104851 97 109 99
-0.003309 0.007526 -0.033099 138 2 0
-0.043080 -0.016442 0.055876 124 133 124
-0.003270 0.007544 -0.033099 169 112 123
-0.003355 0.007507 -0.033099 111 109 86
-0.003269 0.007540 -0.033099 128 146 57
-0.003281 0.007528 -0.033099 111 79 73
-0.017264 -0.016523 0.068976 118 126 115
-0.003300 0.007531 -0.033099 149 45 16
-0.003267 0.007559 -0.033099 170 118 135
-0.003311 0.007554 -0.033099 101 104 103
-0.003356 0.007521 -0.033099 117 109 83
-0.001449 -0.000014 0.031001 35 28 18
-0.003316 0.007548 -0.033099 60 33 9
-0.003323 0.007535 -0.033099 155 162 154
-0.003348 0.007550 -0.033099 92 97 102
-0.003383 0.007536 -0.033099 100 96 71
0.025155 0.002653 0.021176 46 56 63
0.031236 0.011812 0.034301 7 4 1
0.029934 0.009917 0.016526 27 34 40
0.013520 -0.028496 0.070476 115 126 122
-0.003351 0.007544 -0.033099 115 109 85
-0.003382 0.007522 -0.033099 102 102 69
-0.003285 0.007544 -0.033099 89 89 91
-0.003366 0.007549 -0.033099 107 99 75
-0.003291 0.007558 -0.033099 134 89 96
-0.003259 0.007544 -0.033099 164 92 106
-0.002460 0.004558 0.020576 37 27 25
-0.003322 0.007498 -0.033099 75 97 70
0.025143 0.008361 0.022001 101 114 111
-0.003347 0.007547 -0.033099 145 149 142
-0.018102 -0.012733 0.070651 128 135 127
-0.003331 0.007538 -0.033099 143 140 126
-0.003367 0.007555 -0.033099 140 152 144
-0.003333 0.007554 -0.033099 66 62 51
-0.003287 0.007523 -0.033099 166 153 142
-0.002405 -0.021688 0.064951 121 129 126
-0.003334 0.007544 -0.033099 108 115 109
-0.003373 0.007559 -0.033099 82 89 83
-0.003295 0.007537 -0.033099 85 22 8
0.079660 -0.041872 0.101051 102 118 109
-0.003329 0.007556 -0.033099 129 135 135
-0.003302 0.007537 -0.033099 125 32 12
-0.003291 0.007506 -0.033099 105 105 99
-0.015062 0.013549 0.025251 124 109 83
-0.057580 -0.021064 0.046076 120 130 116
0.021149 0.007387 0.023526 50 57 51
-0.003337 0.007546 -0.033099 89 92 95
0.055286 -0.038489 0.089176 104 124 107
-0.003284 0.007553 -0.033099 175 125 133
-0.036526 -0.013295 0.060201 121 130 123
-0.003297 0.007537 -0.033099 118 38 7
-0.003301 0.007512 -0.033099 43 36 28
0.023750 -0.022574 0.079901 112 119 111
-0.006055 -0.014653 0.066951 121 129 118
-0.056226 -0.018428 0.048376 117 128 124
-0.003375 0.007543 -0.033099 98 94 56
-0.003264 0.007542 -0.033099 156 100 102
-0.003337 0.007518 -0.033099 132 124 100
-0.003365 0.007503 -0.033099 114 130 121
-0.003277 0.007553 -0.033099 178 129 142
-0.003383 0.007562 -0.033099 69 79 65
-0.003246 0.007546 -0.033099 177 127 135
-0.003243 0.007562 -0.033099 134 118 113
-0.003288 0.007546 -0.033099 70 69 71
-0.003378 0.007557 -0.033099 137 153 144
0.053669 -0.037161 0.088976 104 120 109
-0.003313 0.007544 -0.033099 114 68 21
-0.003244 0.007540 -0.033099 15 14 0
-0.032003 -0.018613 0.060626 123 137 126
-0.003297 0.007525 -0.033099 113 110 107
-0.003354 0.007508 -0.033099 126 119 100
0.032869 -0.007899 0.027951 6 43 34
-0.003349 0.007518 -0.033099 120 111 90
0.021086 0.005662 0.021701 49 76 85
0.040119 0.015994 0.036576 15 11 4
-0.003345 0.007558 -0.033099 63 69 67
-0.007174 -0.013357 0.067426 114 123 114
-0.003369 0.007552 -0.033099 90 74 51
0.052970 -0.036944 0.088626 109 123 112
0.019197 0.005333 0.021901 85 111 111
-0.003328 0.007533 -0.033099 139 128 105
-0.003342 0.007550 -0.033099 72 72 68
-0.003341 0.007518 -0.033099 127 119 93
-0.003287 0.007527 -0.033099 111 108 103
-0.008441 -0.017714 0.063501 84 88 81
-0.040497 -0.016824 0.057051 124 133 126
-0.003339 0.007510 -0.033099 126 115 81
0.048433 -0.027537 0.091676 104 120 109
0.002699 -0.012112 0.073901 111 118 110
-0.003266 0.007549 -0.033099 101 100 107
0.049374 -0.029858 0.090876 109 123 112
0.030898 -0.031606 0.079426 108 120 112
-0.003361 0.007525 -0.033099 104 96 70
-0.059688 -0.015401 0.048026 115 129 118
-0.003313 0.007535 -0.033099 51 3 0
0.030107 0.004654 0.021001 43 45 55
0.001603 0.000867 0.033476 35 29 16
-0.003287 0.007539 -0.033099 136 139 71
-0.028272 0.018721 0.016801 98 79 62
-0.003259 0.007559 -0.033099 63 68 75
-0.003265 0.007537 -0.033099 91 108 38
-0.023911 -0.030253 0.064976 127 137 125
0.000770 -0.021270 0.067001 121 132 128
-0.003283 0.007518 -0.033099 167 26 0
-0.003379 0.007514 -0.033099 104 103 77
-0.016334 -0.022077 0.067001 101 105 100
-0.003285 0.007551 -0.033099 175 125 142
-0.016839 0.014061 0.023026 128 115 91
-0.003312 0.007532 -0.033099 151 47 20
-0.003323 0.007545 -0.033099 90 81 74
-0.003305 0.007537 -0.033099 155 55 17
-0.003350 0.007509 -0.033099 135 128 107
-0.003349 0.007523 -0.033099 126 117 96
0.036880 0.014325 0.039501 4 4 0
0.015155 0.012372 0.017051 123 120 49
-0.003343 0.007548 -0.033099 114 120 118
-0.003354 0.007522 -0.033099 117 109 83
-0.003298 0.007521 -0.033099 94 107 102
-0.003359 0.007547 -0.033099 113 105 81
0.019589 -0.020490 0.078201 116 124 121
-0.003317 0.007541 -0.033099 100 70 24
-0.003291 0.007555 -0.033099 70 66 67
-0.003323 0.007531 -0.033099 143 141 120
0.033490 -0.001858 0.023651 39 50 48
0.017729 0.004474 0.024401 28 42 33
-0.020625 -0.018604 0.066351 129 134 124
-0.003379 0.007519 -0.033099 99 96 62
-0.003367 0.007502 -0.033099 121 130 121
-0.003365 0.007536 -0.033099 100 94 58
-0.003280 0.007554 -0.033099 184 128 143
-0.003328 0.007542 -0.033099 99 96 93
-0.024810 -0.023506 0.062576 128 138 126
0.023533 -0.018440 0.082901 110 117 109
0.066902 -0.032157 0.099801 100 115 110
-0.046718 -0.017554 0.053626 118 133 128
0.013912 0.006647 0.018176 145 61 27
-0.003335 0.007533 -0.033099 128 121 90
-0.003332 0.007544 -0.033099 102 103 99
0.056858 -0.032203 0.093426 106 122 111
0.007975 -0.002461 0.046376 111 156 167
0.039374 -0.030124 0.084601 112 122 110
-0.003320 0.007486 -0.033099 62 65 11
-0.040420 -0.014542 0.058001 126 133 125
-0.003343 0.007521 -0.033099 126 117 98
-0.003366 0.007524 -0.033099 112 104 78
-0.003337 0.007511 -0.033099 127 114 92
-0.003381 0.007557 -0.033099 136 148 138
-0.003334 0.007549 -0.033099 82 81 83
-0.022150 -0.019334 0.065551 129 133 126
-0.003327 0.007521 -0.033099 134 120 101
-0.003257 0.007543 -0.033099 171 123 131
-0.003287 0.007551 -0.033099 82 78 79
-0.053790 -0.017322 0.050076 124 131 123
-0.003371 0.007528 -0.033099 107 104 74
-0.003261 0.007547 -0.033099 161 103 117
-0.003355 0.007522 -0.033099 116 105 80
-0.003321 0.007498 -0.033099 71 85 47
0.063985 -0.036728 0.095526 105 123 117
-0.043322 -0.015528 0.056126 124 133 126
-0.003299 0.007545 -0.033099 131 134 64
-0.008247 -0.026715 0.058576 85 95 83
-0.003374 0.007522 -0.033099 105 100 71
-0.003312 0.007524 -0.033099 30 16 0
-0.003361 0.007504 -0.033099 158 173 168
-0.003296 0.007517 -0.033099 27 38 34
-0.003280 0.007529 -0.033099 145 126 120
0.031503 -0.036194 0.076651 110 122 112
-0.056909 -0.019602 0.047426 117 131 122
-0.003269 0.007549 -0.033099 180 134 146
-0.003342 0.007557 -0.033099 64 67 66
-0.003250 0.007557 -0.033099 165 133 138
-0.003321 0.007529 -0.033099 167 175 160
-0.003328 0.007550 -0.033099 79 72 64
-0.003251 0.007551 -0.033099 181 137 148
-0.003376 0.007558 -0.033099 112 118 116
0.000116 -0.028041 0.063076 121 131 117
0.026385 0.011090 0.018201 84 85 74
-0.003356 0.007541 -0.033099 115 109 83
-0.003243 0.007538 -0.033099 20 18 6
-0.003569 -0.011216 0.070251 117 124 118
-0.003370 0.007522 -0.033099 110 103 72
-0.003282 0.007523 -0.033099 138 25 12
-0.003379 0.007510 -0.033099 108 107 81
0.059560 -0.026552 0.098101 104 117 112
0.047756 -0.037611 0.085226 104 121 105
-0.061416 -0.009757 0.050076 118 130 122
0.027647 -0.022131 0.082701 107 119 111
-0.003313 0.007531 -0.033099 109 111 102
-0.003275 0.007502 -0.033099 101 109 96
0.014373 -0.023773 0.073801 117 125 122
-0.003326 0.007533 -0.033099 139 132 113
0.025036 0.009775 0.021951 50 48 38
-0.003264 0.007551 -0.033099 74 73 84
-0.014904 -0.020543 0.068626 94 99 87
0.035781 -0.024344 0.086551 107 116 107
-0.003320 0.007553 -0.033099 132 144 134
-0.003355 0.007507 -0.033099 110 109 94
-0.003372 0.007531 -0.033099 109 100 79
-0.003331 0.007504 -0.033099 128 132 125
-0.003331 0.007557 -0.033099 114 122 119
-0.001042 -0.023805 0.064826 123 132 123
0.078753 -0.043800 0.099426 96 114 110
-0.003361 0.007554 -0.033099 110 121 119
0.017880 0.004152 0.024126 71 88 93
-0.003256 0.007497 -0.033099 18 50 41
-0.003351 0.007508 -0.033099 119 105 86
-0.003266 0.007536 -0.033099 129 148 68
-0.003308 0.007534 -0.033099 127 40 7
-0.003284 0.007518 -0.033099 163 45 20
-0.003274 0.007535 -0.033099 132 144 68
-0.003341 0.007520 -0.033099 127 119 95
-0.002176 0.003979 0.021001 120 85 41
0.068808 -0.037081 0.097951 102 121 111
-0.003336 0.007531 -0.033099 131 123 97
0.056181 -0.025381 0.097651 105 117 107
0.042734 -0.032653 0.085701 110 123 120
-0.003331 0.007544 -0.033099 91 95 90
-0.003329 0.007529 -0.033099 139 124 96
-0.003308 0.007535 -0.033099 108 26 9
-0.003353 0.007539 -0.033099 116 106 76
-0.003345 0.007543 -0.033099 119 107 78
-0.003295 0.007536 -0.033099 88 25 4
-0.003381 0.007554 -0.033099 98 83 53
-0.003259 0.007555 -0.033099 169 129 142
-0.003336 0.007510 -0.033099 124 118 105
-0.003327 0.007556 -0.033099 145 152 146
0.020291 -0.015627 0.082026 112 113 107
0.054856 -0.034554 0.091326 108 123 109
-0.003320 0.007496 -0.033099 63 60 30
-0.003332 0.007540 -0.033099 167 170 171
-0.057759 -0.012248 0.050551 118 134 123
-0.003330 0.007509 -0.033099 123 124 120
-0.000330 0.006851 0.019926 27 16 11
0.029518 0.008143 0.017401 54 74 71
-0.003335 0.007547 -0.033099 81 80 82
-0.003378 0.007534 -0.033099 104 97 64
0.019421 -0.020320 0.078176 115 121 121
0.021137 0.002827 0.023401 103 153 161
-0.003244 0.007491 -0.033099 11 58 55
0.013722 -0.016714 0.077726 114 118 113
-0.054062 -0.022997 0.047501 128 135 129
0.033258 -0.006139 0.023101 7 30 22
-0.003369 0.007548 -0.033099 100 97 67
-0.003244 0.007488 -0.033099 101 113 105
-0.003309 0.007539 -0.033099 71 3 0
-0.016900 -0.024806 0.065251 120 127 119
-0.058800 -0.017462 0.047001 119 126 118
-0.003349 0.007516 -0.033099 124 111 87
-0.003335 0.007519 -0.033099 134 123 98
-0.003244 0.007543 -0.033099 149 127 119
0.015307 0.010741 0.019901 120 31 12
-0.003284 0.007553 -0.033099 175 124 137
-0.003307 0.007552 -0.033099 90 90 90
0.016412 -0.002336 0.050776 120 161 169
-0.003269 0.007550 -0.033099 187 137 154
-0.003278 0.007533 -0.033099 155 164 157
-0.003335 0.007560 -0.033099 107 114 118
-0.003283 0.007539 -0.033099 132 133 129
0.034456 -0.023092 0.086801 111 118 112
0.023418 0.000992 0.027751 111 150 157
-0.003338 0.007522 -0.033099 133 120 98
-0.003296 0.007528 -0.033099 89 78 71
0.042937 -0.032864 0.085551 114 123 116
0.030616 0.005297 0.020801 67 80 79
-0.003256 0.007543 -0.033099 172 121 132
-0.003338 0.007515 -0.033099 135 126 105
-0.006835 -0.027051 0.058576 86 99 98
-0.026087 0.016878 0.016351 119 113 89
-0.003311 0.007559 -0.033099 71 67 72
-0.000037 -0.024945 0.064801 119 131 123
-0.003322 0.007523 -0.033099 177 173 148
-0.003363 0.007531 -0.033099 112 101 76
0.008363 -0.031093 0.066026 114 127 122
0.029956 0.007591 0.020501 1 4 3
-0.003353 0.007519 -0.033099 117 111 87
0.040230 0.016039 0.035701 15 13 1
-0.037757 -0.020635 0.056976 118 133 119
-0.003277 0.007495 -0.033099 112 124 114
-0.003260 0.007552 -0.033099 181 136 153
-0.005173 0.004945 0.021551 41 43 32
-0.003309 0.007544 -0.033099 4 4 8
-0.003321 0.007507 -0.033099 47 53 51
0.010217 0.012883 0.019926 78 6 4
0.013874 -0.019948 0.075101 114 122 119
-0.019894 -0.027005 0.062551 130 139 132
-0.003360 0.007513 -0.033099 114 106 80
-0.003279 0.007539 -0.033099 95 97 103
0.024136 0.005548 0.021526 23 57 54
-0.003245 0.007488 -0.033099 97 115 109
-0.004567 -0.019476 0.065276 123 131 128
-0.003314 0.007554 -0.033099 117 117 117
-0.003334 0.007550 -0.033099 76 76 70
-0.002676 -0.017178 0.067676 120 129 122
0.031481 0.001419 0.020126 18 36 45
-0.003282 0.007547 -0.033099 106 101 99
0.071893 -0.043102 0.096151 97 118 107
-0.003284 0.007548 -0.033099 82 82 86
-0.003356 0.007548 -0.033099 112 102 72
-0.052955 -0.015940 0.051251 120 133 130
0.032645 -0.005507 0.024501 17 40 36
-0.003305 0.007549 -0.033099 139 140 134
-0.003316 0.007501 -0.033099 108 116 105
0.013729 -0.027932 0.070826 115 126 122
-0.003382 0.007545 -0.033099 107 102 71
0.025913 -0.013786 0.086376 102 103 97
-0.053067 -0.011692 0.052726 114 128 117
-0.003351 0.007537 -0.033099 119 107 76
-0.003313 0.007518 -0.033099 35 31 22
-0.003382 0.007542 -0.033099 106 96 64
0.030046 0.010061 0.016476 36 47 58
-0.003333 0.007559 -0.033099 110 117 121
-0.003324 0.007539 -0.033099 100 95 91
-0.003332 0.007517 -0.033099 134 123 100
-0.003338 0.007526 -0.033099 130 120 92
-0.003343 0.007552 -0.033099 67 72 60
0.043860 -0.019991 0.093151 105 112 104
-0.003321 0.007494 -0.033099 115 124 36
-0.003319 0.007530 -0.033099 160 171 167
-0.044165 -0.018619 0.054426 122 134 124
-0.003320 0.007494 -0.033099 101 109 39
0.050917 -0.021347 0.096751 104 111 103
-0.003316 0.007559 -0.033099 108 114 116
-0.003281 0.007556 -0.033099 181 130 143
-0.003250 0.007561 -0.033099 172 195 191
-0.003359 0.007550 -0.033099 101 95 71
0.025552 0.002900 0.021551 11 12 25
-0.003252 0.007549 -0.033099 150 105 112
-0.003332 0.007550 -0.033099 78 77 81
-0.002537 0.004430 0.020751 52 41 32
-0.003329 0.007534 -0.033099 135 122 98
-0.032951 -0.022306 0.058251 122 137 123
-0.003285 0.007540 -0.033099 131 141 129
-0.003264 0.007546 -0.033099 168 101 115
0.023303 0.005576 0.021876 67 106 111
-0.003310 0.007544 -0.033099 4 3 5
-0.003326 0.007510 -0.033099 127 132 122
0.068870 -0.032720 0.100376 100 118 114
0.031035 0.005974 0.020651 30 41 39
-0.041861 -0.017346 0.056076 124 138 129
-0.003352 0.007557 -0.033099 66 66 62
-0.003289 0.007559 -0.033099 167 114 128
-0.003268 0.007536 -0.033099 128 147 67
-0.003379 0.007513 -0.033099 118 119 90
-0.003369 0.007542 -0.033099 98 93 62
-0.003344 0.007541 -0.033099 121 106 76
0.016874 -0.022222 0.075876 113 120 114
0.057380 -0.014559 0.104276 99 108 99
-0.003352 0.007544 -0.033099 119 110 89
-0.020849 -0.018537 0.066376 129 136 128
-0.003346 0.007530 -0.033099 115 105 77
-0.003306 0.007536 -0.033099 147 52 15
-0.058443 -0.013285 0.049551 112 127 122
0.032332 -0.036279 0.077476 111 125 116
-0.003356 0.007507 -0.033099 112 105 88
-0.003376 0.007520 -0.033099 104 100 73
-0.018621 -0.024060 0.064726 134 139 129
-0.003341 0.007519 -0.033099 128 120 94
0.007208 -0.029813 0.066101 115 129 120
0.027673 0.009626 0.033976 4 5 1
-0.003353 0.007540 -0.033099 120 107 83
-0.003292 0.007522 -0.033099 189 127 99
-0.003380 0.007554 -0.033099 106 90 56
-0.003378 0.007538 -0.033099 97 99 67
0.017718 -0.020877 0.077801 114 120 118
-0.003365 0.007559 -0.033099 58 63 53
-0.003318 0.007545 -0.033099 69 43 14
0.031881 -0.000298 0.024426 81 101 96
-0.003284 0.007522 -0.033099 84 1 0
0.016189 0.009468 0.018126 144 55 13
0.034198 -0.007266 0.023151 13 42 41
-0.047218 -0.014175 0.054626 121 135 126
-0.028862 -0.023816 0.059951 125 137 127
0.007994 -0.023156 0.070651 115 126 122
-0.003305 0.007550 -0.033099 91 88 85
-0.021389 -0.015773 0.067351 129 137 126
0.008152 0.005563 0.018001 227 105 48
0.001142 -0.021593 0.067101 123 136 131
-0.003335 0.007552 -0.033099 74 78 73
0.019806 0.005649 0.022101 98 127 137
-0.004949 -0.023294 0.062351 119 131 121
0.031589 0.001622 0.020051 53 75 78
-0.003352 0.007514 -0.033099 116 110 86
-0.003321 0.007529 -0.033099 170 171 162
-0.003313 0.007534 -0.033099 136 60 14
-0.003332 0.007531 -0.033099 134 122 102
-0.003286 0.007539 -0.033099 145 140 99
-0.003343 0.007531 -0.033099 126 115 90
-0.045965 -0.019355 0.052876 121 135 126
-0.016681 -0.030680 0.063151 117 133 112
-0.003375 0.007507 -0.033099 98 102 79
-0.056156 -0.011211 0.051126 121 130 123
0.030532 0.006718 0.016176 29 44 59
-0.003248 0.007535 -0.033099 23 20 15
-0.003310 0.007532 -0.033099 172 61 34
-0.020463 -0.028067 0.062201 126 139 124
-0.003338 0.007540 -0.033099 128 116 89
-0.003294 0.007531 -0.033099 160 17 5
-0.045808 -0.013826 0.055851 123 133 121
-0.003343 0.007516 -0.033099 122 116 90
0.046590 -0.021490 0.094451 107 117 105
-0.003337 0.007534 -0.033099 130 120 90
-0.003296 0.007534 -0.033099 107 20 3
-0.003371 0.007542 -0.033099 101 90 56
0.029926 -0.003920 0.028476 0 18 8
0.030383 0.007133 0.024176 1 12 12
0.023525 -0.032521 0.074351 108 123 118
-0.003300 0.007544 -0.033099 100 100 38
-0.003308 0.007554 -0.033099 87 89 97
0.066114 -0.031403 0.099226 99 120 109
0.018815 -0.004786 0.056526 118 163 174
-0.003287 0.007508 -0.033099 125 164 173
-0.003292 0.007548 -0.033099 66 69 68
-0.003273 0.007544 -0.033099 108 112 39
-0.003374 0.007541 -0.033099 104 94 64
-0.003364 0.007526 -0.033099 111 106 75
-0.003342 0.007515 -0.033099 131 123 99
-0.000673 0.000155 0.031576 32 25 17
-0.003319 0.007519 -0.033099 192 195 194
0.022074 -0.034675 0.072251 109 123 114
0.034272 -0.001673 0.022526 8 8 10
-0.003304 0.007537 -0.033099 134 31 8
-0.003330 0.007543 -0.033099 99 103 96
-0.009426 -0.027867 0.059126 93 106 91
-0.003317 0.007546 -0.033099 64 40 13
-0.003298 0.007534 -0.033099 107 19 9
0.032396 -0.002898 0.024101 3 19 10
-0.039478 -0.012563 0.059351 123 127 122
-0.003361 0.007519 -0.033099 109 104 82
0.017418 0.003285 0.025676 53 84 84
-0.030726 -0.020155 0.060726 126 136 124
-0.003301 0.007549 -0.033099 66 59 68
-0.003277 0.007558 -0.033099 185 127 143
-0.003268 0.007553 -0.033099 180 133 149
-0.003304 0.007560 -0.033099 56 50 52
0.044573 -0.037848 0.083601 103 122 110
-0.003370 0.007557 -0.033099 105 112 104
-0.003285 0.007515 -0.033099 172 137 109
-0.003294 0.007534 -0.033099 137 48 4
0.030906 -0.008135 0.060851 111 155 160
0.021795 0.014231 0.017751 58 35 3
-0.003354 0.007530 -0.033099 112 105 76
