ply
format ascii 1.0
element vertex 1217
property float x
property float y
property float z
property uchar blue
property uchar green
property uchar red
end_header
0.038088 -0.019872 -0.040891 57 52 56
-0.008320 -0.030172 -0.002591 132 134 128
-0.051279 0.048259 0.014034 127 142 129
0.050191 0.013567 -0.027816 113 68 75
-0.039105 0.005006 0.026059 128 131 123
-0.039523 0.003448 0.024109 121 125 114
0.064744 0.035936 0.021034 57 61 50
-0.086408 -0.028153 0.015834 139 140 125
-0.063139 -0.040301 0.004484 142 147 127
-0.023844 -0.006404 0.015284 129 131 125
-0.038487 0.011141 0.028159 125 127 121
-0.080336 -0.034847 0.010534 132 133 120
-0.037082 0.033955 0.039834 103 114 113
-0.052936 0.042915 0.021134 99 99 93
0.095761 0.040037 0.015784 34 34 28
0.018527 0.035656 -0.012891 180 196 193
0.014413 0.038781 -0.010541 158 174 172
-0.011470 0.021245 0.029334 117 117 111
-0.040965 0.014678 0.031909 126 128 117
0.064576 0.023836 -0.039316 10 7 4
0.038338 -0.028157 -0.028891 26 19 28
-0.067067 -0.029181 0.011384 133 138 125
0.042314 -0.016613 -0.008891 6 11 7
-0.059698 0.000317 0.026734 137 140 125
0.050604 0.015315 -0.026816 131 114 99
-0.032308 0.013227 0.029359 124 126 120
0.049748 -0.016895 -0.007616 27 34 25
-0.004263 -0.006527 0.010309 119 126 117
-0.052163 -0.042822 -0.000691 140 142 124
-0.035287 0.036490 0.035734 110 121 113
0.075624 -0.008577 -0.009266 36 36 36
0.074816 0.022405 -0.024916 99 130 122
-0.085565 -0.034579 0.012109 135 137 126
-0.021535 0.012845 0.025959 118 120 114
0.029715 0.015621 -0.010441 156 167 165
0.018166 -0.002827 -0.024566 125 136 149
0.066321 -0.004453 -0.018216 97 107 95
-0.006473 0.026493 0.031434 43 44 41
0.041279 -0.038339 -0.019291 75 75 64
0.018949 0.050720 0.012284 98 104 97
0.047427 -0.022439 -0.042766 109 110 152
0.072650 0.015550 -0.023791 155 192 167
-0.017924 0.014194 0.026434 116 116 110
0.053083 -0.015536 -0.040991 154 115 4
-0.039602 -0.032871 0.002509 140 142 131
-0.035017 0.007150 0.025184 124 127 119
0.071608 0.018388 -0.024541 142 174 163
-0.050192 0.049878 0.009734 81 146 79
-0.026439 -0.029002 0.002059 132 139 130
0.023387 0.012912 -0.010391 115 111 111
0.047058 -0.019380 -0.040941 106 110 115
0.021581 0.048974 0.014359 152 170 167
0.065327 -0.000442 -0.001441 38 42 42
-0.041525 0.043378 0.021634 130 138 126
-0.026062 0.009325 0.025334 124 126 120
0.079428 -0.003336 -0.007191 61 75 58
-0.074063 0.003699 0.032359 131 135 117
-0.009104 -0.028705 -0.002116 132 139 130
0.095330 0.043847 0.019334 15 27 17
-0.052694 -0.040508 0.001209 139 143 125
0.073300 -0.030437 -0.021316 55 58 45
0.050488 0.014339 -0.027266 121 81 73
-0.022122 0.036795 0.036059 100 111 109
-0.017487 0.037283 0.036159 96 107 105
-0.020070 0.030213 0.035684 70 81 73
-0.098749 0.035578 0.030659 10 21 19
0.033181 -0.019570 -0.043441 57 53 64
0.052418 0.010330 -0.028916 101 75 60
-0.029452 -0.002347 0.018984 126 128 122
0.014541 0.017552 -0.009041 123 123 123
-0.016418 -0.012410 0.009709 127 133 126
0.055437 -0.021406 -0.043316 164 157 118
0.029845 -0.038065 -0.023266 12 15 18
-0.068022 0.044949 0.016884 128 141 128
-0.039424 -0.008273 0.017559 130 131 123
-0.031405 -0.041376 -0.004716 134 145 131
0.014628 -0.019348 -0.042716 239 248 239
-0.080107 0.002795 0.032784 128 133 118
-0.044710 0.027488 -0.039166 114 131 118
0.056862 0.033314 0.021084 61 66 62
-0.056283 -0.032870 0.006709 140 145 130
-0.049857 -0.040424 -0.000116 142 143 130
0.044791 -0.021640 -0.042066 130 136 129
-0.047294 -0.027900 0.007384 136 141 126
0.043089 -0.038026 -0.019316 52 62 50
-0.041385 0.044952 -0.005016 43 140 44
-0.060389 0.003865 0.029134 136 137 122
-0.083955 0.039523 0.023459 93 111 89
0.052831 -0.004634 -0.001091 79 81 75
-0.088185 0.006353 0.036984 120 130 111
-0.022035 -0.029653 0.000634 129 133 122
0.075148 0.016936 -0.025066 140 182 169
0.077472 -0.003618 -0.006466 59 65 58
0.022731 0.017112 -0.010366 146 160 163
-0.082511 0.010573 0.039109 120 124 106
0.063811 0.033265 0.019934 57 60 52
0.015726 0.022721 -0.002066 129 148 150
-0.069224 0.029931 0.042009 122 133 125
0.009902 0.025767 -0.011416 154 159 155
0.066401 0.035433 -0.030691 79 76 59
-0.036209 0.013845 0.030084 126 128 117
-0.078613 -0.034372 0.010584 124 129 109
0.012746 0.020060 -0.006441 104 110 103
0.001316 0.020623 0.024659 35 32 29
-0.032675 0.045519 0.020359 123 131 119
-0.004179 -0.028846 -0.003316 117 124 120
0.020603 0.026272 -0.004066 143 150 154
0.009723 -0.023443 -0.002791 104 108 107
0.064098 0.014223 -0.010441 56 27 14
-0.016126 0.019300 0.029834 118 118 112
-0.015410 0.024461 0.032184 116 117 109
-0.031741 -0.025886 0.005059 129 136 127
0.049078 -0.016500 -0.037766 131 132 110
0.073920 -0.027126 -0.019566 50 60 41
0.070341 0.018047 -0.024016 124 157 139
0.041346 -0.031500 -0.026316 41 35 48
0.009384 0.011275 -0.003616 132 132 126
-0.034823 -0.036068 0.000034 138 143 128
-0.033833 0.042910 0.025209 120 132 127
-0.073868 0.047837 0.011109 84 92 80
0.011310 -0.017705 -0.000091 10 16 15
0.056756 0.035822 0.022759 60 58 58
-0.052814 0.004950 0.028059 126 133 124
-0.046105 0.037820 0.031109 114 125 117
-0.003221 -0.040573 -0.010166 116 123 114
-0.055363 -0.042955 0.000434 132 141 125
-0.060486 -0.010944 0.020009 136 141 128
-0.013434 -0.010869 0.009834 123 131 124
0.014126 0.012311 -0.008991 130 131 123
0.067068 0.033615 0.019184 77 83 76
-0.005368 0.046341 0.022659 9 13 12
-0.068204 0.040479 0.026259 122 136 119
0.013931 0.015419 -0.010091 127 127 121
-0.014484 0.018019 0.027409 112 118 111
0.010877 -0.019797 -0.042566 212 220 208
0.018047 -0.032594 -0.026216 212 223 209
0.006555 -0.031860 -0.022191 26 26 27
-0.003029 -0.023459 0.000384 125 133 126
-0.009025 -0.000133 0.014884 122 125 117
0.014742 0.028355 -0.015341 174 189 190
0.065652 0.024323 -0.008916 5 9 8
0.063474 0.038611 -0.005966 104 79 2
0.064412 0.002878 0.000759 77 74 64
-0.041720 0.007691 0.027609 126 130 119
-0.051068 0.034087 0.038734 118 129 121
-0.069808 0.046870 0.013184 112 120 108
0.058002 0.007363 -0.024866 141 135 123
-0.073130 -0.024049 0.015034 133 139 121
0.034469 0.011180 -0.004716 117 122 125
0.048871 -0.018845 -0.038641 157 155 131
-0.031355 0.048949 0.013434 125 134 125
0.038319 -0.010327 -0.004891 71 74 66
-0.073011 -0.046902 0.002259 140 143 130
-0.052862 -0.023181 0.011884 139 143 125
-0.001302 0.011729 0.021209 112 114 108
-0.050958 -0.032409 0.005309 135 144 130
-0.039175 0.046417 -0.002041 122 130 118
0.003908 -0.038039 -0.016816 51 51 63
-0.017152 0.016385 0.027559 113 120 111
-0.051986 0.007319 0.029259 131 134 121
0.052946 -0.024340 -0.044491 151 110 0
-0.030729 0.009063 0.026509 122 130 118
-0.072745 -0.035650 0.007834 142 141 124
0.018097 0.033919 -0.013316 174 189 190
-0.031659 -0.007441 0.015709 126 134 122
0.085413 0.010297 0.000784 73 79 61
-0.037863 0.034744 0.038484 114 126 116
0.027934 0.011098 -0.011341 114 116 110
0.053378 0.003084 -0.020266 121 127 120
-0.030290 -0.043842 -0.006391 135 147 128
0.063449 0.002314 -0.008991 33 38 41
-0.061888 -0.013525 0.019684 137 140 125
0.022710 0.021479 -0.008966 132 144 154
0.020708 0.018975 -0.008991 137 157 157
-0.080899 0.038688 0.027384 74 99 84
-0.064459 0.042947 0.018059 118 128 116
0.056077 -0.020847 -0.042591 170 136 90
0.016330 0.026617 -0.015041 201 211 213
-0.013950 0.002834 0.018209 118 123 119
0.044322 0.016411 -0.016341 4 10 9
0.057118 -0.021470 -0.023841 29 31 13
-0.013689 -0.009675 0.010684 122 128 121
0.031341 0.014676 -0.010091 144 160 158
0.023206 -0.013476 -0.002391 98 108 103
0.063091 -0.012243 -0.042091 133 132 110
-0.040208 -0.016992 0.012059 130 138 126
-0.030135 -0.040193 -0.003891 142 148 130
0.016690 -0.016852 -0.043391 239 248 239
0.023480 -0.005629 -0.038316 62 52 70
-0.023069 0.049464 0.014609 81 89 77
-0.063230 0.039969 0.027234 130 137 128
-0.043843 -0.012564 0.016259 135 137 126
-0.053224 0.039030 0.030084 127 137 125
-0.080433 -0.030344 0.013884 120 124 106
0.037986 -0.012878 -0.005216 52 57 53
0.084313 0.039943 0.018759 34 39 35
0.051287 -0.029373 -0.015641 19 27 20
-0.007831 -0.029178 -0.002341 130 136 129
0.028038 -0.037841 -0.020991 6 11 7
-0.013012 0.028447 0.033559 100 106 99
-0.063503 -0.028641 0.010284 140 143 128
-0.023573 -0.025303 0.003609 132 135 127
0.028448 0.040666 0.031659 20 25 21
0.030933 -0.037181 -0.023291 22 20 21
-0.044750 -0.037954 0.000309 135 141 123
-0.037815 0.042311 0.025784 123 134 126
-0.023809 -0.022844 0.004809 126 133 124
0.021170 0.018991 -0.009416 152 173 169
0.037272 0.015733 -0.004941 41 63 63
0.018733 -0.035686 -0.027366 3 3 3
0.063206 -0.018732 -0.044916 149 171 150
-0.042008 0.017846 0.033984 124 128 117
0.064433 -0.000224 -0.012966 8 11 27
0.079265 -0.004676 -0.007466 54 58 47
0.046777 0.006552 -0.023991 96 55 26
-0.076268 0.012767 0.038309 129 130 115
0.028903 0.016873 -0.010891 149 160 159
-0.063927 0.031783 0.039684 119 128 119
0.035366 -0.002990 -0.009791 40 42 54
-0.041322 -0.027983 0.006059 137 141 130
0.040791 -0.033565 -0.020191 39 33 46
0.051294 0.009428 -0.029766 118 102 85
0.018091 -0.009115 -0.003916 125 124 128
-0.095703 -0.010860 0.028259 124 129 114
0.000654 -0.038677 -0.010166 15 16 13
0.067739 0.006860 -0.012791 7 3 80
-0.012960 -0.013132 0.008309 134 135 127
-0.009651 -0.028906 -0.002016 130 138 126
0.013383 -0.016775 -0.043216 163 169 168
-0.049721 0.006164 0.028059 128 132 121
-0.013401 -0.006245 0.012334 127 126 123
0.047227 -0.023761 -0.043966 183 187 164
-0.073389 0.045343 0.014309 108 124 109
0.045525 -0.018906 -0.041166 160 162 151
-0.060569 0.044405 0.017109 126 133 124
0.036837 -0.005214 -0.038916 18 17 14
-0.010701 -0.043903 -0.010291 124 134 122
0.032676 0.012496 -0.010441 128 134 127
-0.056020 -0.015889 0.016809 137 142 129
0.043224 -0.007960 -0.000691 40 35 30
0.049987 -0.026269 -0.043041 117 105 88
-0.053935 0.033686 0.038509 114 126 121
0.058943 -0.007784 -0.004266 57 59 53
-0.004196 -0.034175 -0.006516 121 127 120
0.015997 -0.008074 -0.006116 121 125 124
-0.101364 0.011662 0.043134 118 123 110
0.083485 0.003604 -0.003291 72 79 59
-0.015247 0.025991 0.033234 116 116 110
0.024267 -0.009822 -0.044641 41 39 56
0.014320 -0.019045 -0.001766 45 50 46
0.053651 0.038696 0.025684 37 44 35
-0.005591 -0.042363 -0.010866 128 136 124
-0.067969 -0.046223 0.000959 143 148 135
0.012974 0.050644 0.016509 104 111 107
0.016669 0.025422 -0.002691 154 177 174
0.057613 -0.025814 -0.043866 162 130 74
0.049957 -0.012905 -0.005716 47 47 47
-0.000065 -0.035597 -0.008716 13 14 11
0.048809 -0.006074 -0.000841 44 40 41
0.029935 0.010794 -0.011091 115 111 104
0.033740 -0.019112 -0.042491 39 41 53
0.030813 -0.035177 -0.022791 27 23 29
0.044815 0.003117 -0.018666 61 27 7
0.028231 -0.027323 -0.026591 44 42 48
-0.078815 -0.043663 0.005309 130 131 123
-0.020818 -0.042845 -0.007666 139 148 134
0.051851 0.034523 0.023134 64 72 60
0.015437 0.025175 -0.013716 187 198 196
0.046067 -0.020032 -0.008891 31 42 40
0.013971 0.035214 -0.011716 161 179 177
0.012304 -0.035280 -0.027516 46 40 53
-0.029566 -0.024620 0.005284 133 136 128
-0.056953 -0.008223 0.021609 138 141 128
0.005457 -0.032481 -0.022316 25 28 36
-0.029764 -0.025164 0.004734 130 137 128
-0.006298 0.020400 0.027959 84 84 84
-0.034976 -0.005920 0.017784 130 135 122
0.072094 0.038482 0.019509 48 51 43
-0.018155 0.043894 0.023759 108 123 115
-0.087443 -0.009565 0.027134 132 135 120
0.000140 0.000776 0.013734 118 122 111
-0.047152 0.020208 0.036434 125 125 119
0.056034 -0.010052 -0.005066 41 47 46
-0.079280 -0.037836 0.008434 126 131 116
0.031138 0.043991 0.030609 17 28 26
-0.001150 -0.031559 -0.005516 45 54 40
0.039816 -0.023289 -0.041091 12 16 15
-0.042066 -0.039470 -0.001091 138 143 130
0.023469 -0.026307 -0.032066 53 48 64
0.073380 0.018202 -0.025591 127 174 166
-0.009162 0.006076 0.019384 123 123 117
0.003069 -0.008983 0.006784 122 128 121
-0.028088 -0.022836 0.006284 131 134 126
-0.003330 0.032541 0.032859 98 102 102
0.064183 -0.000232 -0.012316 10 12 31
-0.000770 -0.005073 0.010484 119 120 117
0.021647 -0.036321 -0.026266 19 22 25
0.018269 -0.000316 -0.024141 132 134 153
-0.069308 -0.019160 0.016809 137 141 123
0.065774 0.013315 -0.011216 0 3 56
-0.002673 -0.008260 0.010009 14 12 12
-0.022591 -0.006474 0.014709 125 132 123
0.030283 0.034191 0.027434 60 61 58
-0.098376 0.035230 0.030609 14 28 23
0.064018 -0.014623 -0.043791 102 101 32
0.012266 0.007800 -0.003341 91 94 86
0.013952 0.013281 -0.009266 131 133 127
0.030830 -0.017620 -0.046891 45 41 47
-0.031587 0.012817 0.028384 125 127 116
0.047992 0.004607 -0.025741 91 31 17
0.060961 0.028575 -0.050016 110 118 111
-0.097617 0.025704 0.046959 68 77 75
0.064340 0.001881 0.000384 54 43 44
0.029861 0.010553 -0.011041 114 112 106
0.062992 -0.024217 -0.045741 153 154 125
-0.005655 -0.018758 0.003184 123 129 122
0.066669 0.024681 -0.039566 161 173 149
0.062892 -0.018865 -0.044616 144 166 145
0.049764 -0.026594 -0.043616 115 97 87
-0.073735 -0.047174 0.001309 131 142 128
-0.046723 0.035292 0.037184 119 129 124
0.027598 0.002574 -0.024066 96 105 123
0.046845 -0.036557 -0.019191 61 63 57
0.091063 0.043119 0.019334 68 71 58
0.002716 -0.011926 0.004934 130 130 124
-0.059951 -0.011465 0.019984 135 144 128
0.084329 0.013483 -0.004191 19 19 19
-0.056081 -0.037780 0.002959 144 148 130
-0.012596 0.039590 0.032334 96 107 106
0.021756 -0.024053 -0.035741 56 41 67
-0.034405 0.049667 0.011834 134 142 130
-0.028282 -0.015218 0.010459 126 133 124
-0.075234 -0.027811 0.013734 141 142 127
0.063300 0.001339 0.000059 44 48 47
0.060057 0.040409 -0.006966 119 103 72
-0.045287 0.044221 0.022334 130 137 128
-0.003036 -0.017355 0.003684 126 126 120
0.091435 0.010468 -0.000516 84 98 81
0.033878 0.051951 0.019009 29 35 34
-0.078430 -0.024757 0.015584 121 127 109
-0.001388 -0.035209 -0.007291 120 125 121
-0.085584 0.015407 0.041509 109 114 101
-0.057786 0.046177 0.015634 125 134 125
-0.048720 -0.025964 0.008634 137 142 129
0.027454 0.015585 -0.010716 155 168 167
0.009044 -0.006999 0.006909 96 94 94
-0.021070 -0.042706 -0.007366 140 149 133
-0.035469 -0.020627 0.009534 132 135 127
-0.039519 -0.042229 -0.003316 135 145 126
-0.087823 0.032338 0.035284 60 71 55
-0.103198 0.025755 0.047309 98 116 107
-0.033546 -0.026838 0.005134 137 137 126
-0.091930 -0.008275 0.029384 132 135 120
-0.013117 -0.018401 0.005084 137 137 131
0.007084 -0.031312 -0.020666 24 26 20
-0.047151 0.015031 0.033309 124 128 117
-0.049675 -0.004235 0.022409 128 137 123
0.000026 0.025763 0.029034 101 104 96
-0.066262 0.022015 0.042384 115 120 105
0.050596 -0.011686 -0.005091 47 53 52
-0.078747 0.040011 0.022484 85 105 91
0.044916 -0.009314 -0.002616 51 51 51
-0.095145 0.018581 0.046584 76 79 66
0.080541 0.033627 0.017009 29 38 29
0.017771 -0.026236 -0.030966 239 248 239
0.023494 0.004669 -0.027816 50 48 49
0.049762 -0.018678 -0.037766 153 147 135
0.082976 0.043946 0.021059 22 27 23
-0.017574 -0.001671 0.016259 119 125 118
0.021515 0.005553 -0.022091 63 69 68
-0.073034 0.046248 0.013409 112 123 107
0.015490 -0.034405 -0.027991 194 205 184
0.019575 -0.014836 -0.043591 115 118 121
0.023311 -0.032248 -0.023666 11 16 19
0.048956 0.003593 0.004759 58 64 57
0.027948 0.047110 0.023409 40 56 53
0.036026 0.047261 0.025609 22 27 23
-0.046417 0.003154 0.026084 128 131 118
0.064377 0.021747 -0.012416 10 10 11
-0.028289 -0.039300 -0.004466 142 145 130
0.032277 -0.020176 -0.045466 61 58 67
-0.064145 -0.003148 0.025359 131 136 123
-0.075501 -0.048835 0.002284 129 144 131
0.014381 -0.019272 -0.043016 239 248 239
-0.024179 -0.015902 0.009709 132 132 126
0.019665 0.004066 -0.027091 29 33 33
-0.043783 -0.019456 0.011384 137 137 131
0.051615 0.006760 -0.028866 153 155 149
-0.068048 0.016856 0.039109 123 126 111
0.068643 0.040051 0.022634 51 52 39
0.023153 0.006684 -0.016091 61 60 57
-0.009067 -0.039404 -0.008341 129 136 127
0.082218 -0.011745 -0.012066 42 53 39
-0.041020 0.032461 0.041359 85 90 86
0.015139 0.025214 -0.003716 154 172 170
0.044955 -0.022011 -0.009816 29 36 32
-0.054470 -0.043109 -0.000391 136 142 124
-0.033805 0.001821 0.021634 125 126 118
-0.012788 -0.026006 0.000484 127 133 126
0.007465 -0.004086 -0.030416 25 25 25
-0.003769 0.047571 0.019584 21 25 24
0.019161 -0.014358 -0.043666 185 193 186
-0.018484 -0.043181 -0.008541 132 142 130
0.034209 0.000205 -0.016616 41 46 67
-0.033810 -0.015901 0.011234 132 134 123
-0.061891 -0.027667 0.009834 141 144 129
-0.005198 -0.029925 -0.003541 128 129 126
-0.060085 0.032429 0.039334 116 128 118
0.065440 0.027513 -0.036291 21 32 18
-0.017558 0.030719 0.035909 83 83 77
0.024642 0.003514 -0.024016 110 112 124
0.052297 0.029353 0.020234 51 49 43
0.009315 0.013155 -0.004841 136 132 125
0.019693 -0.021992 -0.039066 85 69 91
-0.015029 -0.030832 -0.002091 128 130 119
0.056740 0.004246 -0.016641 149 153 142
-0.051275 0.006304 0.028884 132 135 122
0.077158 -0.005631 -0.007016 68 72 61
-0.025428 0.036258 0.036784 109 121 116
0.064213 0.023194 -0.042091 134 152 137
0.068956 0.016735 -0.021766 100 118 101
0.069172 -0.012184 -0.009691 34 39 35
0.022161 -0.014934 -0.045366 75 60 84
-0.017723 -0.028142 0.000359 127 135 123
-0.079462 -0.021621 0.018134 127 131 113
-0.034650 -0.019348 0.009409 133 136 128
-0.069090 0.030244 0.041734 121 130 121
-0.029683 0.026327 0.036059 111 112 109
-0.089697 0.020916 0.045359 20 26 19
0.036135 0.045474 0.026909 12 18 18
0.053442 -0.022100 -0.044316 166 125 14
0.003009 -0.030808 -0.006066 111 119 112
0.061556 -0.024467 -0.015491 24 25 12
0.087062 0.005202 -0.002616 69 81 57
0.084588 0.000121 -0.005441 79 86 66
-0.016128 -0.038234 -0.006091 132 135 127
0.041768 -0.037014 -0.018141 60 71 57
-0.018020 -0.024217 0.002809 126 133 124
0.023474 -0.036789 -0.025241 18 16 22
-0.044741 -0.013499 0.015459 137 140 125
0.027159 0.023863 -0.001166 78 79 87
0.069049 0.016005 -0.020691 78 97 86
-0.046396 -0.008354 0.018784 134 137 124
-0.036171 -0.037109 -0.000666 135 143 131
0.014445 0.002608 -0.021891 36 35 32
0.026105 -0.029641 -0.022941 62 52 70
0.001499 -0.040092 -0.015916 7 12 8
-0.068632 -0.022851 0.015109 141 142 127
0.041331 0.012001 -0.000391 11 11 11
0.025924 -0.035266 -0.024141 25 19 30
0.073100 -0.029293 -0.020666 48 53 38
0.045468 -0.006282 -0.000341 67 66 63
0.028565 -0.022553 -0.043566 18 15 19
0.010333 -0.021837 -0.001991 95 102 98
0.050676 -0.022736 -0.039891 151 149 116
0.065216 -0.001547 -0.007716 17 13 42
-0.028870 0.049255 0.011784 122 132 127
0.028960 0.052313 0.015509 74 78 77
-0.000698 0.001277 0.014184 113 119 112
0.097455 0.038818 0.015409 48 53 40
0.040418 -0.006470 -0.005816 12 10 11
0.059031 0.041097 -0.004691 91 85 51
-0.014615 -0.028005 0.000159 123 129 122
-0.053123 -0.000865 0.024959 133 137 126
0.033352 -0.020042 -0.044066 0 3 2
-0.017040 0.018460 0.029334 117 116 113
0.033409 -0.014013 -0.043041 43 49 49
0.045232 0.007727 -0.018091 86 92 92
-0.035060 -0.022881 0.007559 137 138 130
-0.040101 -0.015438 0.013084 135 140 127
-0.042964 -0.024822 0.008209 140 143 130
-0.000984 0.049049 0.017509 80 91 89
0.069521 0.018878 -0.017416 4 16 6
-0.071811 -0.017777 0.017934 135 138 123
-0.069654 -0.026316 0.013259 139 145 122
0.077698 -0.010484 -0.010116 59 63 52
0.055290 0.010908 -0.027316 102 76 61
-0.046173 0.036935 0.033134 63 69 68
-0.058023 -0.028908 0.009309 143 148 133
0.014747 0.022156 -0.002266 110 125 126
-0.056783 -0.032693 0.006759 140 142 131
0.028055 -0.011131 -0.040416 58 51 52
0.053321 -0.016013 -0.008441 40 49 48
0.017700 0.003225 -0.024016 46 44 44
0.031181 -0.031227 -0.024566 24 22 28
-0.059009 -0.035728 0.005109 139 146 126
0.012866 0.029958 -0.014641 171 184 183
0.020317 -0.037219 -0.026141 31 28 32
0.003982 -0.038290 -0.016766 49 49 61
-0.010184 -0.031685 -0.003491 129 135 128
-0.042409 0.033362 0.038659 121 131 126
0.021169 -0.023431 -0.037466 70 61 77
-0.015407 0.027293 0.034184 111 114 106
-0.002463 -0.009555 0.007984 14 18 18
0.068774 -0.021913 -0.021566 26 22 15
0.003507 -0.029631 -0.017716 110 121 113
0.047316 -0.027745 -0.044891 215 217 186
0.066181 0.040454 0.023734 43 51 39
0.043457 -0.029964 -0.027991 53 48 57
-0.067212 0.012847 0.036209 127 130 117
0.050593 -0.009584 -0.003541 54 58 57
-0.007292 -0.023613 0.001159 137 137 131
0.050889 -0.012760 -0.039316 61 70 54
0.010669 -0.031355 -0.019816 203 208 195
-0.077484 -0.038901 0.007209 123 130 110
0.062087 -0.028840 -0.017791 41 39 33
-0.014833 -0.038889 -0.006916 130 133 125
0.073678 -0.012152 -0.010666 37 50 42
-0.062721 0.037790 0.029584 123 133 121
0.028377 0.003086 -0.023741 115 122 113
0.037195 0.043216 0.031884 3 7 6
0.061917 -0.008488 -0.005216 41 50 41
0.013844 -0.015579 -0.043366 90 90 84
-0.003321 -0.012625 0.006234 123 125 119
-0.061751 -0.001641 0.026009 134 137 122
-0.049400 -0.031171 0.005984 136 141 126
-0.041525 0.000123 0.022509 157 171 161
0.044959 -0.008975 -0.002466 51 56 52
-0.047974 0.043818 0.022409 130 144 129
0.079884 -0.001845 -0.005841 70 73 58
-0.000609 -0.034732 -0.007466 24 24 24
0.011935 -0.019719 -0.042416 233 242 228
0.005397 -0.028526 -0.014141 116 123 114
-0.031313 -0.044694 -0.006391 133 144 130
-0.072395 0.049387 0.007884 99 113 103
-0.043328 -0.042618 -0.002241 138 143 130
0.081521 -0.005312 -0.008191 47 56 42
0.008778 0.008578 0.000784 101 99 93
0.011472 0.044136 0.027209 77 85 78
-0.012602 0.030826 0.034634 98 99 91
0.031013 -0.018137 -0.047041 56 49 58
-0.028076 -0.038572 -0.003266 140 149 135
0.075211 -0.012128 -0.011566 39 48 39
0.051963 0.035257 0.023534 66 69 61
0.076124 -0.010513 -0.009841 32 46 36
-0.047562 -0.024604 0.009059 139 139 128
-0.078148 -0.043517 0.005159 124 129 116
0.022326 -0.004651 -0.037216 62 52 75
0.071175 -0.027798 -0.019866 97 89 60
0.030172 -0.017511 -0.046191 44 40 53
-0.022262 -0.009261 0.012959 130 130 124
0.084961 -0.001236 -0.006341 72 76 65
0.018444 0.024840 -0.003841 145 161 164
-0.059933 -0.017974 0.014884 133 139 121
-0.094257 0.027134 0.045759 20 18 18
-0.088714 0.015253 0.042509 116 119 104
0.050510 0.039053 0.023709 26 33 24
0.073159 -0.034526 -0.024591 53 58 45
-0.082525 -0.041929 0.007734 131 143 133
0.064819 0.001615 -0.014616 4 21 15
0.056401 -0.023991 -0.043966 169 146 103
0.038985 0.004399 0.007034 25 23 24
-0.066205 0.000973 0.028759 136 141 126
-0.011259 0.010315 0.022184 117 119 113
0.046007 -0.019260 -0.008541 44 49 45
-0.017960 0.036438 0.038134 84 92 85
-0.075607 0.034890 0.033709 117 127 115
0.032905 -0.023959 -0.041441 45 34 41
0.053985 -0.027723 -0.046316 152 116 16
0.010044 0.016626 -0.009116 135 136 128
-0.005991 -0.034786 -0.006466 128 131 123
0.067330 0.034854 0.019584 60 64 53
0.027207 -0.016447 -0.043116 75 60 84
0.060583 -0.008566 -0.005316 50 54 43
-0.003480 -0.034432 -0.006791 122 125 117
-0.041322 -0.027888 0.006059 137 139 128
0.031247 0.012759 -0.011066 125 124 121
0.065228 0.000199 -0.015841 0 2 46
-0.050300 0.017201 0.035534 127 128 120
0.026828 0.015678 -0.008716 141 148 144
0.062998 -0.035452 -0.022841 80 88 65
-0.021018 0.017887 0.029184 112 117 113
0.046486 -0.029222 -0.042641 130 138 115
0.036220 0.006899 -0.028841 16 16 17
-0.066095 -0.000242 0.028109 133 136 121
-0.005080 -0.026273 -0.001141 116 126 121
0.061004 -0.009731 -0.005741 38 45 41
0.075549 -0.033127 -0.024891 82 85 70
-0.056226 0.038678 0.027784 122 132 127
0.082301 0.042402 0.021184 103 113 101
0.010132 0.042346 0.030759 44 54 49
-0.088799 0.000169 0.033909 130 135 115
-0.055106 -0.046667 -0.002491 142 145 130
-0.070516 0.024879 0.044659 24 34 29
-0.002600 -0.031826 -0.004866 123 125 119
-0.066623 -0.004782 0.025534 134 138 120
0.021463 -0.007492 -0.037616 48 36 59
0.037439 -0.013856 -0.004966 51 51 51
0.007717 -0.027751 -0.027966 20 25 21
0.042110 0.020097 -0.020791 62 62 51
0.019230 -0.020261 -0.041241 174 177 169
0.063155 -0.013465 -0.043166 98 88 40
-0.097176 0.007905 0.040484 123 127 116
0.024289 0.014391 -0.009716 118 116 110
0.013659 0.051008 0.014984 97 107 102
-0.095715 0.028019 0.043609 10 17 8
0.012662 -0.006607 -0.006341 139 143 132
-0.051564 0.002730 0.027184 135 135 124
-0.035528 0.040689 0.027884 117 129 119
-0.018236 -0.020038 0.005359 128 130 124
0.024183 -0.017693 -0.043766 76 69 90
0.062927 0.027771 -0.006616 39 45 45
0.029766 0.039448 0.030409 25 27 21
-0.085653 0.000858 0.032909 125 126 111
0.044169 0.011756 -0.013766 24 28 74
-0.040718 -0.012669 0.015259 127 134 125
0.014291 0.012139 -0.009041 125 129 118
0.006585 -0.038149 -0.022866 41 41 53
0.009757 -0.025171 -0.042291 110 109 106
-0.050784 -0.008334 0.020059 132 137 124
-0.062890 0.023842 0.041609 87 87 76
0.070774 0.033115 0.018359 137 161 149
0.056928 -0.026851 -0.045316 169 166 117
-0.076286 -0.015771 0.021059 132 137 124
-0.020292 -0.034914 -0.002916 132 133 125
-0.017711 0.037156 0.036109 98 109 107
-0.014379 -0.040852 -0.007816 131 136 121
0.011705 0.014214 -0.009816 139 141 130
0.015208 0.038128 -0.011266 158 173 174
-0.013124 -0.026519 0.000359 128 133 129
-0.009095 0.023558 0.029909 105 110 106
0.041584 -0.024456 -0.034791 10 13 16
0.024825 -0.013636 -0.045041 80 68 93
0.046289 0.019918 -0.022916 13 16 24
-0.014870 0.048343 0.018159 123 131 124
0.074030 -0.031131 -0.022166 60 65 50
0.048258 0.014507 -0.027066 39 56 89
-0.016094 -0.023953 0.002409 125 131 124
0.024066 0.007903 -0.010216 80 77 74
-0.016879 0.001284 0.017884 123 125 119
0.014034 0.052035 0.013684 88 94 87
0.050165 -0.023257 -0.013516 9 13 12
0.088734 0.002532 -0.005016 86 86 67
0.044580 0.007107 -0.015516 43 14 13
0.022693 0.019847 -0.010741 143 160 161
0.046911 -0.012481 -0.004166 27 37 32
0.034068 -0.004333 -0.007591 56 59 62
0.073176 0.014979 -0.025241 150 187 175
0.017667 -0.014136 -0.044216 147 155 148
0.002782 -0.002070 0.011434 98 105 96
0.066148 0.017519 -0.012591 7 13 13
-0.061700 0.043184 0.018509 114 119 115
0.049407 0.019156 -0.024666 106 58 48
0.065483 0.043945 0.019659 0 4 3
-0.053564 -0.038655 0.001659 145 151 128
-0.067777 0.021903 0.041509 111 112 97
-0.030042 -0.042673 -0.005641 139 145 127
-0.069122 -0.005859 0.025334 132 135 120
0.015615 -0.019245 -0.042891 239 248 239
0.025148 -0.005371 -0.040841 74 62 79
-0.025428 -0.026646 0.002984 127 136 127
-0.040172 -0.032421 0.003234 139 142 127
-0.017326 -0.031966 -0.002466 127 134 125
-0.094612 -0.000180 0.034534 128 130 119
-0.062316 0.010383 0.033959 130 133 118
-0.054374 0.007892 0.029634 133 134 121
0.066116 0.001446 -0.017141 2 4 57
-0.057946 -0.015677 0.017609 136 141 126
-0.084660 -0.013005 0.025209 123 135 111
-0.038788 0.035159 0.037659 113 120 116
-0.048245 -0.039328 0.001209 136 142 124
0.027940 0.050449 0.017984 62 70 58
0.077099 0.019067 -0.026291 124 153 138
0.031545 -0.014380 -0.042341 194 193 190
-0.049350 -0.032953 0.004884 137 142 127
-0.096471 0.013387 0.043459 122 123 108
-0.061559 0.037653 0.028559 120 133 125
0.012765 -0.020682 -0.042116 239 248 239
0.018675 0.008528 -0.008241 102 100 94
0.050883 0.013680 -0.027491 115 73 65
0.063709 -0.006790 -0.004866 50 53 45
0.027395 -0.020618 -0.039166 67 58 79
-0.021847 0.018977 0.029934 111 117 110
0.010371 0.019529 -0.008141 105 109 108
0.033881 -0.018941 -0.041991 41 42 57
-0.041118 -0.039763 -0.001016 139 144 129
-0.005551 0.002298 0.016184 112 117 113
-0.003983 -0.042707 -0.011241 121 125 114
-0.017164 -0.043947 -0.009141 132 143 129
-0.070532 0.020577 0.041484 122 123 108
-0.046364 -0.022663 0.010084 136 141 126
0.073766 -0.034821 -0.024766 60 65 50
0.015014 0.010273 -0.007391 111 110 102
0.024673 0.005984 -0.023791 61 71 66
0.019902 0.030478 -0.014766 169 180 184
0.068113 0.005656 -0.012691 10 3 69
0.069116 0.020512 -0.020966 13 17 6
-0.046147 0.041051 0.028834 125 138 125
0.019577 0.032159 -0.013866 174 185 184
-0.024398 -0.039975 -0.005016 135 144 130
-0.002169 0.051906 0.012809 106 111 107
0.011715 -0.030926 -0.021416 204 213 199
0.086667 0.006735 -0.001841 85 84 67
-0.024757 0.048662 0.014909 50 52 46
0.062977 -0.018295 -0.044141 138 161 143
0.046120 0.015589 -0.018866 20 58 112
0.055509 -0.010802 -0.005316 39 46 42
-0.052624 -0.008882 0.020434 138 140 129
-0.015711 0.043567 0.024484 111 121 116
0.007018 0.018000 -0.008266 137 138 130
0.064321 -0.001177 -0.009441 9 17 37
-0.023160 -0.039664 -0.005416 139 143 132
-0.087266 0.019130 0.044784 99 98 81
0.072381 0.019064 -0.023991 145 183 169
-0.033014 0.005605 0.024284 126 128 122
-0.033646 0.043823 0.023884 124 136 126
-0.027841 0.049371 0.012659 130 134 123
-0.001345 0.024944 0.029484 111 110 107
-0.086942 0.031045 0.044859 20 25 21
0.076823 -0.010873 -0.010341 41 49 42
-0.080557 -0.017763 0.020984 122 130 107
0.044991 -0.021106 -0.042291 154 156 145
-0.062028 -0.032596 0.007484 139 149 130
-0.062931 0.048168 0.010659 130 143 130
0.032304 -0.016034 -0.044741 147 155 148
0.068847 -0.006863 -0.006341 31 36 32
-0.025238 -0.009016 0.013684 125 131 124
-0.031416 0.015493 0.029759 125 127 116
0.065996 0.021152 -0.037491 94 108 93
-0.005631 -0.043426 -0.011691 127 136 122
-0.059344 -0.026180 0.010159 141 142 127
0.081003 0.014952 -0.000441 12 18 11
-0.085155 0.031305 0.037784 27 30 22
-0.061510 -0.001317 0.026184 132 137 122
-0.054161 -0.024788 0.010509 141 143 132
-0.073591 0.007073 0.034434 130 135 115
0.022814 -0.017733 -0.002791 68 79 77
-0.037396 -0.044149 -0.004016 139 146 126
-0.055323 0.030844 0.041059 103 113 108
-0.032578 -0.001017 0.020384 127 128 120
-0.050550 -0.022104 0.011359 139 140 125
-0.046355 -0.031040 0.005084 134 143 129
-0.024308 0.001289 0.020009 125 128 120
-0.087593 -0.003975 0.030784 132 134 116
-0.062616 -0.007858 0.022559 135 138 125
0.064399 0.033784 -0.038241 120 118 104
-0.033129 0.051196 0.010659 140 142 131
0.007552 0.006301 -0.003641 103 106 98
0.051549 -0.018931 -0.041066 141 105 12
0.007756 0.017074 -0.007691 126 127 119
-0.004929 -0.022928 0.000434 125 130 126
0.026932 0.015523 -0.007966 124 134 129
-0.083466 -0.015788 0.023034 129 132 112
0.034108 -0.000342 -0.016366 32 37 58
-0.021691 0.050946 0.011034 125 133 126
-0.079663 -0.039140 0.007059 128 137 123
0.021835 -0.010543 -0.044016 53 45 63
-0.011745 0.003449 0.017984 119 124 120
-0.019463 -0.019355 0.005784 129 131 125
0.026255 -0.007903 -0.044416 64 59 75
0.000659 0.007652 0.017509 110 113 105
0.063450 -0.013790 -0.010066 43 49 42
-0.056232 0.040939 0.025134 128 137 128
0.036472 0.014112 -0.008541 100 111 115
-0.018945 -0.027640 0.001309 126 135 126
-0.010288 -0.020717 0.003309 136 138 132
-0.073056 -0.011174 0.022759 137 138 123
-0.029552 0.041554 0.027409 103 116 108
-0.024049 0.019411 0.030759 115 117 111
-0.029589 -0.013093 0.012534 133 134 126
-0.015211 -0.042660 -0.008591 132 140 128
0.017720 -0.036814 -0.027866 33 33 43
-0.037400 -0.039384 -0.001616 135 142 133
0.062922 -0.012915 -0.041616 165 165 139
-0.040184 -0.027738 0.005809 135 146 132
0.033857 0.014600 -0.006516 122 136 139
0.008793 0.002762 -0.029416 98 100 94
-0.075460 0.045028 0.015209 108 124 107
0.055375 -0.000827 0.000534 65 75 70
0.023673 -0.014478 -0.002141 88 92 91
0.004710 -0.033497 -0.022141 26 27 35
0.021663 0.035707 -0.013741 125 139 134
0.044847 -0.006033 0.000009 66 63 60
-0.004299 -0.039238 -0.009516 119 127 115
0.017269 -0.002272 -0.023966 112 125 144
-0.022643 -0.026736 0.002559 129 135 128
0.063197 -0.016172 -0.040241 91 76 0
0.064810 0.028048 -0.038566 112 128 111
-0.033045 -0.021779 0.007809 132 136 125
-0.085909 -0.022973 0.018809 134 136 118
0.065426 0.012084 -0.012091 0 1 48
0.059448 -0.014737 -0.009191 43 53 48
-0.027240 0.046590 0.018484 122 137 129
-0.023441 0.045598 0.021634 126 134 127
-0.061308 -0.034292 0.006709 144 147 132
-0.031052 0.046295 0.019834 124 137 129
0.081452 -0.011213 -0.011741 51 54 46
0.044099 -0.018027 -0.038716 71 73 62
0.042860 0.001818 0.004659 27 28 25
0.026664 -0.030540 -0.022641 17 8 10
0.021960 0.021385 -0.008091 140 155 161
0.064980 -0.011383 -0.041916 93 85 56
0.020983 -0.014047 -0.045266 69 59 84
0.008878 -0.000299 0.011234 76 77 74
-0.065044 -0.038040 0.004709 140 146 128
-0.031064 0.050188 0.010309 131 141 129
0.010838 -0.034564 -0.027191 29 31 41
-0.025224 -0.041184 -0.005966 143 148 135
0.064273 0.038377 0.022334 52 60 48
0.025809 0.007996 -0.011366 90 90 79
0.049025 0.031958 0.022134 81 83 72
0.070051 -0.007497 -0.006991 31 41 36
-0.076007 -0.023978 0.015759 137 139 121
0.030332 -0.012004 -0.040991 46 49 57
0.007408 0.012140 -0.004616 135 134 126
-0.051534 -0.045463 -0.002416 135 144 128
-0.046717 -0.018571 0.012734 138 140 129
-0.011178 -0.004303 0.013259 125 126 123
-0.059044 -0.032392 0.007434 145 150 130
0.061863 -0.009080 -0.005341 39 40 37
-0.033066 0.049910 0.011959 133 140 131
0.030838 -0.019875 -0.045116 52 41 55
0.046065 0.012930 -0.020141 77 35 13
0.047920 0.019274 -0.024416 12 40 89
-0.088942 0.000513 0.034134 130 133 120
-0.042522 -0.008036 0.018684 132 133 125
0.044498 0.015137 -0.014766 1 5 10
0.064077 -0.037862 -0.023966 76 85 60
-0.040117 0.051358 0.008534 126 135 121
0.036525 0.049202 0.021659 17 23 16
0.075346 -0.035346 -0.025091 80 78 59
-0.038111 -0.040138 -0.002266 138 144 126
-0.086068 0.020854 0.044834 40 41 38
0.031100 -0.015843 -0.042941 173 179 172
0.020166 0.016594 -0.010541 128 134 127
-0.072727 -0.036799 0.007509 143 145 127
-0.017792 -0.039758 -0.006616 135 140 127
-0.028269 -0.017371 0.009109 128 135 126
0.001719 -0.004944 0.009784 124 125 122
0.065367 -0.012368 -0.041691 177 179 148
-0.020871 0.035576 0.037959 77 88 80
0.069114 -0.010800 -0.008666 29 32 24
-0.025727 0.045421 0.021059 117 128 126
0.027759 -0.028531 -0.023966 36 28 39
0.091394 0.038391 0.016834 67 78 62
-0.027593 -0.011039 0.012834 129 132 124
0.048206 0.010591 -0.026291 54 75 144
-0.058554 -0.035454 0.005134 142 147 127
0.038336 -0.025336 -0.035291 35 32 36
-0.057077 -0.000557 0.026509 134 134 123
-0.065727 0.003899 0.030909 135 138 123
-0.075348 0.012637 0.038134 127 131 113
0.065547 0.040568 0.023759 50 50 44
-0.083167 -0.023190 0.017659 135 141 123
-0.034848 -0.033976 0.000584 138 143 128
0.026966 -0.013926 -0.042566 64 52 69
-0.047726 0.038605 0.030634 117 127 122
0.022836 0.018913 -0.010941 176 192 189
-0.036111 0.048219 0.014209 121 135 125
-0.001545 0.027359 0.030559 108 110 104
-0.058581 -0.034813 0.005184 140 143 128
-0.068567 -0.034708 0.007884 141 145 122
0.070890 0.027315 -0.035266 135 140 127
-0.048429 -0.045455 -0.003341 129 139 120
-0.045789 0.015376 0.033334 128 127 119
-0.062461 -0.030355 0.008084 139 142 127
-0.035264 -0.000705 0.020584 106 104 98
0.058202 0.047953 0.002284 35 19 7
0.005225 -0.027815 -0.018166 116 121 117
-0.080721 0.027393 0.045834 104 122 107
-0.011039 0.045965 0.022134 109 120 112
0.063581 0.017126 -0.010841 11 9 9
-0.015892 -0.015637 0.007634 130 133 125
0.011933 -0.019380 -0.042591 213 224 216
0.047552 -0.029140 -0.045116 204 226 185
-0.052035 0.006757 0.029109 131 134 119
-0.053230 -0.036655 0.003509 139 140 125
-0.044683 0.030575 -0.037141 83 96 83
0.062337 -0.034872 -0.022416 87 89 65
0.067236 -0.016664 -0.019766 47 40 15
0.037205 0.008885 0.010559 39 39 39
-0.046789 0.000113 0.024259 128 133 120
0.052096 -0.002704 -0.000091 83 81 75
0.032469 -0.015525 -0.043066 178 184 177
-0.016228 -0.019541 0.005184 125 131 124
0.059174 0.031502 0.019509 49 56 47
-0.057139 -0.026951 0.009659 142 145 132
0.022584 -0.003902 -0.037166 58 51 72
-0.014562 -0.038694 -0.006991 132 136 125
-0.004202 0.009695 0.020709 18 17 14
-0.012509 -0.036562 -0.006241 126 133 124
-0.063477 -0.036044 0.004584 144 147 127
-0.009254 0.040750 0.031109 96 106 101
0.019849 0.000839 -0.024241 129 137 164
-0.061200 -0.044054 0.000234 141 144 129
-0.039132 -0.008955 0.017034 130 132 121
0.094437 0.044078 0.019409 35 36 21
0.052083 -0.018606 -0.041666 163 117 12
-0.022803 -0.012128 0.010784 128 132 121
0.066697 -0.013425 -0.010341 25 37 32
-0.055526 -0.003313 0.023584 133 142 128
0.003351 0.006234 0.015309 16 17 14
-0.063533 0.006951 0.031259 132 135 120
-0.049931 0.043803 0.019534 56 61 57
0.037584 -0.009532 -0.005091 76 78 72
-0.051522 0.002177 0.026559 130 133 125
0.026678 0.049986 0.019634 81 86 82
-0.064026 -0.045232 0.000734 142 148 125
0.039556 0.042904 0.032409 10 10 10
0.053148 0.015753 -0.025316 112 84 74
-0.067128 -0.012471 0.020684 140 142 124
-0.064217 -0.040858 0.003634 140 143 128
0.032439 0.046184 0.026359 45 45 45
0.072314 0.013561 -0.021716 76 99 83
0.066739 -0.002605 -0.003366 34 42 35
0.039658 -0.010569 -0.005066 69 74 70
-0.029543 -0.034607 -0.000966 140 144 133
0.053005 -0.020853 -0.043841 163 123 15
-0.030828 0.045169 0.022309 122 133 125
-0.029991 -0.005367 0.016934 124 127 119
0.018462 0.023843 -0.004941 151 165 168
0.036366 0.050911 0.017834 34 40 33
-0.002701 -0.038416 -0.009016 116 125 116
0.041073 -0.037652 -0.018691 76 78 60
-0.033218 -0.042929 -0.004491 138 143 128
0.046407 -0.035816 -0.019141 29 27 33
0.048823 0.004728 0.005259 55 56 53
-0.021349 0.048254 0.018509 121 134 126
0.045473 -0.020920 -0.042541 169 172 159
-0.033286 -0.030915 0.002034 135 144 130
-0.036425 0.043833 0.023184 125 133 126
-0.010529 -0.023056 0.002034 135 136 133
-0.008537 0.052196 0.010209 32 39 35
-0.095007 0.033271 0.033084 26 34 27
-0.057375 0.021039 0.039384 119 123 112
0.051621 0.009371 -0.029641 126 109 101
0.054725 0.013371 -0.026091 96 62 57
-0.038982 -0.030758 0.003959 140 143 128
-0.014463 0.046929 0.020509 121 129 122
0.023800 0.018499 -0.012516 183 196 195
-0.007659 -0.011774 0.008159 125 131 124
-0.022727 -0.010310 0.012434 134 132 126
-0.045007 -0.043925 -0.002991 139 144 129
0.047848 -0.017134 -0.038866 182 180 156
0.049658 0.012587 -0.028441 101 106 129
0.044103 -0.020340 -0.040241 93 101 94
0.069355 0.002059 -0.017716 14 9 83
-0.047876 0.027113 -0.039191 203 209 191
0.024108 -0.030229 -0.024766 28 19 26
0.015785 -0.031750 -0.027641 183 199 184
-0.090942 -0.006691 0.028909 130 133 120
-0.051322 0.035680 -0.009666 126 137 123
-0.067905 -0.008343 0.023484 130 137 117
0.041197 -0.016701 -0.006116 23 27 27
-0.000490 0.050713 0.015284 81 90 89
0.028145 -0.017153 -0.043091 77 63 85
0.003162 0.012706 -0.000516 56 50 43
-0.096580 -0.012268 0.029184 124 131 111
-0.095728 -0.016673 0.025984 130 132 121
-0.087853 -0.000736 0.032784 135 136 121
-0.012455 -0.040724 -0.008166 127 133 126
-0.008832 0.040583 0.031334 94 106 101
0.065211 -0.003658 -0.003266 38 43 39
-0.048324 0.026992 -0.038991 206 211 196
0.048741 -0.015798 -0.037541 74 77 62
0.033898 -0.019022 -0.042141 44 49 60
-0.061389 -0.011042 0.019934 135 140 127
-0.048908 0.031837 0.041234 109 116 112
-0.080717 -0.032809 0.012534 123 132 116
0.020595 -0.009206 -0.041816 42 40 57
0.013087 -0.029107 -0.026741 219 233 223
0.050475 -0.013650 -0.038766 48 39 26
-0.013558 -0.033526 -0.004066 126 132 125
0.016537 -0.013557 -0.001716 125 125 126
-0.063898 -0.010971 0.020334 137 138 123
-0.010667 0.051416 0.012559 84 91 87
-0.052253 0.042248 -0.004366 123 138 125
0.036169 0.051031 0.017884 28 34 27
0.091127 0.003834 -0.004666 106 104 85
0.018454 -0.017745 -0.043791 239 248 239
-0.078501 -0.020788 0.018084 125 130 117
-0.001121 0.020680 0.026734 112 112 106
0.047421 0.011182 -0.025366 49 71 110
0.046836 0.005740 -0.022816 57 30 17
-0.011148 -0.003120 0.013684 122 128 121
-0.020006 -0.030780 -0.000591 128 135 126
-0.018772 -0.025448 0.002109 126 134 122
0.036270 -0.007457 -0.005191 73 66 67
-0.085735 0.001773 0.033409 125 124 107
0.091763 0.011949 -0.000966 50 51 36
0.004507 -0.020948 -0.000541 102 108 101
0.022136 -0.016662 -0.044741 89 74 100
-0.046953 0.014440 0.033084 125 128 120
0.054421 -0.038717 -0.022541 45 54 40
-0.010314 -0.010183 0.009759 122 128 121
-0.024988 0.002445 0.020634 128 130 124
0.044957 0.014796 -0.000241 11 11 12
0.016170 -0.022630 -0.038541 239 248 239
-0.053586 0.046947 -0.002041 125 136 122
0.009953 -0.026847 -0.039391 166 175 161
-0.079901 0.016726 0.041459 118 121 108
0.043819 -0.019521 -0.039891 61 66 62
-0.029993 -0.000284 0.020509 125 128 120
0.034835 0.016674 -0.008766 143 163 163
0.010687 0.023120 -0.001816 65 73 75
0.049282 0.042870 0.015759 5 9 9
0.075901 -0.011081 -0.009941 33 48 40
-0.003393 -0.037984 -0.008816 119 126 117
0.024807 -0.008220 -0.043166 57 49 67
0.061010 0.002895 -0.003891 109 102 97
0.074436 -0.012923 -0.011066 40 48 41
0.064866 0.032417 0.019409 52 56 45
0.066346 -0.011336 -0.008341 28 34 34
0.009535 0.018575 -0.008341 121 123 117
-0.008124 -0.028074 -0.002166 127 135 128
-0.026634 -0.033471 -0.000566 137 140 132
0.060568 0.037854 0.023634 50 52 46
-0.007164 -0.043514 -0.011266 125 136 122
0.041146 -0.012739 -0.040891 33 37 36
-0.036759 -0.033251 0.001559 138 141 128
-0.069074 0.032711 0.034834 70 85 72
-0.076401 -0.019041 0.018859 133 138 118
0.086678 0.036653 0.016434 56 63 54
-0.009616 -0.032260 -0.004241 129 136 127
-0.021916 0.041958 0.029734 99 105 104
-0.056832 -0.039686 0.002309 143 146 126
-0.075865 -0.017570 0.019509 133 137 119
-0.047910 0.010682 0.031409 130 131 123
0.010223 -0.015910 0.001234 92 98 91
0.064589 0.027538 -0.038816 111 122 108
0.021281 0.023889 -0.008166 131 158 157
-0.044032 0.037791 0.030984 104 113 111
0.034229 -0.031108 -0.019641 44 30 52
0.022442 -0.032912 -0.026116 49 44 53
-0.044898 -0.037157 0.001234 139 142 129
0.024755 0.022373 -0.009966 117 133 131
-0.054250 0.016651 0.035834 119 128 114
-0.039868 -0.022590 0.009134 135 140 127
0.031031 0.047452 0.024834 52 53 50
-0.085211 0.032435 0.034609 25 36 28
0.003606 0.002808 0.016209 15 19 18
0.072968 0.021742 -0.024666 128 156 137
-0.015995 -0.019295 0.005409 129 130 127
0.047106 -0.021470 -0.042041 122 109 128
-0.007764 0.040145 0.031834 94 104 99
-0.054617 0.001411 0.026634 131 134 121
-0.099794 0.033754 0.034859 28 39 38
-0.032785 0.033091 0.038484 79 89 84
0.023605 -0.011759 -0.002791 119 118 122
-0.036703 0.035694 0.035809 109 119 114
0.044898 -0.010773 -0.002991 41 42 39
0.056875 -0.009682 -0.005341 47 47 41
0.050048 -0.021591 -0.039416 130 126 114
-0.100405 -0.001342 0.035234 118 127 111
0.073360 -0.016787 -0.016791 28 38 26
0.019662 -0.005949 -0.007366 101 107 121
0.010123 -0.013785 0.002459 116 118 112
0.013665 0.025512 -0.007241 149 162 161
0.037067 -0.040586 -0.019166 75 76 61
-0.081614 0.004301 0.033984 120 124 106
0.035651 0.044053 0.030034 5 5 5
0.068960 0.020310 -0.022016 12 31 11
0.083186 0.003524 -0.002916 77 82 67
0.023910 -0.003320 -0.038741 69 59 77
-0.073122 0.029342 0.043509 112 126 116
0.063927 0.024584 -0.041166 97 108 87
-0.082246 -0.032102 0.012884 133 138 123
-0.017880 -0.021709 0.004209 126 133 124
0.063413 -0.014877 -0.009966 36 38 32
-0.013151 -0.028388 -0.000866 126 134 122
-0.073016 0.021556 0.042584 108 107 99
-0.044425 -0.032779 0.003884 137 140 125
-0.014218 0.009037 0.022109 115 121 114
0.050567 -0.021497 -0.011941 21 22 14
-0.011575 -0.043343 -0.010041 126 136 124
0.035610 -0.013604 -0.004216 58 58 58
0.014257 0.015647 -0.010241 124 125 122
0.095107 0.042799 0.019309 34 47 34
-0.009611 -0.035867 -0.005741 130 134 123
-0.038742 0.047512 0.015384 116 128 118
-0.073481 0.007082 0.034659 128 132 114
0.093429 0.008645 -0.002441 88 92 74
0.019766 -0.011799 -0.002416 119 119 119
-0.002544 -0.017223 0.003409 92 91 83
0.063727 -0.016759 -0.044566 81 90 32
0.073326 -0.036893 -0.025341 55 60 40
0.018297 -0.014534 -0.044241 225 230 217
-0.002724 -0.018014 0.002534 118 122 111
-0.094121 0.028562 0.043209 9 17 5
0.046286 -0.002464 0.000959 23 18 22
0.057107 -0.021623 -0.041916 164 151 116
-0.058209 -0.032651 0.006234 145 143 129
0.069783 -0.006025 -0.015241 91 101 89
0.067703 -0.008562 -0.006416 25 25 25
-0.075266 0.028018 0.044359 116 129 116
0.000633 -0.042043 -0.011691 13 14 11
0.037162 0.050182 0.020509 31 36 32
-0.035481 0.039339 0.029534 92 103 101
0.063375 0.004362 -0.007316 5 2 0
0.029819 -0.014591 -0.042166 232 238 220
-0.054163 -0.035933 0.003884 140 145 125
0.031521 0.053024 0.012359 36 41 37
0.032544 0.008351 -0.002916 47 47 48
-0.071458 0.010201 0.034759 130 132 114
-0.067843 0.038126 0.029134 130 140 128
0.045305 -0.025451 -0.043741 148 150 139
0.012210 0.052085 0.010684 84 89 85
-0.012101 -0.011124 0.009434 127 134 125
-0.011762 0.038265 0.034409 97 107 102
0.037229 0.008376 0.010184 32 40 33
0.007820 -0.029400 -0.032741 17 22 18
-0.057136 -0.032301 0.006709 140 146 128
-0.038343 0.016486 0.031859 124 128 117
-0.046337 -0.010188 0.018384 135 138 125
0.020686 0.002578 -0.023791 148 151 154
0.021087 0.004985 -0.026891 77 76 73
-0.049317 -0.039286 0.001359 138 141 126
0.036704 -0.039823 -0.018791 79 80 72
-0.036978 -0.009603 0.016134 129 131 125
-0.030574 0.005704 0.024034 126 128 122
-0.019543 -0.005260 0.014584 126 132 125
0.066097 0.044648 0.018559 0 1 0
-0.011328 -0.000340 0.015409 122 124 118
0.047957 0.006614 -0.027841 108 62 18
0.071421 0.028916 -0.034866 140 154 137
0.020381 -0.024956 -0.035491 44 35 42
0.072894 -0.031999 -0.022216 49 56 31
-0.034642 -0.044007 -0.004616 139 144 124
0.031231 0.045951 0.026309 34 39 42
-0.088176 0.034844 0.034559 27 39 29
0.011572 0.045448 0.024284 107 118 110
-0.020287 0.043349 0.026759 111 117 116
0.014306 0.031205 -0.014141 172 182 184
0.061855 -0.002997 -0.002091 77 75 69
-0.025627 -0.026657 0.003034 128 134 127
-0.071341 0.042836 0.019434 111 127 117
-0.055895 0.035401 0.032909 72 90 87
-0.072279 -0.038604 0.005934 136 142 124
-0.013916 -0.030258 -0.001916 131 133 122
-0.074912 -0.010063 0.023559 132 135 120
0.043554 -0.037075 -0.021641 5 6 3
-0.068887 -0.019335 0.016609 138 142 124
-0.053832 0.010416 0.032609 123 131 119
-0.049305 0.050194 0.003809 50 77 62
-0.076371 -0.019996 0.018309 133 137 119
-0.045692 -0.014494 0.015309 138 140 129
-0.053977 0.047898 -0.001641 143 146 126
0.034993 -0.007147 -0.004691 80 75 70
0.006613 -0.030125 -0.020141 28 27 24
0.013173 -0.006691 -0.006366 135 143 131
-0.051302 0.029214 0.039959 30 34 33
0.020088 -0.035731 -0.027066 6 6 7
-0.027196 0.002881 0.021834 124 126 120
0.058951 -0.006685 -0.003816 67 66 63
-0.061955 0.018566 0.038484 123 126 113
-0.074436 -0.004716 0.026659 134 136 118
0.036781 0.051133 0.016734 32 45 32
-0.066719 -0.000131 0.028034 132 135 120
-0.024166 0.000871 0.019859 128 128 122
0.063288 0.003743 -0.004841 61 51 49
-0.047638 0.045002 0.018034 71 80 71
-0.044461 0.045632 0.002709 92 145 99
-0.093945 -0.012230 0.027484 132 135 120
0.065506 0.037991 0.021659 54 56 45
-0.059822 0.028649 0.043734 26 34 27
0.021510 -0.001080 -0.025566 128 137 162
-0.060708 -0.010842 0.020034 127 136 122
0.030495 0.051976 0.017084 88 88 82
0.008835 -0.021544 -0.040916 26 25 22
-0.035890 0.018054 0.032734 125 126 118
0.018457 -0.012261 -0.002216 106 112 112
0.070934 0.041400 0.022509 48 49 41
-0.038531 0.007662 0.026959 125 127 116
0.020163 0.032812 -0.013541 168 176 178
-0.006987 -0.015263 0.005434 126 132 125
0.044537 -0.023550 -0.042391 124 123 120
0.055628 -0.000518 -0.002441 69 71 65
-0.023213 0.010510 0.025209 122 125 117
-0.026489 0.049191 0.012434 114 127 114
-0.027192 0.036402 0.035859 105 117 112
0.008147 0.043139 0.028759 77 92 84
-0.072284 0.031988 0.039509 48 54 47
-0.076047 -0.033950 0.009359 132 131 114
-0.020894 0.039824 0.032359 81 85 84
-0.016936 -0.005239 0.014134 127 127 121
0.091904 0.041767 0.018259 76 81 61
0.070393 -0.026203 -0.019916 132 124 83
-0.058347 -0.006687 0.022534 132 142 123
0.021376 0.036940 -0.013391 161 178 179
-0.085663 0.019963 0.044559 70 79 63
-0.014658 -0.029357 -0.000916 125 131 124
0.021704 0.003448 -0.023766 87 83 96
-0.007694 -0.000132 0.014734 115 121 114
0.032756 -0.002840 -0.011716 53 60 76
-0.069045 -0.039950 0.005134 139 144 129
0.048820 0.013297 -0.028291 32 82 134
0.053149 -0.024496 -0.044541 153 114 0
-0.035601 0.032652 0.040484 48 53 49
0.051011 0.019622 -0.023716 115 80 64
-0.052720 0.017691 0.035784 125 125 119
-0.085909 0.029586 0.043509 50 63 50
-0.021859 -0.031828 -0.001016 130 138 126
0.076416 -0.034256 -0.024341 85 84 67
-0.031470 -0.001119 0.020184 125 128 120
-0.096020 -0.002362 0.034234 124 129 116
-0.067284 0.048723 0.009759 71 77 70
0.013785 -0.017497 -0.043366 236 238 232
0.081612 0.035901 0.017509 62 69 60
-0.048929 -0.041547 -0.001266 140 143 123
0.052618 -0.017641 -0.042241 160 122 15
-0.063391 -0.023797 0.012559 137 142 129
-0.013643 -0.043252 -0.009641 129 138 124
0.015157 0.009208 -0.005716 109 109 103
-0.033351 -0.031078 0.001959 135 144 128
-0.068999 0.036977 0.031359 128 137 128
-0.040988 0.012159 0.029984 126 129 121
-0.074120 0.046969 0.010584 86 106 97
0.018378 -0.031578 -0.028341 210 221 207
0.075439 -0.009709 -0.009591 26 37 29
-0.029875 0.010379 0.026584 124 127 119
0.021950 -0.035233 -0.026716 26 27 35
0.024940 0.009400 -0.011141 111 114 106
0.014834 -0.015182 -0.043316 121 131 119
0.015240 -0.000267 -0.022316 107 105 105
0.044196 -0.016989 -0.037516 22 25 17
0.069057 0.020586 -0.023241 21 36 28
-0.076293 -0.028230 0.013359 141 140 123
