ply
format ascii 1.0
element vertex 1238
property float x
property float y
property float z
property uchar red
property uchar green
property uchar blue
end_header
0.009017 0.042242 -0.064947 152 142 140
0.014470 0.021997 0.000978 165 156 151
0.006828 0.010911 -0.206472 11 24 9
-0.030442 0.045611 -0.076447 151 151 145
-0.074293 -0.049173 0.057903 120 103 64
0.093931 -0.089728 0.157678 95 96 85
0.022686 0.048150 -0.082897 152 145 139
0.006842 0.010939 -0.206472 66 90 76
-0.062731 -0.040217 0.056678 139 112 86
-0.009644 0.049202 -0.086972 150 148 140
-0.070881 0.014895 0.011803 131 118 94
0.050282 0.038503 -0.047622 131 131 127
-0.062581 -0.058782 0.064378 110 103 95
-0.001103 0.033520 -0.036947 148 141 135
-0.136218 -0.053442 0.016903 82 89 83
-0.143312 0.020689 0.016253 98 93 62
-0.123691 0.026309 -0.004297 101 91 61
0.103807 -0.057158 0.175553 92 89 84
0.110777 -0.027526 0.190403 90 82 79
0.262533 -0.146768 0.194878 70 78 67
0.178148 0.022107 0.150228 68 70 57
-0.122097 -0.060472 0.022653 89 98 91
0.204633 -0.020099 0.104353 71 88 72
-0.016133 0.040505 -0.060722 161 152 147
-0.124414 -0.002925 0.023478 112 100 71
-0.125770 -0.022801 0.018903 116 110 72
-0.017891 0.025350 -0.011272 88 70 61
-0.054077 -0.083208 0.061028 98 100 87
-0.131988 -0.042058 0.022903 87 85 75
0.196976 -0.027347 0.246828 41 40 42
-0.135341 -0.057591 0.016553 77 86 79
-0.143056 0.017990 0.029753 101 85 64
-0.045956 0.022765 -0.009047 50 48 38
0.006797 0.010937 -0.206472 133 119 104
0.004779 0.016210 0.013278 94 69 51
-0.017271 -0.022866 0.066053 73 68 48
0.014502 0.044362 -0.070672 162 151 146
0.006820 0.010937 -0.206472 2 2 2
-0.009454 0.026795 -0.016247 159 147 145
0.170948 0.019594 0.098478 32 45 32
-0.105443 -0.048699 0.039928 95 100 88
-0.061740 0.054385 -0.071697 47 57 30
-0.058880 -0.049535 0.063853 135 112 80
-0.057456 0.038637 -0.055772 138 142 135
-0.112608 0.000950 0.031528 76 65 29
-0.100256 -0.054578 0.039628 95 100 88
-0.077576 0.028083 -0.023347 122 115 96
-0.015548 -0.087045 0.085303 103 101 93
-0.035756 0.052373 -0.097322 121 129 130
0.133950 -0.111935 0.175278 84 93 84
-0.049287 0.044387 -0.073347 127 134 128
-0.134174 -0.074736 0.009503 86 94 81
-0.143724 0.009479 0.034428 58 61 45
-0.055921 -0.092186 0.056428 97 98 89
0.014624 0.024841 -0.010372 125 120 116
-0.022848 0.043991 -0.070147 146 146 140
0.152668 -0.108325 0.191228 84 91 85
0.071790 0.054758 -0.083422 96 107 103
0.064877 0.049669 -0.079397 120 128 125
-0.057369 0.019269 0.001203 137 120 102
0.058094 -0.000774 0.105303 137 129 117
-0.064905 0.035492 -0.045222 132 139 131
0.127862 -0.094752 0.179953 87 91 86
-0.042860 -0.027477 0.066178 69 72 51
-0.025378 0.038990 -0.057997 151 142 137
-0.054572 -0.002149 0.037278 60 60 38
-0.131907 0.055326 0.001128 100 108 97
-0.010856 0.049695 -0.087072 149 146 141
0.187004 0.014213 0.174478 52 54 43
0.050967 -0.008172 0.118428 58 14 0
-0.085860 -0.075119 0.041653 88 100 90
0.094514 0.041520 -0.056797 86 102 81
-0.137579 -0.024495 0.025678 115 110 77
-0.016369 0.030899 -0.030472 160 151 144
0.031323 0.039968 -0.053997 156 148 145
0.021099 0.052136 -0.091972 130 129 129
-0.031183 -0.078460 0.079053 103 104 93
0.006839 0.010951 -0.206472 5 4 4
-0.098382 -0.052958 0.042453 98 100 91
0.018692 -0.025119 0.085953 69 61 47
-0.106120 0.080937 0.001278 55 63 50
0.013047 0.045704 -0.076097 164 157 151
-0.047387 -0.075477 0.068878 103 101 91
-0.042508 0.052413 -0.092822 65 71 52
-0.122656 0.017455 0.029178 104 104 80
-0.012477 0.038763 -0.053247 157 143 139
-0.126181 0.016893 0.027478 91 78 54
0.036509 0.052114 -0.091797 124 128 123
-0.112330 0.083385 0.008078 74 69 47
-0.139232 0.076758 0.002028 76 80 57
-0.110792 -0.079367 0.022878 86 93 87
0.010123 -0.077155 0.106378 105 101 94
0.062129 0.050160 -0.081397 131 137 135
-0.062582 -0.035941 0.057578 135 113 74
-0.096279 -0.051113 0.043103 97 98 92
0.140708 -0.128484 0.175403 81 95 84
0.020802 -0.050453 0.109353 102 89 76
-0.125607 0.084375 -0.010672 93 98 86
0.071955 0.042205 -0.057197 130 142 132
-0.117031 -0.075533 0.020753 90 101 97
0.006843 0.010928 -0.206472 72 91 81
0.087170 0.046668 -0.069847 121 137 126
0.039692 0.052141 -0.092422 127 133 133
0.023824 0.047442 -0.077722 156 146 146
-0.087429 -0.025917 0.043403 130 109 78
-0.133822 0.033401 -0.008397 114 116 103
0.006790 0.010936 -0.206472 143 120 101
-0.058373 -0.053775 0.068403 104 92 76
-0.008368 0.016551 0.007853 136 121 109
-0.010721 0.035569 -0.047772 153 145 142
0.019894 0.036885 -0.047547 159 148 143
0.105573 -0.006404 0.192878 90 81 76
-0.001673 0.013689 0.017803 146 120 107
0.157320 -0.017827 0.223678 67 57 43
0.041646 0.035481 -0.040497 161 156 152
0.005642 -0.026272 0.079978 74 69 51
0.006839 0.010900 -0.206472 53 72 60
0.074272 0.038567 -0.049247 150 150 144
-0.117251 -0.054442 0.028753 96 99 98
0.006840 0.010923 -0.206472 54 63 56
0.081673 0.020408 0.017328 148 146 136
0.102144 0.038575 -0.043772 125 139 128
-0.067172 -0.091170 0.050003 96 100 93
0.003900 0.041867 -0.063322 160 151 144
-0.115412 0.074078 0.016878 78 74 47
-0.000565 0.052997 -0.096947 118 119 115
0.013022 -0.092081 0.102328 101 99 89
-0.015948 0.029010 -0.023472 159 150 143
-0.004485 0.050503 -0.091347 149 143 145
0.163079 0.022262 0.110628 73 83 58
0.047215 -0.059190 0.135003 101 94 86
0.030354 0.035969 -0.042872 169 159 159
-0.038917 -0.092388 0.067703 96 98 89
0.042796 0.048850 -0.084147 134 138 131
-0.149874 0.015241 0.030903 68 62 36
-0.005435 0.050118 -0.088697 142 137 133
0.047567 -0.001683 0.105178 141 102 80
0.038758 0.038972 -0.052097 166 158 155
-0.033546 0.052719 -0.097672 121 129 130
-0.017709 0.051442 -0.092272 139 138 138
0.006817 0.010938 -0.206472 22 8 0
0.124674 -0.082116 0.181578 93 90 87
0.033280 0.051615 -0.090097 136 133 128
-0.103116 0.001914 0.029128 45 48 30
0.006831 0.010918 -0.206472 9 14 2
0.006833 0.010948 -0.206472 5 5 1
0.105187 -0.102217 0.161853 96 96 90
0.010010 0.048550 -0.085972 75 70 68
0.052533 0.046864 -0.073572 38 38 40
-0.002802 0.049434 -0.085972 140 138 130
-0.151527 -0.027640 0.016328 78 85 77
-0.087330 -0.084032 0.038378 94 102 89
0.044624 0.044530 -0.067922 125 125 121
0.006835 0.010906 -0.206472 12 29 0
-0.131585 0.005554 0.028503 116 100 66
-0.043764 0.051095 -0.090122 65 71 54
-0.028479 0.013013 0.015803 145 121 105
-0.019898 0.018805 0.001003 56 53 37
-0.071350 -0.086573 0.048303 91 99 84
0.007141 0.026493 -0.014822 163 151 149
-0.002532 0.041474 -0.061197 162 153 148
0.021133 0.048458 -0.084547 145 145 139
0.083220 -0.118735 0.141703 101 101 97
0.054624 0.041804 -0.055947 154 154 148
0.274075 -0.076607 0.194103 55 70 69
0.084824 0.058762 -0.075147 73 89 78
-0.076942 0.033472 -0.036372 61 73 49
0.016354 0.013887 0.020403 147 120 98
0.075087 0.045986 -0.069772 126 132 132
-0.053237 0.040036 -0.060397 141 141 135
-0.030511 0.032377 -0.037147 146 142 135
0.006807 0.010909 -0.206472 90 91 85
0.006841 0.010923 -0.206472 52 66 57
-0.063681 0.053844 -0.068672 54 56 43
-0.054488 0.053523 -0.082022 50 62 38
-0.014990 0.041972 -0.063322 156 149 141
0.113681 -0.073675 0.176828 94 92 82
0.055942 0.034255 -0.035197 156 153 148
-0.143724 0.013371 0.035278 72 66 53
0.118288 0.006031 0.205253 78 73 69
0.067682 0.030997 -0.023697 137 139 130
-0.053096 -0.033064 0.063678 141 113 85
0.006819 0.010915 -0.206472 44 50 48
-0.066291 0.028886 -0.023372 72 74 56
0.035145 -0.027764 0.140403 88 74 68
0.070516 0.024924 -0.000697 156 152 145
0.006814 0.010903 -0.206472 79 91 81
0.006840 0.010927 -0.206472 72 98 85
-0.142083 -0.065070 0.008578 86 94 91
0.046719 0.043491 -0.066272 133 134 125
-0.065112 0.021895 -0.011647 134 115 98
0.008236 0.049266 -0.086497 148 143 139
-0.075396 -0.069877 0.051628 100 102 91
0.048355 -0.035182 0.144628 102 73 52
0.006810 0.010928 -0.206472 71 72 66
0.242743 -0.153620 0.214678 54 62 59
-0.109773 -0.068550 0.030728 87 100 87
-0.121302 -0.045708 0.028278 85 94 87
-0.009849 0.051361 -0.093897 141 140 140
-0.079700 0.034258 -0.036097 65 68 50
-0.083494 0.027723 -0.021397 117 107 93
0.139062 -0.106339 0.184603 87 94 86
-0.039279 -0.025179 0.063928 58 58 38
0.006804 0.010951 -0.206472 153 148 144
0.006834 0.010919 -0.206472 23 42 16
0.072501 0.052808 -0.082247 98 109 105
0.053070 0.033949 -0.034672 157 152 148
0.017221 0.050769 -0.089322 152 149 146
-0.047228 0.020205 -0.008097 129 117 101
-0.019692 0.052225 -0.096222 141 147 149
-0.065840 -0.075424 0.054678 98 98 92
0.073840 0.057525 -0.082297 103 109 107
0.030505 0.048716 -0.081322 141 138 135
0.082695 0.055706 -0.077297 112 124 116
0.134252 -0.101940 0.181303 94 92 84
-0.134831 -0.050654 0.018078 86 94 83
0.063689 0.048143 -0.075922 120 122 128
0.181790 -0.116474 0.206303 67 77 65
0.041210 -0.056188 0.135003 103 94 87
-0.083733 -0.059464 0.049528 101 102 93
0.006845 0.010914 -0.206472 56 74 70
0.258020 -0.060277 0.228853 48 52 47
-0.121353 0.051285 0.007128 102 113 92
0.004377 0.038373 -0.053547 169 155 149
-0.065921 0.048584 -0.064897 54 66 42
0.043262 0.016089 0.029903 90 81 62
0.193609 0.039621 0.071653 47 57 43
0.036295 -0.081575 0.122078 109 102 96
0.046251 -0.025138 0.116853 89 50 32
0.172955 0.019261 0.175553 46 48 37
0.271202 -0.079791 0.199153 54 67 62
-0.125009 0.053454 0.005453 107 111 90
-0.013600 -0.067617 0.094428 111 101 89
0.100308 0.040665 -0.052122 138 148 136
0.105461 -0.026293 0.186603 89 82 74
0.019188 0.052721 -0.095547 138 139 135
-0.075799 -0.023766 0.050528 104 94 62
0.003381 0.050027 -0.088972 138 138 132
-0.140535 -0.030981 0.022078 72 82 70
0.006841 0.010950 -0.206472 2 5 6
-0.068812 -0.033616 0.053053 137 111 80
-0.118950 0.053836 0.009728 100 105 91
0.078600 0.040085 -0.051597 142 146 141
-0.123266 0.010035 0.027478 109 97 68
0.031698 0.047839 -0.079922 148 144 145
-0.094752 0.029473 -0.022872 122 115 98
0.060942 -0.087352 0.136353 100 98 90
0.175310 0.017003 0.091953 31 44 29
0.047481 0.041143 -0.058647 154 149 147
-0.123180 0.074789 0.013128 90 90 66
-0.076584 0.022279 -0.014822 124 119 99
0.035895 -0.038999 0.137253 97 88 81
0.054091 0.039526 -0.051547 154 152 144
-0.142721 -0.044729 0.016103 85 94 87
0.177490 -0.064019 0.222878 65 72 64
-0.018101 -0.067398 0.090253 107 100 92
0.064933 -0.120310 0.127528 96 105 96
-0.019093 -0.024896 0.066303 73 68 48
-0.026214 0.028044 -0.022322 160 149 144
-0.104216 0.081795 -0.004947 76 75 58
-0.042955 0.047785 -0.085872 123 134 132
-0.034405 0.041761 -0.061847 155 152 149
-0.037854 0.022041 -0.006447 14 15 2
-0.048109 -0.023389 0.057778 66 64 45
0.062891 0.044930 -0.066697 112 118 116
0.006843 0.010939 -0.206472 65 85 68
0.245901 -0.146225 0.202653 57 66 59
0.006710 0.010945 -0.206472 103 95 71
0.045987 0.044653 -0.069897 140 141 130
-0.024357 -0.078453 0.081728 106 101 97
0.053459 0.021176 0.012703 162 152 152
0.031858 -0.101468 0.111603 107 103 96
-0.069078 -0.000474 0.028528 64 63 46
-0.078505 -0.011057 0.029353 65 69 46
-0.011622 0.019988 0.003753 43 37 13
0.006810 0.010924 -0.206472 85 80 78
0.141738 -0.059807 0.200453 78 83 73
0.006842 0.010927 -0.206472 74 93 81
-0.145159 -0.069078 0.005828 78 88 74
0.020196 0.045142 -0.073447 164 154 152
-0.008397 0.042015 -0.062147 157 149 146
-0.048445 0.052235 -0.087572 64 66 53
0.016091 0.030429 -0.026472 173 154 152
-0.073921 -0.085737 0.047578 94 96 87
0.024407 0.049173 -0.085397 160 151 146
0.091347 0.060517 -0.072747 93 108 103
0.030125 0.045551 -0.072997 156 148 147
0.069068 0.029658 -0.022372 140 141 137
-0.120282 -0.076888 0.018253 86 95 88
-0.048457 -0.029973 0.068178 99 74 54
-0.019779 -0.081541 0.084803 99 97 85
-0.032556 0.049608 -0.089197 143 145 136
-0.135480 -0.073112 0.009803 86 93 85
-0.129613 0.070087 0.010053 86 74 47
0.006786 0.010932 -0.206472 100 67 52
-0.126861 0.079842 0.004453 95 97 81
0.082215 0.025643 -0.005297 151 143 142
-0.131828 0.051083 -0.000347 100 108 97
0.138386 0.003363 0.219528 42 43 34
-0.049910 0.044879 -0.074847 126 126 126
-0.114047 0.016111 0.030928 89 92 69
0.006844 0.010905 -0.206472 61 75 66
0.047083 0.042513 -0.062772 150 150 144
0.084532 0.046187 -0.067397 123 135 125
0.013615 0.024260 -0.010472 144 133 128
-0.116728 0.061425 0.013103 17 12 8
-0.057194 0.019570 0.001128 136 117 100
-0.066878 0.007446 0.028653 43 37 22
0.006821 0.010939 -0.206472 67 68 64
-0.094716 -0.065618 0.039753 92 99 91
-0.028108 -0.078206 0.079578 100 98 88
-0.019917 0.048392 -0.084472 154 153 153
0.065598 0.018524 0.019853 157 148 141
0.033585 -0.023399 0.139953 7 4 1
-0.027573 -0.063420 0.085728 111 100 91
0.006825 0.010907 -0.206472 25 41 7
0.068259 0.056807 -0.086097 91 106 103
0.164855 0.027390 0.110928 39 49 37
0.060181 -0.118493 0.125378 99 100 89
0.006843 0.010900 -0.206472 66 80 71
0.046320 0.038305 -0.048097 136 138 129
-0.059754 -0.081519 0.057878 99 95 86
0.006821 0.010905 -0.206472 8 24 3
0.073129 0.044157 -0.064747 131 138 130
0.170485 -0.006441 0.092728 34 50 41
0.181489 0.031089 0.086903 42 50 37
-0.012339 0.047881 -0.081972 151 147 136
0.016784 0.046586 -0.078422 150 140 138
-0.091716 -0.052294 0.047853 104 105 101
0.130507 -0.028218 0.203753 81 76 72
0.256086 -0.063812 0.227153 27 35 32
0.166562 -0.026658 0.227378 65 60 56
-0.087193 -0.039135 0.040853 132 114 80
-0.065215 -0.001645 0.031128 61 64 43
-0.126349 0.073573 0.012253 25 26 20
-0.012200 0.051079 -0.091147 142 143 137
-0.127395 -0.006014 0.021953 114 107 74
-0.069375 0.001791 0.027853 55 60 46
-0.040916 0.047176 -0.082197 141 145 138
-0.015784 0.000342 0.064978 43 41 22
0.035221 0.045290 -0.070147 91 89 98
-0.066879 0.041159 -0.057497 65 71 52
-0.011242 0.015027 0.010303 150 124 109
-0.137297 0.079839 0.002103 91 89 68
-0.097371 0.020454 -0.005897 116 113 97
0.006809 0.010948 -0.206472 145 142 137
0.020380 0.015999 0.018228 51 50 35
0.052885 0.047677 -0.078547 140 141 137
-0.140617 -0.024238 0.025103 69 81 73
-0.002573 0.049408 -0.085497 142 138 131
-0.079544 0.026276 -0.020847 126 119 98
0.106853 0.034692 -0.028147 136 150 139
-0.068870 -0.026127 0.055228 127 103 76
-0.092823 -0.008063 0.024478 61 64 48
0.015948 -0.060918 0.109578 137 109 81
0.029664 -0.112286 0.107103 93 94 90
-0.144768 -0.051133 0.012228 76 88 80
-0.046343 0.023333 -0.009222 67 70 49
0.176144 -0.002468 0.087328 42 50 39
0.015544 -0.072832 0.111728 104 97 89
-0.145044 -0.005530 0.026953 61 63 52
0.074768 -0.016318 0.168253 111 98 85
-0.120522 0.032456 0.000678 99 107 92
-0.079313 -0.010309 0.028728 64 61 45
0.006845 0.010950 -0.206472 40 52 42
0.029847 0.023364 -0.001547 163 149 145
-0.002324 -0.050440 0.093453 146 115 86
0.034127 -0.064849 0.127953 103 94 89
-0.135668 -0.020895 0.026728 121 109 80
0.096675 -0.029766 0.178578 92 88 81
-0.002967 0.029351 -0.025397 162 153 148
0.006830 0.010914 -0.206472 22 30 19
0.163317 0.004207 0.107378 19 17 7
-0.097073 0.019584 -0.005622 123 114 95
0.013821 0.048044 -0.082647 152 149 144
-0.124026 -0.054722 0.024878 86 95 88
0.077922 0.001107 0.118653 127 120 110
-0.093689 -0.047081 0.046253 122 106 74
-0.084096 -0.034323 0.043303 136 113 83
0.062981 0.014736 0.031978 142 133 126
0.088591 -0.019717 0.176403 90 82 79
-0.098035 -0.050704 0.042928 101 102 93
0.157682 -0.047512 0.215003 74 74 70
-0.143187 -0.005146 0.008128 104 117 100
0.166112 -0.011385 0.097353 33 43 29
-0.079551 -0.008312 0.027503 58 65 43
-0.012414 -0.103100 0.083178 95 100 90
0.075333 0.039623 -0.051022 139 147 136
-0.034392 0.043295 -0.070972 147 148 139
0.006828 0.010923 -0.206472 17 19 6
0.028089 0.041755 -0.059347 149 138 142
0.053179 0.014602 0.034628 74 75 64
0.049682 0.037301 -0.042797 136 127 130
-0.010454 -0.039459 0.089628 138 106 74
-0.080306 0.013556 0.020528 113 111 103
-0.106474 0.023689 -0.003547 114 111 95
0.080959 0.036765 -0.043147 140 143 144
0.087225 -0.038131 0.171303 95 91 82
0.092114 0.053942 -0.071847 0 1 0
-0.023587 0.045444 -0.075997 153 148 144
0.035828 -0.031968 0.139453 92 78 70
0.006265 0.021876 -0.001297 146 138 135
-0.040524 0.035584 -0.046922 153 151 143
-0.024420 0.050650 -0.090672 147 147 143
0.066362 -0.057979 0.150778 102 95 89
-0.010919 0.041427 -0.061422 158 146 144
-0.049080 -0.036090 0.066303 142 111 84
-0.027302 0.043540 -0.069522 147 148 142
-0.010516 0.045608 -0.077872 156 148 147
-0.097818 -0.024006 0.036478 122 103 74
-0.031550 0.031620 -0.034147 157 150 140
-0.145806 -0.010702 0.020203 36 39 23
0.067403 0.044808 -0.065497 119 123 116
0.024961 0.010544 0.030728 151 122 110
-0.137285 -0.043909 0.020128 82 88 88
-0.076668 -0.068897 0.050303 96 98 87
0.006828 0.010902 -0.206472 12 23 4
0.013832 0.040488 -0.059747 154 144 144
-0.011218 0.048188 -0.082772 146 138 137
-0.072860 -0.069619 0.053853 96 98 89
-0.138129 -0.071389 0.009028 93 95 86
-0.016237 0.033990 -0.040722 144 134 134
-0.122530 0.005587 0.027078 112 100 69
0.067678 0.047222 -0.074747 132 138 136
0.192356 0.040807 0.071303 32 47 29
-0.038572 0.027205 -0.016347 86 80 65
0.070107 0.041353 -0.052647 126 133 125
0.062314 0.035881 -0.039447 155 147 144
-0.074134 0.001172 0.026228 55 58 40
-0.020555 -0.018141 0.062978 67 60 43
0.099185 0.040473 -0.051347 131 150 140
0.083265 -0.040745 0.168178 97 90 82
0.006794 0.010937 -0.206472 142 121 106
0.069948 -0.077449 0.145953 100 98 90
0.042914 0.053208 -0.095122 129 135 133
-0.137924 0.025255 -0.000272 104 98 62
0.060833 -0.109488 0.129428 98 99 90
-0.146505 0.012648 0.033253 52 54 38
0.006811 0.010932 -0.206472 66 62 55
0.055509 0.034733 -0.036272 157 152 150
0.006831 0.010919 -0.206472 9 24 6
0.040877 0.043493 -0.064922 144 136 133
0.006816 0.010916 -0.206472 73 78 66
0.163411 -0.085900 0.204903 79 79 79
0.135766 -0.049980 0.198553 87 80 72
0.076362 0.051120 -0.079522 116 130 119
0.002815 0.024775 -0.009272 145 132 138
-0.019416 0.044966 -0.073372 135 132 127
0.115882 -0.130076 0.160603 90 97 89
-0.127349 -0.025694 0.017403 120 109 75
-0.011702 -0.059349 0.095853 134 102 78
0.016024 0.052270 -0.095447 139 139 135
0.152542 0.021946 0.191678 8 3 0
0.011958 0.047992 -0.081597 152 145 139
0.006826 0.010900 -0.206472 62 81 69
-0.065329 0.054452 -0.067047 54 56 45
-0.126447 0.072249 0.012678 83 82 40
0.082784 0.036377 -0.040997 136 142 142
-0.123347 -0.056823 0.023378 91 97 95
0.003675 0.049369 -0.086997 138 138 134
-0.125375 0.061961 0.008578 105 108 92
0.108662 -0.124756 0.155028 91 100 93
0.006832 0.010903 -0.206472 53 70 40
-0.006420 0.038977 -0.055722 154 145 140
0.081769 0.045650 -0.066272 128 137 128
0.016983 0.045572 -0.075872 158 151 143
0.008306 0.024896 -0.009597 165 151 145
-0.147027 0.001628 0.027628 43 45 34
0.049175 0.050458 -0.087147 130 139 130
-0.143798 -0.008090 0.026878 58 67 49
0.008721 0.039756 -0.055697 164 149 148
-0.077464 0.029226 -0.025322 42 54 30
0.006831 0.010913 -0.206472 8 16 1
0.006839 0.010932 -0.206472 65 84 72
0.100094 0.059376 -0.066997 85 100 86
0.006819 0.010931 -0.206472 37 41 34
0.030786 0.051727 -0.093797 138 142 135
-0.055311 -0.003985 0.038078 62 62 42
0.020898 0.046781 -0.077722 157 147 145
0.006813 0.010922 -0.206472 76 76 70
-0.056842 0.022916 -0.008947 133 114 89
-0.028422 -0.035097 0.078728 62 67 55
0.071835 0.042693 -0.057472 128 136 125
-0.006698 0.050984 -0.092622 138 137 137
-0.084997 0.023317 -0.013972 127 118 97
-0.137161 0.053492 -0.003272 97 107 95
-0.070796 0.047505 -0.058772 48 58 42
-0.011183 -0.075857 0.090928 100 96 85
-0.113565 -0.078965 0.024003 74 93 81
0.102978 0.038012 -0.043572 116 130 121
0.013808 0.037480 -0.048172 169 160 155
-0.044208 0.043879 -0.071022 132 132 128
0.006844 0.010928 -0.206472 27 54 36
0.112871 -0.057855 0.181053 91 89 81
0.072828 0.036737 -0.041022 147 151 144
-0.111721 -0.032059 0.027028 127 116 82
-0.127833 0.051289 0.003078 104 113 93
-0.007044 0.047881 -0.081972 119 115 118
-0.114607 -0.000246 0.031003 107 90 51
-0.003055 -0.084320 0.095653 105 101 92
0.227178 -0.002950 0.118803 45 59 48
-0.134020 0.030469 -0.010147 105 115 99
-0.093351 -0.024802 0.039503 123 106 77
0.054880 0.041695 -0.057547 157 154 151
0.174197 -0.000542 0.192528 38 20 9
-0.142969 -0.071120 0.004278 81 86 76
0.021689 0.052328 -0.092597 126 122 123
-0.124096 0.032523 -0.001572 104 114 100
-0.039045 -0.054151 0.079803 106 76 42
0.006708 0.010940 -0.206472 17 19 6
0.249116 -0.085102 0.230053 8 12 7
-0.072124 -0.056087 0.058428 103 101 89
-0.092431 -0.046980 0.048253 119 104 65
-0.040715 -0.024025 0.064203 39 37 25
-0.132435 -0.055604 0.019803 81 94 79
0.248236 -0.047713 0.247653 28 38 24
-0.138780 0.057800 -0.002672 95 101 82
-0.127060 -0.070176 0.016103 83 99 90
0.020160 0.013247 0.022928 153 125 108
-0.119404 0.025212 -0.000897 105 90 62
0.180646 0.023489 0.085128 38 53 39
0.082637 0.053033 -0.077072 115 132 118
0.006825 0.010901 -0.206472 71 75 68
-0.132849 0.070613 0.007953 80 72 46
0.077730 -0.027670 0.166503 97 87 85
0.006817 0.010900 -0.206472 82 95 90
0.054841 0.013910 0.035878 35 33 23
-0.037895 0.029874 -0.027972 144 134 132
0.264336 -0.128143 0.190403 60 71 71
-0.069916 -0.032074 0.052928 137 111 82
0.000982 0.045831 -0.073422 154 142 140
-0.095847 -0.031583 0.036028 131 113 79
0.011777 0.040079 -0.056872 165 156 151
0.068616 0.055766 -0.085572 86 101 96
0.052822 0.043975 -0.065522 143 143 147
0.006817 0.010944 -0.206472 24 26 17
0.006814 0.010933 -0.206472 57 51 36
0.018562 0.050141 -0.087047 132 132 132
-0.036546 0.019550 -0.002947 138 114 100
-0.021134 -0.031891 0.076878 79 74 54
0.083764 0.036256 -0.039397 143 143 139
0.085391 0.036635 -0.039322 140 149 140
0.115342 0.032966 -0.027297 0 1 0
-0.035366 0.051882 -0.095397 127 130 133
-0.111701 -0.071285 0.026653 85 95 83
0.168673 0.000214 0.096728 40 50 34
0.029995 0.023513 -0.001572 162 148 144
-0.034256 0.050993 -0.092597 132 140 137
0.172829 0.033056 0.137578 64 69 55
0.006830 0.010947 -0.206472 4 7 6
0.087115 0.040766 -0.051597 135 144 137
0.095704 -0.108710 0.152978 95 96 87
-0.013793 -0.046466 0.087728 146 114 80
0.042968 0.051844 -0.091847 132 141 134
-0.113850 -0.044987 0.033303 94 90 81
0.006741 0.049991 -0.088297 146 148 139
-0.074392 -0.000204 0.026478 60 62 46
0.006829 0.010909 -0.206472 8 14 0
0.172162 0.002151 0.189753 34 14 4
-0.015546 -0.043636 0.085278 144 114 82
0.039884 -0.046232 0.136828 97 88 79
0.132489 -0.083357 0.185553 84 84 78
0.046621 -0.105348 0.119878 105 103 93
-0.028917 -0.015281 0.062003 59 56 40
-0.009869 -0.068585 0.094753 113 102 95
0.006827 0.010911 -0.206472 3 20 6
0.006775 0.010948 -0.206472 156 145 140
0.169960 -0.132679 0.195778 78 87 78
0.179097 -0.116653 0.204928 72 82 70
0.090687 0.037781 -0.044247 136 148 138
-0.065291 0.033471 -0.038247 72 74 65
0.014115 0.030569 -0.026397 170 155 154
-0.135343 0.038402 -0.006872 93 101 88
0.016285 0.044132 -0.070797 161 154 146
0.040278 0.049801 -0.084822 132 133 127
0.006722 0.010962 -0.206472 47 57 43
-0.127644 0.005486 0.024103 116 105 69
0.007580 -0.092981 0.098328 102 98 91
0.009169 0.038941 -0.055322 168 154 150
-0.136277 -0.034079 0.022503 119 112 79
-0.005780 -0.074378 0.097303 108 101 91
0.043389 0.044872 -0.070622 134 133 133
0.107383 0.038626 -0.044172 121 133 125
0.063627 0.037230 -0.040972 149 150 144
-0.027417 0.039619 -0.058122 145 137 134
0.006717 0.010917 -0.206472 109 93 61
0.118483 -0.115629 0.164778 94 96 87
0.051003 -0.105284 0.125853 97 98 89
-0.104468 -0.058162 0.037003 91 100 93
0.027664 0.053000 -0.095022 133 133 135
0.006833 0.010906 -0.206472 9 35 11
-0.139777 -0.037432 0.020128 69 73 68
0.006821 0.010913 -0.206472 10 23 8
-0.134811 -0.066910 0.014703 81 93 85
-0.134223 -0.050706 0.019478 81 92 88
-0.040004 0.050571 -0.091397 124 133 126
-0.067314 0.021920 -0.013722 129 112 96
-0.041465 -0.097271 0.062853 99 100 87
-0.044644 0.042932 -0.068247 144 146 137
-0.114586 0.059312 0.014478 45 56 35
-0.003678 0.040187 -0.058547 158 149 144
-0.125217 0.074860 0.011178 86 84 72
0.013475 0.002827 0.082778 139 118 101
-0.151226 -0.019501 0.018928 82 84 75
-0.034642 -0.011968 0.064703 47 44 28
-0.008825 0.028493 -0.020422 160 149 142
0.040236 0.004647 0.059578 141 116 107
-0.084857 -0.065310 0.045903 96 98 87
-0.019178 0.052879 -0.098697 145 145 145
-0.020139 0.051360 -0.092972 149 150 144
0.022839 0.043920 -0.069197 159 151 148
-0.024470 0.048075 -0.083447 141 139 129
-0.077521 -0.058307 0.052928 99 100 91
-0.043191 0.024994 -0.010247 75 72 56
-0.128136 0.025272 -0.004297 103 101 64
0.035255 0.036484 -0.045672 171 159 157
-0.002032 0.033231 -0.038197 130 122 121
-0.019679 0.032907 -0.034947 159 150 143
0.163398 0.020641 0.110803 73 78 64
-0.091969 -0.057585 0.044703 93 98 88
0.006836 0.010908 -0.206472 6 26 7
-0.146545 -0.019081 0.023303 79 83 78
-0.051789 -0.063782 0.069653 103 103 97
0.008507 0.038534 -0.055122 170 153 155
0.150567 0.014203 0.208728 18 9 2
0.164087 -0.001896 0.104803 44 42 32
-0.129832 -0.042773 0.023803 83 93 77
-0.090976 -0.041070 0.037178 134 113 80
0.007939 -0.020883 0.076853 66 64 43
-0.045264 0.038800 -0.054272 148 146 138
-0.122000 -0.076772 0.018378 85 99 88
0.266320 -0.086921 0.204128 47 61 50
0.007753 0.022746 -0.004422 153 141 139
-0.097152 -0.001018 0.022453 49 58 38
0.014286 0.050197 -0.088197 142 143 139
0.025205 0.045793 -0.073197 146 143 140
-0.101493 -0.027936 0.034353 125 109 77
-0.082179 0.021133 -0.006997 122 119 103
-0.010735 0.019698 0.004203 23 21 2
-0.068539 0.013271 0.025278 129 117 99
0.073790 0.027083 -0.007547 154 149 145
-0.044981 -0.025484 0.064728 46 49 33
0.073122 0.050259 -0.080197 109 120 116
0.068193 0.053372 -0.084297 103 116 115
0.054310 0.039635 -0.051572 155 151 142
-0.003738 0.028240 -0.018722 149 137 135
-0.044532 0.029085 -0.026722 79 78 63
0.014683 -0.017505 0.080478 68 61 44
-0.132604 0.038642 -0.005122 95 102 80
-0.043163 0.037979 -0.053872 140 138 130
-0.117278 -0.034340 0.022128 124 112 81
-0.145704 -0.035809 0.017128 79 87 76
0.023108 0.042283 -0.062372 170 158 156
0.151026 0.001314 0.188328 28 15 2
-0.123757 0.087860 -0.002572 81 87 68
-0.095845 -0.040911 0.035603 131 112 85
0.067176 0.052309 -0.083997 109 120 116
-0.011864 0.025304 -0.009947 152 141 145
-0.034684 -0.013185 0.064978 51 45 30
0.006822 0.010910 -0.206472 21 27 8
0.164830 0.017533 0.106728 41 51 35
0.018386 0.036339 -0.045847 166 157 152
0.023684 -0.011704 0.087053 68 58 44
-0.075949 0.014400 0.010828 83 74 53
-0.058653 0.034212 -0.043422 135 139 134
0.012518 0.046888 -0.079347 160 150 150
-0.046716 0.039564 -0.060072 146 146 142
-0.062523 -0.059320 0.064153 102 99 85
-0.031894 0.036155 -0.049197 142 140 132
0.093850 -0.101663 0.154028 96 98 89
-0.069929 0.028069 -0.022047 67 73 56
0.087520 -0.064301 0.162528 99 94 90
0.209188 0.008150 0.103653 65 85 70
0.068154 0.036478 -0.039547 144 145 136
-0.072620 0.033521 -0.037872 67 71 48
0.026085 0.042773 -0.063022 165 157 154
-0.058090 0.029069 -0.021497 75 75 55
-0.039527 -0.066488 0.075078 106 102 95
-0.115413 0.054221 0.012478 50 61 40
-0.027062 0.039951 -0.059197 150 151 142
-0.021990 0.052630 -0.098522 140 143 144
-0.148414 -0.050608 0.010378 82 91 84
-0.025684 -0.069195 0.084153 109 102 94
0.038661 -0.002728 0.102978 123 98 78
0.006748 0.010941 -0.206472 138 120 100
0.084664 -0.106755 0.147103 96 97 88
0.052740 0.031878 -0.027622 157 153 146
0.006830 0.010907 -0.206472 25 40 24
0.036402 0.047476 -0.079247 133 134 128
-0.041195 -0.012027 0.075178 11 8 3
-0.085168 -0.028532 0.043728 127 111 79
0.006770 0.010938 -0.206472 147 123 109
0.006816 0.010926 -0.206472 62 62 56
0.254676 -0.139927 0.204278 38 54 31
-0.009848 -0.000614 0.068803 51 46 28
0.006819 0.010915 -0.206472 54 55 51
0.219317 -0.044376 0.261653 28 35 29
0.192027 0.021927 0.067503 41 53 45
0.017868 0.038579 -0.053022 165 156 149
0.059231 0.028026 -0.013372 158 151 143
-0.113699 0.010539 0.033703 91 79 52
-0.040493 0.004412 0.046053 44 43 28
0.006844 0.010913 -0.206472 51 72 61
0.158417 -0.107589 0.195653 82 89 81
-0.024343 0.018587 -0.000772 76 64 46
-0.001391 -0.095013 0.091478 103 101 91
-0.133921 0.079977 0.003453 85 88 63
-0.116179 -0.063280 0.028353 83 96 83
-0.015968 0.052296 -0.096247 132 138 138
0.184468 -0.093276 0.217753 65 72 66
0.123155 -0.092425 0.176578 90 90 86
0.001169 -0.088664 0.094728 105 101 94
-0.058086 -0.040664 0.058978 139 113 82
-0.033374 0.044828 -0.076522 152 149 146
-0.020768 0.043097 -0.070547 143 140 137
-0.074663 -0.070278 0.051703 100 101 95
0.171031 -0.099022 0.208928 80 82 73
-0.128862 -0.019907 0.018278 118 104 69
-0.014181 -0.007803 0.064828 64 58 45
0.006824 0.010922 -0.206472 10 21 0
-0.087784 -0.037435 0.040503 131 112 83
-0.123109 0.062345 0.009528 103 114 95
0.014645 -0.070150 0.113103 106 102 93
0.017031 0.020896 0.010103 90 74 79
-0.135395 0.067032 0.002228 104 105 92
0.050253 -0.073020 0.135278 102 97 93
0.068272 0.054581 -0.084672 92 105 100
0.020840 0.022467 -0.001472 132 122 122
-0.018141 -0.098328 0.080678 99 100 91
-0.012856 0.029819 -0.025997 143 133 131
-0.115289 -0.053128 0.029628 95 96 92
-0.071274 -0.021723 0.049278 75 73 52
0.028593 0.052462 -0.093597 135 139 134
-0.106585 -0.055233 0.035428 95 95 91
0.006835 0.010916 -0.206472 39 52 47
-0.063350 0.041190 -0.058947 67 71 50
-0.052862 -0.070050 0.066228 105 103 93
0.101503 0.031230 -0.019072 138 145 137
0.020342 0.052524 -0.095422 140 141 137
0.006729 0.010942 -0.206472 121 116 94
-0.049310 0.048001 -0.080947 72 78 61
-0.014448 0.018564 0.002753 36 35 18
-0.139479 -0.048904 0.014653 88 92 87
-0.126161 0.057422 0.006553 107 112 100
0.006837 0.010911 -0.206472 36 51 35
0.031654 0.052786 -0.094722 128 128 130
0.006844 0.010903 -0.206472 56 76 71
0.003900 0.035237 -0.038822 171 155 152
0.011177 0.046701 -0.077672 152 143 148
0.137599 -0.005548 0.208128 37 24 13
-0.030557 -0.051195 0.075903 144 117 80
-0.100244 0.082710 -0.018422 94 95 82
0.110483 0.037451 -0.040347 135 147 139
-0.035438 0.039960 -0.058597 130 130 126
-0.057962 0.031503 -0.035122 77 81 60
0.100912 -0.047195 0.176303 93 89 80
0.006844 0.010915 -0.206472 61 75 66
0.043320 0.052010 -0.092322 135 139 134
-0.124880 -0.062816 0.021078 89 98 89
0.069767 0.053229 -0.083672 98 118 111
0.040832 0.048649 -0.082147 137 138 134
-0.096954 -0.056810 0.042528 95 100 86
0.066718 -0.045722 0.156103 104 86 77
-0.058477 0.027303 -0.016822 72 73 62
-0.131107 -0.046285 0.023678 88 93 79
-0.033880 0.047413 -0.081697 139 139 141
-0.132233 -0.041352 0.022753 99 98 70
-0.148524 -0.028199 0.018603 72 81 74
0.065816 0.039761 -0.050272 148 145 140
-0.058453 0.050961 -0.076097 56 62 43
0.048347 0.044258 -0.069047 144 144 140
-0.001193 0.040222 -0.058372 162 151 142
0.082475 0.032563 -0.027372 148 149 140
0.089638 -0.065341 0.162328 95 96 87
0.030490 0.041173 -0.058497 166 156 154
0.025730 0.048528 -0.082547 157 153 146
0.023684 0.047746 -0.080872 150 151 142
-0.015499 0.041741 -0.063422 163 152 145
0.068427 -0.094655 0.138878 99 97 87
0.157156 -0.061645 0.209278 77 78 69
0.084238 0.047109 -0.070072 124 133 126
0.068591 0.042989 -0.056597 128 135 127
0.197046 -0.010270 0.097328 72 85 80
-0.027217 0.020721 -0.003422 62 64 48
-0.029848 0.045686 -0.076522 144 144 140
-0.099244 -0.000391 0.023353 44 53 33
0.186369 0.018343 0.076303 38 48 32
-0.013214 0.043617 -0.068347 152 143 146
-0.026328 0.049653 -0.087472 132 132 132
0.062632 0.050821 -0.083322 112 128 119
0.194543 0.039423 0.069728 39 47 44
0.256073 -0.086220 0.219528 37 48 46
0.017449 0.015190 0.018953 112 96 75
-0.011340 0.050088 -0.089047 147 148 144
0.009121 0.022169 -0.001422 149 142 136
0.005225 0.052876 -0.097472 130 133 132
0.130708 0.008381 0.215703 69 66 61
0.006812 0.010938 -0.206472 0 3 0
0.062134 -0.080960 0.140678 101 97 90
-0.012446 0.051477 -0.091697 137 136 136
0.018431 -0.022416 0.084803 71 66 48
0.043039 0.035316 -0.039122 159 148 143
-0.039305 -0.066745 0.077528 106 99 91
-0.115609 0.008967 0.032278 100 87 47
0.100197 -0.097434 0.160278 99 96 91
-0.138672 0.006288 0.035128 113 103 75
0.068278 0.039742 -0.050997 141 148 142
0.042669 0.049834 -0.086372 127 133 131
0.079159 0.037752 -0.043697 149 153 148
0.152493 -0.083182 0.199678 87 87 81
-0.083355 -0.037064 0.043278 136 115 82
-0.014854 -0.073760 0.090453 105 101 94
0.100248 -0.038329 0.179353 91 86 84
0.217350 -0.056813 0.250678 27 28 24
0.273004 -0.079950 0.190753 57 72 69
-0.000631 -0.006411 0.071178 61 52 43
0.065440 0.032479 -0.028072 146 143 138
0.058379 0.035232 -0.036272 157 155 147
-0.017177 0.000143 0.064978 47 40 19
-0.126003 0.084114 0.001653 89 95 78
0.013330 0.045684 -0.076172 162 158 151
0.076571 0.048983 -0.075997 126 136 124
-0.055699 -0.094448 0.056303 92 100 87
-0.032879 0.025285 -0.012147 76 76 54
-0.123663 -0.032120 0.018403 125 115 83
-0.030114 0.047856 -0.081747 136 141 131
0.006822 0.010929 -0.206472 36 39 38
0.093700 0.037164 -0.042147 133 140 132
-0.106165 -0.073320 0.030453 88 98 86
0.006840 0.010951 -0.206472 4 4 6
-0.118215 0.037731 0.003953 102 107 93
0.096970 -0.052205 0.172703 97 94 89
0.073772 0.041175 -0.053547 120 126 126
-0.006783 0.001287 0.072153 37 31 18
-0.121560 0.017469 0.029703 102 105 84
0.078578 0.036082 -0.038922 137 138 134
0.006837 0.010928 -0.206472 85 101 90
0.069483 0.028286 -0.013622 149 145 138
-0.002367 0.048769 -0.084697 150 145 143
-0.006900 0.046101 -0.076397 149 140 133
0.163099 0.016182 0.108328 44 51 29
-0.057297 0.039008 -0.056147 140 141 132
-0.038377 0.053208 -0.096397 109 120 120
-0.140626 -0.051390 0.013703 76 92 83
-0.084784 0.031338 -0.028897 106 106 84
0.006830 0.010910 -0.206472 5 19 0
-0.035798 0.041287 -0.061072 132 129 126
-0.097215 -0.072839 0.035078 87 99 89
-0.020105 -0.077857 0.086028 104 102 92
0.096666 0.047535 -0.066922 107 115 112
-0.058132 0.056110 -0.077497 43 52 34
0.156820 -0.138137 0.184578 84 96 86
-0.032013 -0.035477 0.075953 127 110 85
0.017831 0.023328 -0.006972 130 120 120
0.022585 -0.065076 0.117428 111 100 93
0.006811 0.010938 -0.206472 8 9 3
-0.028641 0.025560 -0.010372 87 81 66
0.050296 0.016090 0.022253 123 113 127
-0.009184 0.040122 -0.057772 164 153 148
-0.108673 -0.079218 0.026403 82 97 83
0.003990 0.003400 0.077178 125 104 89
0.006822 0.010928 -0.206472 37 40 39
0.230595 -0.045655 0.263728 25 37 27
0.053178 0.027715 -0.012047 158 146 144
0.006824 0.010907 -0.206472 12 20 5
0.175349 -0.014801 0.085578 46 59 46
0.135919 -0.040303 0.201853 80 77 74
-0.032210 0.025905 -0.013347 82 81 64
0.103002 -0.004904 0.191928 87 79 78
0.039169 0.040956 -0.058497 143 140 135
0.031845 -0.038964 0.133578 96 87 78
-0.123435 0.006794 0.026553 113 101 72
-0.088919 -0.064497 0.044428 97 97 91
0.031919 0.041326 -0.057747 163 155 152
-0.041853 0.020024 -0.005672 132 113 96
0.019805 0.039712 -0.055347 154 144 144
0.087476 0.025041 0.001028 146 143 140
0.006826 0.010919 -0.206472 10 20 4
-0.118309 0.048181 0.007278 106 112 93
0.273894 -0.096838 0.190778 60 71 67
0.077832 0.052358 -0.079722 120 134 125
-0.144049 0.022300 0.006678 96 89 56
0.172840 -0.009805 0.087578 30 46 35
0.031704 0.013443 0.025528 89 63 50
-0.033348 -0.062658 0.081078 108 102 87
-0.134749 0.062778 0.001728 98 100 87
-0.087496 0.034263 -0.030397 57 68 47
0.012269 0.033329 -0.034597 166 157 150
-0.061513 0.017549 0.004603 132 116 95
0.032784 0.000878 0.090253 133 115 95
0.000891 0.031830 -0.033447 138 128 126
0.006709 0.010941 -0.206472 49 40 23
0.006822 0.010932 -0.206472 20 27 21
0.092661 0.042716 -0.060872 121 132 128
-0.100473 0.082973 -0.011747 76 78 67
-0.011310 0.016695 0.007353 133 121 105
0.006832 0.010901 -0.206472 52 65 60
-0.099601 -0.019149 0.036078 76 79 58
0.015952 0.041060 -0.058522 167 156 149
0.051034 -0.116900 0.120678 101 99 87
0.167004 0.002830 0.098628 39 49 37
-0.014767 0.013173 0.015528 146 125 108
0.185257 -0.008188 0.089228 63 82 70
0.006825 0.010931 -0.206472 21 27 25
-0.010596 0.044885 -0.072147 135 129 133
0.028427 0.036547 -0.048197 166 151 150
0.006817 0.010944 -0.206472 39 45 43
0.001866 -0.098929 0.092628 101 99 91
0.016115 0.007090 0.040478 148 122 107
-0.052732 0.042282 -0.066622 139 141 132
0.006820 0.010905 -0.206472 62 78 69
-0.049307 -0.025071 0.061653 64 62 41
0.049525 0.044234 -0.069147 150 147 142
0.006792 0.010936 -0.206472 144 120 106
-0.069955 -0.038318 0.051778 136 116 80
0.006823 0.010947 -0.206472 62 61 63
0.010905 0.046703 -0.077322 155 146 149
0.173504 0.024445 0.097028 42 52 38
-0.133684 0.047339 -0.002697 105 110 100
0.208089 -0.090023 0.236203 30 33 34
-0.118502 0.066919 0.015103 92 91 74
-0.014836 -0.040777 0.087253 143 112 83
-0.073770 0.045390 -0.053747 47 58 37
0.103206 -0.049190 0.176503 95 87 84
0.028656 0.052249 -0.093272 135 131 134
0.033921 0.027989 -0.012172 167 156 151
-0.122014 -0.052950 0.026453 90 96 94
0.150204 0.003337 0.188453 1 1 0
0.045551 0.049174 -0.081922 135 136 130
0.030197 0.003249 0.060728 145 124 109
-0.006249 0.049795 -0.087572 136 134 126
0.075557 0.036455 -0.039697 145 149 142
-0.010325 0.044041 -0.071172 134 129 127
0.092717 -0.088576 0.159328 95 96 85
0.006707 0.010942 -0.206472 43 35 9
0.057824 0.041760 -0.055622 155 155 151
-0.065395 -0.059423 0.063028 102 103 90
-0.128479 0.066947 0.007753 101 106 96
-0.136102 -0.040153 0.021153 103 96 67
-0.125158 0.039998 0.000328 101 110 92
-0.090967 -0.016363 0.031928 67 73 54
0.036432 0.013298 0.027953 35 31 22
-0.053087 -0.094698 0.058378 99 100 91
-0.037206 0.052520 -0.096297 126 137 133
0.023454 0.030175 -0.023872 167 156 151
-0.029382 -0.056989 0.084778 134 110 83
0.034623 0.039797 -0.054897 153 141 141
-0.031407 0.044261 -0.073072 150 147 142
0.258835 -0.140256 0.200303 53 73 58
-0.042864 -0.046695 0.067303 144 116 86
-0.033914 0.049852 -0.089497 131 134 133
-0.003819 -0.013580 0.069428 68 61 42
0.181272 0.012393 0.088353 33 41 28
-0.046215 0.026724 -0.015422 77 77 57
-0.124317 -0.069299 0.018678 86 95 88
0.006827 0.010926 -0.206472 9 10 4
0.023200 -0.057593 0.120228 101 92 85
-0.094698 0.081326 -0.010772 50 53 35
-0.125640 -0.047791 0.025628 87 100 87
0.006813 0.010931 -0.206472 64 61 56
0.043429 -0.100323 0.121278 100 98 90
0.041672 0.050319 -0.086772 137 139 130
0.224032 -0.010622 0.115903 45 69 55
-0.017379 -0.063504 0.092078 111 102 93
0.020807 0.052700 -0.096247 140 143 142
-0.084306 -0.022705 0.045403 118 101 72
0.069294 -0.082666 0.145178 100 98 90
0.006814 0.010933 -0.206472 58 56 46
-0.080302 0.010727 0.020953 34 40 21
-0.135171 -0.063985 0.013253 88 91 92
0.032618 0.049505 -0.084347 133 133 129
0.049455 0.026492 -0.009497 157 147 145
-0.027377 -0.041157 0.078728 147 117 85
-0.025856 0.052276 -0.094772 133 142 135
-0.007672 0.036107 -0.048047 147 135 133
-0.033040 0.040737 -0.059047 147 142 138
-0.020962 -0.069259 0.088303 107 102 98
0.006819 0.010909 -0.206472 47 57 41
-0.018437 0.025621 -0.011472 128 119 110
-0.021217 0.033233 -0.036297 156 146 144
-0.044341 -0.033895 0.068778 19 18 3
0.049649 -0.058387 0.138478 103 96 88
-0.006033 0.048874 -0.084647 146 141 137
-0.062929 0.053047 -0.069947 50 60 44
-0.071789 0.033017 -0.036997 68 78 55
-0.120088 0.025320 -0.001497 97 87 59
0.262714 -0.085606 0.203653 44 56 48
-0.138661 -0.002259 0.032778 112 106 70
0.218620 -0.043344 0.261628 32 35 34
0.102836 -0.016863 0.187653 88 83 79
-0.070878 -0.024753 0.053603 118 102 68
0.071479 0.046277 -0.072472 122 128 130
-0.045144 -0.009736 0.047078 61 55 42
-0.121187 -0.018980 0.022528 122 110 83
0.075628 0.041292 -0.054647 130 134 127
-0.041326 -0.017060 0.062078 0 5 0
0.017596 0.052104 -0.094347 147 150 149
-0.129329 -0.013491 0.019878 116 109 76
0.056106 0.015414 0.030853 150 143 135
-0.030933 0.052496 -0.095497 140 143 146
0.066478 -0.108223 0.132128 98 99 93
0.007001 0.026497 -0.014772 163 151 149
0.030034 0.012936 0.025828 144 121 102
0.099033 0.047333 -0.066122 113 127 116
0.025642 0.049690 -0.085447 151 147 140
0.107732 0.004598 0.200403 84 80 73
0.173906 0.009974 0.196053 13 4 0
-0.022965 0.034516 -0.043797 157 149 146
-0.000323 -0.068690 0.102003 110 104 91
0.015460 0.031633 -0.028597 170 154 149
0.105173 0.049568 -0.063172 92 110 106
-0.100053 -0.074368 0.031928 92 99 91
-0.067672 0.058708 -0.061897 36 46 30
0.164441 0.001061 0.105053 58 55 25
-0.132061 -0.074433 0.011153 74 85 81
0.122571 -0.091563 0.176503 90 90 84
0.067883 0.048725 -0.078172 114 122 119
-0.055722 -0.063092 0.065628 107 103 94
-0.091375 -0.071075 0.040428 95 100 88
-0.035955 0.031684 -0.036722 150 147 142
0.051192 0.036519 -0.041647 136 127 122
0.006811 0.010906 -0.206472 87 93 93
0.006820 0.010916 -0.206472 36 40 33
0.184195 -0.014228 0.088903 67 86 76
-0.151610 -0.030431 0.015528 73 84 80
-0.025570 0.046468 -0.079847 151 151 145
-0.014759 0.051194 -0.090572 138 141 142
-0.070337 0.026504 -0.019747 49 55 38
0.027317 0.051389 -0.091947 123 126 125
-0.112676 -0.033426 0.025228 123 111 82
0.109245 -0.022847 0.190103 85 85 79
-0.051707 0.042590 -0.066622 136 144 133
0.006795 0.010937 -0.206472 139 120 107
0.006831 0.010921 -0.206472 0 3 0
0.015844 -0.065000 0.114103 127 106 91
-0.025759 -0.090417 0.077378 103 101 91
-0.036597 0.048756 -0.087547 137 141 134
-0.135410 0.043278 -0.006572 100 106 87
0.046146 0.039787 -0.051972 141 141 137
-0.140646 0.005082 0.033728 53 61 48
0.015520 0.050673 -0.089097 143 143 139
0.046380 0.044747 -0.069922 143 145 136
-0.107844 -0.047540 0.037353 96 104 93
0.096277 0.038137 -0.044247 129 141 131
0.082972 -0.097191 0.148878 95 96 87
-0.014425 0.046554 -0.079872 144 145 134
-0.068972 0.045806 -0.059997 53 64 45
-0.008832 -0.041796 0.091803 142 108 75
0.014310 0.003053 0.082278 139 118 103
0.023872 0.041012 -0.056597 152 144 141
-0.129431 0.048232 0.000603 104 112 97
-0.056690 0.010529 0.039953 15 13 3
0.100866 0.032123 -0.020872 134 143 134
0.081189 0.052900 -0.077772 117 131 120
-0.031225 -0.080361 0.077803 103 101 93
0.135765 -0.001962 0.210053 54 50 43
-0.087303 0.024091 -0.015022 119 107 89
0.038409 0.035598 -0.042147 166 154 152
0.006823 0.010911 -0.206472 15 20 6
-0.040269 -0.009417 0.073353 12 9 6
0.006720 0.010976 -0.206472 90 93 77
0.020249 0.042162 -0.062447 163 156 150
-0.019742 0.020020 0.000978 63 62 47
0.101993 0.055333 -0.065547 78 91 86
-0.073032 0.031931 -0.031547 69 75 58
0.079867 -0.069483 0.155428 97 93 84
0.038281 0.035054 -0.040922 157 148 143
0.109901 -0.076268 0.172228 90 91 87
-0.031276 0.027879 -0.022647 41 40 40
0.080471 0.047328 -0.070747 117 129 121
-0.047436 0.048907 -0.082497 116 116 116
-0.047326 -0.063796 0.072728 106 102 93
0.006821 0.010901 -0.206472 74 88 79
-0.097251 -0.051587 0.042803 98 100 87
0.006826 0.010909 -0.206472 7 16 9
0.006807 0.010929 -0.206472 76 77 73
0.026127 0.045889 -0.073572 144 138 140
-0.067274 0.044876 -0.061222 60 66 49
-0.010569 0.020904 0.000378 74 74 52
0.031316 0.042989 -0.064397 146 138 135
0.014957 -0.033282 0.090403 69 72 47
0.081690 -0.117607 0.139353 99 96 91
-0.024812 -0.035629 0.082028 136 109 83
-0.125449 -0.037159 0.018078 119 108 72
-0.040856 -0.082380 0.070803 96 98 89
0.160393 -0.114458 0.193128 84 88 83
0.023892 0.047706 -0.080697 148 143 139
0.025927 -0.050764 0.126003 97 90 80
-0.038188 0.005278 0.048728 65 63 42
0.041469 0.012282 0.030678 71 59 41
-0.048581 0.023793 -0.011022 64 62 39
-0.051442 -0.048237 0.063353 143 112 83
-0.122382 0.015373 0.028678 102 86 54
-0.120054 -0.069186 0.022603 89 97 84
0.227449 -0.007024 0.119203 32 50 46
-0.052765 0.052120 -0.082947 45 64 38
0.165468 0.026394 0.119353 65 73 62
-0.101922 -0.062407 0.035703 95 97 86
-0.010622 0.046564 -0.079172 143 140 135
0.153680 -0.088135 0.198028 77 84 78
-0.126206 0.059113 0.007128 109 111 100
0.062474 0.050747 -0.083272 118 134 125
0.020177 0.042986 -0.067572 164 157 149
-0.044427 0.027722 -0.019897 74 77 56
-0.132162 0.057134 0.002428 77 80 62
0.098196 -0.128088 0.147328 92 99 93
-0.044026 -0.091148 0.066003 94 99 87
0.006825 0.010919 -0.206472 12 34 5
0.010443 -0.004950 0.077803 56 42 34
0.052805 0.050408 -0.085422 125 131 129
-0.104569 0.002547 0.030753 39 43 22
0.186565 0.035215 0.082278 34 51 37
-0.099786 0.078843 -0.001822 46 48 35
0.030230 0.049883 -0.085122 141 141 135
-0.020936 -0.093343 0.079128 101 99 91
0.006815 0.010933 -0.206472 55 55 51
0.050223 -0.029150 0.112953 142 82 53
0.057032 -0.105871 0.130353 101 102 93
0.086558 0.049643 -0.072722 121 133 125
-0.019211 -0.016009 0.063378 68 63 45
0.070638 0.041171 -0.052997 124 126 117
0.006773 0.010938 -0.206472 146 120 109
0.026184 -0.063042 0.122103 106 95 90
-0.061492 -0.019519 0.045003 67 65 53
0.047949 0.025771 -0.005572 157 147 145
0.006708 0.010942 -0.206472 41 42 13
0.006645 0.047454 -0.078672 153 143 141
-0.127407 0.054579 0.002653 103 111 96
0.010952 0.039117 -0.054972 164 152 150
0.011005 -0.044140 0.103778 136 106 74
-0.027419 0.030115 -0.029372 157 148 143
0.088025 0.025183 0.000878 146 143 138
-0.010770 -0.020430 0.067453 70 65 47
-0.142348 -0.067715 0.008053 87 91 86
-0.005291 0.042733 -0.065072 165 156 151
-0.069137 -0.027027 0.054828 129 107 79
-0.053770 0.009615 0.042053 13 14 5
-0.128264 0.083853 -0.010147 87 89 76
-0.000794 0.049202 -0.086972 153 144 147
-0.026440 0.037153 -0.054122 148 141 135
-0.123922 -0.077605 0.017153 86 95 88
0.007994 0.051124 -0.092697 136 133 128
-0.072285 0.016069 0.007378 131 118 96
0.006844 0.010901 -0.206472 65 81 72
-0.150291 -0.002189 0.025353 28 29 18
0.006833 0.010907 -0.206472 14 33 7
-0.036788 0.042261 -0.065797 148 145 140
0.267336 -0.086552 0.200078 61 77 66
-0.021732 0.045597 -0.073947 149 147 139
0.038250 0.040110 -0.056147 161 156 152
0.008964 0.051391 -0.094272 138 139 130
-0.049809 0.004932 0.039878 55 52 38
0.006708 0.010942 -0.206472 64 55 34
-0.040722 0.053753 -0.095822 61 64 48
-0.089551 -0.039309 0.039928 132 114 82
-0.101113 -0.072200 0.032728 90 97 89
0.189306 0.005964 0.186653 22 18 7
-0.026056 -0.097037 0.074578 96 98 87
-0.130124 -0.052588 0.021478 85 94 87
-0.021109 -0.096133 0.078753 96 101 89
-0.053571 0.048074 -0.078147 63 72 54
-0.053878 0.039016 -0.056697 134 138 131
0.089645 -0.091185 0.155278 94 93 78
0.006801 0.010899 -0.206472 94 99 87
0.103252 0.036116 -0.037872 134 150 139
-0.093020 -0.048007 0.047853 114 105 84
-0.132465 0.055614 0.001053 103 105 92
0.057288 -0.083328 0.135428 102 98 91
0.151939 -0.103237 0.194853 85 88 89
0.006832 0.010903 -0.206472 25 40 11
0.006813 0.010909 -0.206472 82 90 75
0.096120 -0.121471 0.148353 96 97 93
0.051531 -0.092548 0.127978 104 102 94
-0.047268 -0.020766 0.053728 62 62 42
-0.121634 -0.020938 0.022128 120 110 82
0.102536 -0.114382 0.154903 96 97 91
0.168863 0.032544 0.149928 31 31 31
-0.010689 0.045369 -0.072947 140 136 129
0.006815 0.010927 -0.206472 69 70 59
-0.043827 0.049322 -0.086322 121 136 122
-0.042547 -0.008959 0.049028 56 53 37
-0.094015 0.001890 0.021053 49 60 39
0.128495 -0.059669 0.191278 87 84 79
0.036175 -0.054315 0.131778 101 92 85
-0.037976 0.026732 -0.015322 82 82 60
0.043583 0.048304 -0.081472 132 133 129
0.026185 0.018095 0.016803 90 82 68
-0.061249 -0.052059 0.066203 127 105 70
-0.005582 0.040722 -0.059122 156 149 143
-0.042555 0.029497 -0.025272 82 81 66
-0.123348 0.043295 0.003028 100 106 89
0.011486 0.037239 -0.048222 169 155 151
0.104171 0.034159 -0.029222 136 148 138
-0.128196 -0.040884 0.025928 109 102 73
-0.082668 -0.038736 0.043403 134 112 86
-0.125245 0.032195 -0.003272 110 123 108
-0.055461 -0.038915 0.061078 143 118 84
-0.026528 -0.013883 0.061778 64 62 43
0.006835 0.010907 -0.206472 8 18 2
-0.010113 0.020005 0.004153 81 75 60
-0.003442 0.016290 0.010003 134 113 96
-0.074195 0.036664 -0.046022 67 72 62
-0.112241 -0.010187 0.027378 37 44 20
0.001098 0.026782 -0.014722 167 155 153
0.150416 -0.132022 0.183528 94 99 89
0.122027 -0.023955 0.196178 83 75 74
0.071848 0.047167 -0.075297 113 126 123
-0.032107 0.046318 -0.079722 147 148 144
0.066208 -0.065894 0.149853 103 95 92
0.020850 0.052145 -0.091947 130 131 127
-0.023083 -0.101595 0.075678 96 97 84
0.101937 0.033995 -0.030472 130 144 133
0.075952 -0.084609 0.147603 104 95 90
0.034001 0.026887 -0.006347 167 150 150
-0.037418 -0.012173 0.067128 33 30 16
-0.065047 0.001880 0.030003 59 63 40
0.095977 0.056633 -0.069397 81 101 86
0.006821 0.010936 -0.206472 7 7 3
-0.085569 -0.061470 0.047353 96 100 95
0.102681 0.060534 -0.065447 86 94 91
0.117031 -0.017469 0.196253 88 80 77
-0.148042 -0.017466 0.019828 79 86 78
0.006793 0.010933 -0.206472 121 88 71
-0.128990 -0.035955 0.014728 118 111 80
-0.021172 0.047509 -0.080422 137 141 136
0.106516 -0.009464 0.195503 86 83 78
0.040441 -0.030312 0.142603 97 83 77
-0.019932 0.050188 -0.088747 147 144 141
0.022168 -0.080156 0.113703 107 99 98
0.015621 0.050483 -0.088897 146 141 139
0.165728 -0.133522 0.194028 80 92 84
0.006831 0.010922 -0.206472 16 30 8
0.040524 0.050048 -0.086797 136 135 135
-0.052628 -0.079571 0.062453 96 97 86
0.179163 0.009077 0.198703 10 5 1
0.076266 0.039592 -0.049947 138 142 135
0.006827 0.010904 -0.206472 5 19 0
-0.068784 0.047817 -0.061797 52 58 41
