ply
format ascii 1.0
element vertex 1233
property float x
property float y
property float z
property uchar red
property uchar green
property uchar blue
end_header
-0.034650 0.016648 0.008634 138 146 147
-0.047082 0.000681 0.016509 103 94 89
-0.013489 0.011590 0.009459 150 149 151
-0.049743 -0.032470 -0.012241 9 10 1
0.077475 -0.039326 0.028859 118 105 0
0.007771 0.045257 0.030734 115 121 121
0.079257 0.024383 0.032684 128 129 102
0.006600 0.011025 0.012384 143 146 145
-0.040197 0.042248 0.021359 121 133 135
-0.033683 -0.029133 -0.001791 78 88 76
0.079094 0.035768 0.039084 115 116 89
-0.023796 0.021481 0.013059 142 142 146
-0.005943 -0.002700 -0.096591 14 23 14
0.078552 -0.021088 0.036659 114 90 0
0.043436 0.010809 0.018734 132 133 127
-0.022671 0.005048 0.005234 162 159 154
0.070529 -0.060087 0.055059 97 96 52
-0.037691 -0.037564 -0.006591 86 98 88
-0.005975 -0.002716 -0.096591 4 4 4
-0.005927 -0.002725 -0.096591 3 2 2
-0.075248 0.016401 0.002159 128 147 137
-0.024932 -0.026118 -0.001041 0 0 0
-0.093611 -0.020170 0.047634 102 121 111
0.028131 -0.057091 0.048259 97 101 78
0.029121 0.023668 0.022984 131 132 126
-0.005968 -0.002720 -0.096591 104 114 98
-0.027180 0.031216 0.017409 135 135 135
0.038043 0.044951 0.035584 119 125 125
0.037370 0.041645 0.033559 114 121 113
-0.005947 -0.002705 -0.096591 11 11 11
0.031818 -0.001966 0.017609 161 156 134
-0.005978 -0.002735 -0.096591 1 2 0
0.048031 -0.042166 0.058459 127 136 116
-0.007011 0.020208 0.015084 144 144 140
0.073160 0.043887 0.041934 117 121 100
0.027387 0.048885 0.035984 119 127 126
0.015837 -0.040020 0.041659 22 15 0
0.059091 0.006899 0.019509 128 137 117
0.048196 0.037313 0.033434 119 127 112
-0.069207 0.026140 0.008359 127 145 139
0.034344 0.029856 0.027184 128 132 125
0.073773 0.032892 0.036509 119 123 98
-0.028377 0.012465 0.007459 143 146 145
0.010842 0.012051 0.013484 149 145 146
-0.030999 0.009731 0.008209 121 124 123
-0.038455 -0.030306 -0.011666 28 44 23
0.011791 0.031169 0.023784 134 137 138
-0.044257 -0.000110 0.018234 89 77 75
0.003408 -0.058283 0.043759 92 99 75
0.009178 -0.030380 0.034859 148 133 121
-0.009651 0.012810 0.010909 150 146 147
0.001751 0.037481 0.025534 125 131 129
0.058064 0.038879 0.036309 124 127 111
0.001190 0.013397 0.012759 13 41 97
-0.023006 0.010500 0.008209 142 148 146
0.072916 -0.024677 0.053884 80 63 36
0.017012 0.003236 0.010259 153 151 141
-0.005932 -0.002721 -0.096591 2 3 0
-0.005916 -0.002703 -0.096591 2 3 0
0.016281 -0.058103 0.046484 89 86 54
-0.047989 -0.002642 0.005609 82 45 15
-0.005880 -0.002709 -0.096591 155 156 143
-0.033053 -0.020343 0.004409 132 139 131
0.045305 -0.007466 0.030284 161 162 135
0.056335 0.029071 0.030584 124 130 113
0.072620 -0.026186 0.056534 125 121 69
-0.049985 0.007752 0.001859 154 162 159
-0.009784 0.034756 0.022284 131 134 135
0.075058 0.007515 0.023759 121 132 102
-0.005983 -0.002723 -0.096591 88 104 93
-0.005938 -0.002716 -0.096591 4 4 4
0.003594 0.006273 0.010034 141 141 135
0.075213 -0.042348 0.048709 137 109 0
0.083433 0.039491 0.035784 121 92 1
-0.005916 -0.002717 -0.096591 1 2 0
-0.025079 0.006401 0.005334 157 154 151
0.044770 0.007975 0.017359 128 136 123
-0.005970 -0.002705 -0.096591 15 15 15
0.079510 0.042403 0.042684 122 127 97
0.021392 0.043286 0.032009 124 130 130
0.070844 -0.057645 0.055684 95 101 61
-0.029660 0.009909 0.008409 122 125 128
-0.005981 -0.002726 -0.096591 85 104 92
0.055798 0.026399 0.029109 124 131 105
0.056189 -0.004378 0.022434 152 153 124
-0.025809 0.013898 0.008809 142 145 146
-0.032735 -0.033587 -0.003866 79 94 80
-0.005969 -0.002724 -0.096591 108 116 101
-0.004987 0.000317 0.012359 83 83 85
-0.005910 -0.002697 -0.096591 15 10 8
0.059425 0.033351 0.033584 120 129 111
0.034047 -0.002977 0.020209 158 158 136
-0.057784 0.019942 0.006759 133 150 153
-0.030016 -0.004545 0.007284 97 46 17
-0.030531 0.039343 0.021459 124 135 135
-0.091886 -0.019571 0.047934 8 13 3
-0.066143 -0.001833 0.003884 81 44 0
-0.005959 -0.002708 -0.096591 7 10 9
0.059178 -0.027067 0.057134 128 134 99
-0.055534 0.038309 0.016684 127 139 141
0.077478 -0.024416 0.041684 122 133 87
0.009491 -0.000079 0.012484 170 158 142
0.064005 0.040736 0.038759 114 120 101
-0.059954 0.038112 0.015684 123 141 139
0.041887 0.037928 0.032359 118 126 123
0.009053 0.012441 0.013384 148 147 149
0.064071 0.009994 0.022184 131 135 112
-0.052710 0.031885 0.013934 132 143 141
0.059721 -0.058939 0.055259 104 102 65
0.035002 -0.005066 0.026434 168 157 134
0.042840 0.013570 0.019734 131 135 128
0.009226 -0.028273 0.034434 147 144 128
0.058698 -0.057440 0.055734 94 100 67
-0.005915 -0.002707 -0.096591 4 5 1
0.079241 -0.016841 0.032659 144 150 115
-0.005976 -0.002691 -0.096591 65 62 46
0.051623 -0.024836 0.042409 123 127 102
-0.005922 -0.002699 -0.096591 2 3 0
0.058541 -0.047281 0.058859 112 119 93
0.074506 -0.056629 0.041109 141 117 0
0.052710 0.011642 0.020709 130 136 119
-0.037372 -0.014575 0.004484 11 19 16
-0.005921 -0.002701 -0.096591 2 2 4
-0.048803 0.002912 0.010059 126 130 123
0.030159 0.003606 0.012584 143 144 133
0.055581 -0.003944 0.022609 148 153 120
-0.099985 -0.020838 0.046234 132 150 146
0.013054 0.003693 0.010034 158 153 149
-0.005938 -0.002704 -0.096591 49 24 4
-0.005928 -0.002730 -0.096591 2 2 2
-0.015945 0.007664 0.007509 154 155 151
0.017855 -0.009429 0.032259 139 132 113
0.037276 -0.026695 0.067709 137 132 110
0.060728 0.015769 0.024659 122 131 111
0.010320 0.002185 0.009534 180 174 161
-0.005980 -0.002690 -0.096591 63 69 52
-0.049894 0.022161 0.009109 134 147 146
0.015768 0.009666 0.013084 146 145 147
0.002987 0.001392 0.011209 171 158 147
0.074130 -0.057693 0.047334 150 125 0
-0.005931 -0.002700 -0.096591 5 6 0
0.018078 0.015735 0.016784 142 142 142
-0.034123 -0.023130 0.001434 136 139 138
-0.005893 -0.002722 -0.096591 2 2 2
-0.032676 -0.009743 0.013534 4 0 1
-0.005892 -0.002713 -0.096591 63 61 24
-0.027442 -0.002806 0.020659 18 14 15
-0.054397 0.019119 0.006809 138 151 148
0.007053 -0.000980 0.016334 169 157 139
0.031544 -0.012887 0.034209 147 149 133
0.058162 0.038427 0.036109 121 129 114
-0.064074 0.020278 0.005559 132 150 146
-0.014447 0.000667 0.010759 39 37 29
0.070062 -0.042228 0.060059 125 130 97
-0.005592 0.039015 0.025309 125 131 129
-0.040959 -0.023099 0.000259 100 113 108
-0.005967 -0.002703 -0.096591 9 2 0
-0.005942 -0.002700 -0.096591 12 21 14
-0.020954 0.027875 0.017109 137 137 137
0.074939 0.006578 0.023059 129 133 110
0.026879 -0.052031 0.051234 13 15 4
-0.073368 0.014675 0.001009 131 148 149
0.027510 -0.059550 0.046959 101 105 75
0.013528 0.003694 0.010059 156 154 146
-0.038388 0.007679 0.003959 149 155 153
-0.005971 -0.002706 -0.096591 6 10 5
-0.042132 0.042613 0.021184 119 133 137
-0.047844 0.006272 0.002259 137 146 137
0.053928 -0.002720 0.018909 148 152 122
0.050632 0.012780 0.020859 136 138 120
0.036626 0.010002 0.016809 135 140 130
-0.005910 -0.002702 -0.096591 14 11 8
-0.072138 0.015453 0.001734 132 152 145
0.035153 0.016928 0.020434 133 135 126
-0.011100 0.021327 0.014959 142 142 142
0.060671 -0.053203 0.057459 127 134 112
-0.005948 -0.002702 -0.096591 12 13 7
0.061744 -0.003070 0.022534 142 148 115
0.017470 0.028443 0.023484 135 138 137
-0.005911 -0.002724 -0.096591 4 3 3
0.038666 0.043726 0.035134 117 123 121
0.036633 -0.015269 0.033059 154 157 136
-0.024121 0.012838 0.008434 145 148 151
-0.005980 -0.002736 -0.096591 10 11 5
0.076660 -0.035863 0.036759 130 110 0
-0.029158 0.043603 0.023759 123 133 136
-0.035561 0.018345 0.009409 140 140 140
0.079995 0.048924 0.046034 112 116 91
0.074411 0.024787 0.032359 126 131 101
-0.019755 -0.036544 -0.009391 0 4 2
0.050330 -0.024305 0.059159 122 126 105
-0.023214 0.039956 0.022934 127 133 133
-0.005913 -0.002730 -0.096591 1 2 0
0.073139 0.046808 0.043884 117 124 98
-0.049567 -0.031570 -0.012341 18 19 15
-0.046417 0.024523 0.010784 133 144 144
-0.066772 0.020596 0.005309 128 146 144
0.003539 0.007811 0.013034 135 132 129
0.008116 -0.040349 0.045584 126 134 121
-0.005920 -0.002704 -0.096591 1 2 0
0.060390 0.034717 0.034359 123 126 108
-0.005965 -0.002729 -0.096591 85 104 94
0.011431 -0.029955 0.035134 131 126 108
0.047349 -0.051264 0.054584 128 133 121
-0.005983 -0.002702 -0.096591 77 89 65
-0.058648 0.033626 0.013809 125 140 139
-0.013208 0.004470 0.006584 161 160 160
-0.078362 0.038278 0.013259 128 142 144
-0.015702 0.014591 0.010709 145 148 147
-0.005929 -0.002724 -0.096591 3 3 3
-0.093680 -0.047737 0.034609 14 13 15
0.067627 -0.026545 0.065059 114 109 68
-0.005920 -0.002728 -0.096591 0 2 0
-0.029077 -0.005580 0.008909 60 36 20
-0.005978 -0.002735 -0.096591 7 13 13
-0.005919 -0.002703 -0.096591 5 2 0
0.019009 0.015248 0.016859 140 141 137
-0.005975 -0.002729 -0.096591 13 14 8
0.015115 0.015297 0.015609 140 141 135
-0.005929 -0.002730 -0.096591 0 5 0
0.043972 -0.045119 0.056809 114 116 103
-0.038296 0.018822 0.009459 136 142 142
0.061040 -0.041527 0.062359 139 144 111
0.073166 -0.032568 0.059384 135 150 125
0.000122 0.044754 0.028909 120 126 124
-0.030463 -0.003683 0.022809 83 82 84
0.074284 -0.046730 0.052734 142 112 0
-0.005910 -0.002730 -0.096591 7 7 3
0.076427 -0.033123 0.044934 124 93 0
0.068342 0.020326 0.028659 122 126 101
-0.005927 -0.002714 -0.096591 0 1 0
0.069749 -0.041625 0.061809 126 136 109
0.008606 -0.000664 0.015534 169 157 141
-0.005986 -0.002715 -0.096591 81 96 78
-0.048383 -0.015396 0.003359 22 22 22
0.012019 0.015819 0.015284 147 143 144
0.012699 0.037394 0.027484 132 132 132
-0.034632 -0.034687 -0.005191 82 93 89
-0.065045 0.000244 0.015659 62 66 61
-0.053667 -0.023390 -0.000041 75 93 89
0.072982 -0.061574 0.050709 137 115 33
-0.005927 -0.002709 -0.096591 17 18 9
0.000193 -0.005883 0.026634 148 139 122
-0.035273 -0.028987 0.052059 2 6 1
0.067507 -0.033200 0.064534 149 154 124
-0.005966 -0.002703 -0.096591 1 2 0
-0.104379 -0.014987 0.047609 75 88 75
-0.005976 -0.002734 -0.096591 3 15 7
-0.005983 -0.002698 -0.096591 49 60 41
0.063679 0.046561 0.041459 121 127 108
0.034743 0.010317 0.016659 138 138 134
0.040315 0.020409 0.022909 127 132 120
0.016280 -0.005768 0.025659 161 153 129
0.042478 0.039520 0.033184 119 126 120
-0.058749 -0.001900 0.004684 80 45 17
0.030536 -0.060111 0.048109 105 103 80
0.074930 -0.031612 0.052109 138 140 104
0.073859 0.018265 0.028959 129 133 108
-0.018210 0.017666 0.012009 144 143 150
-0.039996 0.020553 0.009909 137 145 146
0.081568 0.039335 0.039684 119 121 89
-0.005964 -0.002729 -0.096591 59 62 65
0.032659 0.010978 0.016634 141 139 131
0.056602 0.047840 0.040809 115 123 112
0.067563 0.052356 0.046259 113 123 111
0.046860 -0.051529 0.055409 129 132 109
-0.048579 -0.018740 0.002284 80 94 85
-0.040836 0.035855 0.017784 126 137 135
-0.039683 0.006724 0.003209 150 156 154
-0.005963 -0.002708 -0.096591 7 15 14
-0.005915 -0.002709 -0.096591 9 9 5
-0.037650 -0.033988 0.049459 32 32 12
-0.024799 0.017869 0.010984 142 142 144
0.058177 -0.057600 0.055559 104 106 74
-0.049654 0.012988 0.004434 138 155 156
-0.011291 -0.025500 -0.001866 5 5 0
0.020715 -0.033217 0.044409 35 57 12
-0.044551 0.015680 0.006234 142 148 146
-0.005938 -0.002731 -0.096591 0 6 0
0.041497 -0.047733 0.055009 119 89 16
0.064098 0.049169 0.043309 117 127 111
-0.001182 0.012366 0.011684 145 144 144
-0.022984 0.016439 0.010484 143 143 145
0.053205 -0.017917 0.033759 163 174 153
-0.103787 -0.035431 0.039434 84 94 69
0.025334 -0.004488 0.023934 165 158 139
0.025377 0.015287 0.017634 138 139 135
-0.005937 -0.002729 -0.096591 63 73 59
0.005731 0.042436 0.028859 120 123 124
-0.005915 -0.002696 -0.096591 21 20 20
-0.005915 -0.002702 -0.096591 9 9 5
0.048664 -0.040408 0.060609 123 125 107
-0.038206 0.029292 0.014784 133 136 137
-0.034659 -0.035179 -0.005316 89 98 91
-0.036054 0.039475 0.020384 127 135 136
-0.030656 0.034170 0.018809 128 136 135
0.057634 0.009858 0.020909 131 135 114
-0.059416 0.027587 0.010484 134 147 146
-0.012074 0.015584 0.011934 145 144 148
-0.059579 0.028624 0.010809 132 143 143
0.001367 -0.001869 0.019409 157 145 129
-0.005918 -0.002714 -0.096591 0 2 0
0.075554 -0.044186 0.042034 138 113 0
-0.005977 -0.002732 -0.096591 16 23 15
-0.005975 -0.002735 -0.096591 11 19 16
-0.032025 -0.020251 0.004734 82 88 90
-0.005954 -0.002703 -0.096591 6 9 8
-0.095531 0.000422 0.051509 66 57 40
0.041628 0.003865 0.015659 128 129 123
0.019410 0.020594 0.019459 140 140 136
0.003556 -0.005708 0.026884 152 143 124
-0.045909 0.029023 0.013284 132 140 137
-0.009823 0.017871 0.013534 145 144 146
-0.046189 0.022500 0.009559 133 144 142
0.038922 0.033804 0.029859 123 128 118
0.053441 -0.042782 0.059534 140 144 119
0.077795 -0.030140 0.029759 133 104 0
-0.052693 0.009681 0.002859 144 155 151
0.035620 -0.041836 0.056284 101 123 78
-0.005925 -0.002703 -0.096591 2 2 0
-0.005941 -0.002705 -0.096591 9 9 5
-0.052254 0.011993 0.005759 127 142 139
0.082687 0.035775 0.035684 96 82 24
-0.035358 -0.020349 0.003184 85 93 90
0.058843 -0.051155 0.057409 122 132 109
-0.040383 -0.023924 -0.001141 95 109 100
-0.005976 -0.002702 -0.096591 71 77 75
-0.005932 -0.002726 -0.096591 0 2 1
-0.005910 -0.002711 -0.096591 6 6 0
-0.082702 0.034914 0.010109 135 145 131
-0.013323 0.006562 0.007134 155 155 149
-0.034522 -0.024006 0.000834 127 136 127
0.029750 -0.057029 0.049234 105 105 81
0.075993 -0.013929 0.039884 151 167 146
-0.005933 -0.002712 -0.096591 2 3 0
0.040346 0.008936 0.016959 135 140 130
0.046854 0.002569 0.014359 140 145 131
0.027820 -0.004307 0.023659 164 159 137
-0.046708 0.038457 0.018259 128 140 142
-0.005926 -0.002696 -0.096591 4 4 0
-0.054435 0.024201 0.009209 138 149 147
0.004894 -0.055821 0.045709 95 100 72
-0.053428 0.024413 0.009734 135 150 149
0.079621 0.016833 0.028634 122 129 103
0.046296 -0.016168 0.034409 147 149 133
0.051209 -0.014350 0.036684 142 147 133
0.004562 0.029679 0.021884 130 131 127
0.031529 0.029439 0.026284 131 132 128
-0.005969 -0.002720 -0.096591 1 6 0
0.046784 -0.058711 0.051134 99 103 75
0.016780 -0.055876 0.046984 82 81 66
-0.036735 -0.032832 -0.004716 78 98 93
-0.047273 0.029646 0.013484 128 142 144
-0.033153 -0.037604 -0.006316 88 97 90
-0.004045 0.012248 0.011409 146 145 149
-0.005913 -0.002729 -0.096591 2 3 0
-0.037356 -0.033321 -0.005066 85 98 93
-0.033892 0.011331 0.006409 140 146 144
-0.003209 0.002364 0.010034 160 151 142
0.017164 -0.041386 0.041109 111 96 70
0.010739 0.044175 0.030584 122 125 126
-0.046177 -0.001885 0.006534 52 41 34
-0.034399 -0.031581 -0.003316 83 92 85
-0.045302 -0.019902 0.001884 91 100 93
0.071773 -0.006442 0.033484 144 150 117
0.025552 -0.007725 0.029784 161 154 133
0.025589 0.026778 0.024234 133 136 137
0.057486 -0.059250 0.053134 103 104 77
-0.022555 0.021870 0.013359 138 141 142
0.024480 -0.054838 0.049084 98 101 78
0.052031 0.010961 0.020034 133 136 118
-0.067235 0.021316 0.005834 125 145 142
-0.094621 -0.022450 0.046534 130 150 145
-0.018766 0.006182 0.006259 158 155 150
0.006185 0.019881 0.016734 140 139 141
-0.005939 -0.002721 -0.096591 1 1 1
0.055058 -0.050168 0.056409 120 123 102
0.045489 0.035714 0.031909 109 113 108
-0.036239 -0.036178 -0.006591 91 106 101
0.031862 0.039497 0.031384 124 128 123
0.031173 0.017635 0.020059 131 135 130
-0.005881 -0.002712 -0.096591 112 135 112
-0.013651 0.015868 0.011734 146 145 149
-0.070750 0.034813 0.012784 125 140 139
-0.005921 -0.002705 -0.096591 3 3 0
-0.005967 -0.002714 -0.096591 91 102 98
-0.005950 -0.002736 -0.096591 75 98 92
0.040801 -0.002218 0.017459 154 154 130
-0.005941 -0.002702 -0.096591 4 5 1
0.075029 0.032287 0.036809 120 128 99
-0.002481 0.025944 0.018734 139 138 140
-0.005946 0.011874 0.010984 149 149 153
0.038919 -0.028167 0.067109 121 121 101
0.073816 -0.044813 0.053709 131 110 0
-0.005938 -0.002706 -0.096591 8 5 0
-0.037551 0.008064 0.004109 154 155 151
0.000582 -0.017627 0.028909 105 133 106
-0.057071 0.024042 0.008884 131 149 147
-0.013864 0.030556 0.019484 131 134 135
0.005976 0.034742 0.024784 123 127 122
0.015279 -0.002295 0.019209 163 158 138
-0.005977 -0.002697 -0.096591 72 56 33
0.074617 -0.016052 0.038084 146 174 149
-0.047615 0.015044 0.005609 143 154 152
0.059403 0.010176 0.021459 126 135 117
-0.005977 -0.002699 -0.096591 47 55 42
-0.005914 -0.002707 -0.096591 9 10 6
-0.005964 -0.002724 -0.096591 100 118 114
0.033985 -0.054354 0.051059 105 103 80
0.033152 0.007587 0.014959 145 142 137
0.057279 -0.039449 0.063459 139 141 109
0.055495 -0.037243 0.062484 121 128 106
-0.005929 -0.002706 -0.096591 24 20 9
-0.097127 0.003545 0.043609 60 73 56
-0.005933 -0.002716 -0.096591 6 6 0
-0.005917 -0.002706 -0.096591 0 1 0
-0.046125 0.004745 0.006209 128 133 121
0.074574 0.039035 0.039684 123 127 99
-0.047383 0.036295 0.017109 130 137 141
-0.009742 0.017871 0.013534 144 143 145
0.032508 0.028456 0.025959 124 131 123
0.072269 -0.037416 0.062209 145 161 140
0.048681 0.001433 0.014434 138 146 133
0.043493 0.037944 0.032109 117 121 114
-0.036718 -0.028233 -0.002291 81 95 86
-0.033831 0.004799 0.005909 141 137 130
-0.066666 -0.008172 0.014409 52 30 4
0.056185 0.025904 0.028959 123 130 108
-0.032486 -0.008141 0.015459 64 32 12
-0.004878 0.020721 0.015584 140 142 133
-0.005924 -0.002706 -0.096591 4 3 3
-0.005977 -0.002695 -0.096591 52 61 54
-0.048318 0.012399 0.004959 146 154 153
0.061857 0.004851 0.019434 130 137 113
0.061774 0.001695 0.017009 127 136 116
0.082016 0.028523 0.032559 86 65 23
0.038114 0.021464 0.023359 130 133 132
0.020294 -0.001806 0.016659 162 160 139
0.047719 0.030738 0.029834 123 128 118
0.071058 -0.048634 0.061159 90 90 55
-0.048808 0.024884 0.010659 135 147 149
0.049652 -0.059844 0.050984 97 102 67
0.029932 -0.052750 0.051759 96 99 74
-0.005975 -0.002728 -0.096591 9 11 2
-0.064052 0.011466 0.002084 114 127 126
-0.005918 -0.002717 -0.096591 1 1 1
-0.036755 0.012011 0.005884 145 148 151
0.073240 0.019598 0.029734 126 131 101
0.056323 0.014094 0.022859 130 133 115
0.015626 0.035191 0.026534 133 137 132
-0.053377 -0.020466 0.001409 96 108 110
-0.005891 -0.002719 -0.096591 11 19 16
0.084156 0.047387 0.036134 121 92 0
-0.005932 -0.002725 -0.096591 2 2 2
0.056922 -0.046910 0.057959 117 120 102
0.042514 -0.003849 0.021859 156 155 127
-0.005924 -0.002702 -0.096591 2 3 0
-0.005917 -0.002733 -0.096591 0 3 0
-0.075716 0.027422 0.007734 129 149 144
0.060047 0.017818 0.025209 120 130 105
0.036861 -0.049394 0.053559 118 126 113
-0.021060 0.006457 0.005959 157 158 152
-0.066824 0.041114 0.016209 125 139 141
0.009714 0.040951 0.029084 126 130 125
0.030710 0.035598 0.029359 128 132 127
-0.053231 -0.018478 0.002459 84 104 99
-0.098801 -0.020727 0.046184 137 153 144
-0.005915 -0.002705 -0.096591 6 7 3
-0.046868 0.030811 0.014134 133 141 138
-0.005905 -0.002713 -0.096591 4 1 0
0.053823 -0.050660 0.055834 108 89 85
-0.005959 -0.002736 -0.096591 43 61 55
-0.005924 -0.002709 -0.096591 2 2 2
0.005717 -0.015519 0.031759 26 23 18
0.018822 0.043712 0.031884 127 133 133
0.045858 0.015415 0.021759 129 135 118
-0.005933 -0.002726 -0.096591 5 5 1
-0.035570 0.005082 0.005684 140 138 130
0.063780 0.028235 0.031759 127 134 110
-0.038848 -0.029699 -0.011616 20 23 7
-0.005914 -0.002701 -0.096591 4 3 3
0.070603 -0.018308 0.037109 161 173 147
0.060251 0.012252 0.022834 126 129 113
-0.062467 0.023285 0.007709 134 147 142
-0.064363 0.029628 0.010484 131 144 143
-0.033126 0.016872 0.009009 136 142 140
-0.045118 -0.015405 0.004009 16 22 24
-0.005958 -0.002699 -0.096591 10 15 5
-0.034857 0.011813 0.006084 148 151 152
-0.025184 0.008688 0.007109 115 112 109
-0.004506 0.014560 0.012509 145 144 144
0.067198 -0.052329 0.058609 95 100 63
0.064748 -0.002373 0.021859 138 144 109
-0.017575 -0.035416 -0.010841 4 7 6
-0.029722 -0.003403 0.007334 58 26 0
0.012650 0.018976 0.017659 144 144 144
0.009260 0.024961 0.019934 138 137 137
-0.030574 -0.038596 -0.005816 34 46 36
-0.051742 -0.020992 -0.000366 96 116 109
-0.062200 0.038743 0.016059 126 141 140
0.072115 -0.035403 0.062609 143 156 143
0.063683 -0.015080 0.037184 162 169 147
0.027959 -0.003490 0.020184 162 155 134
0.068082 -0.006225 0.032534 150 152 118
-0.035977 -0.016088 0.005284 27 30 33
-0.032846 -0.014169 0.027334 44 20 6
-0.006104 -0.000738 0.011409 18 19 15
0.073623 -0.049677 0.049309 141 117 0
0.047210 0.006181 0.016859 135 141 124
-0.047011 -0.022371 -0.000866 104 117 112
-0.005911 -0.002727 -0.096591 5 4 4
-0.029274 0.009330 0.008059 119 115 116
-0.011287 0.003088 0.008984 151 146 142
0.072838 -0.058258 0.051659 140 122 12
0.060977 -0.012171 0.037659 149 153 132
-0.005976 -0.002735 -0.096591 8 21 6
-0.005968 -0.002723 -0.096591 104 118 107
0.066856 -0.020020 0.036709 161 171 146
0.020161 -0.046214 0.045334 110 88 64
-0.025969 0.012262 0.007634 142 145 146
-0.067563 0.022911 0.006509 133 147 149
0.006011 -0.003847 0.021609 160 148 130
-0.028634 0.036142 0.020159 129 135 135
-0.050880 0.034078 0.015434 129 142 139
-0.000540 0.043585 0.028484 121 127 129
-0.018655 0.018940 0.012409 141 144 143
-0.049430 0.011550 0.006359 128 141 138
-0.063599 0.015033 0.003434 134 152 148
0.004546 0.020347 0.016984 138 137 137
-0.060938 0.033510 0.013209 127 141 143
-0.038153 -0.028150 -0.002341 83 96 93
0.038957 0.038779 0.032359 119 126 118
-0.067607 0.023491 0.006709 132 147 142
-0.005974 -0.002724 -0.096591 5 13 10
-0.045115 0.040539 0.019784 125 136 136
-0.005956 -0.002727 -0.096591 109 128 118
0.022120 0.017423 0.018359 141 140 142
-0.005932 -0.002732 -0.096591 3 3 5
-0.005910 -0.002724 -0.096591 0 1 0
-0.043671 -0.027887 -0.010566 116 129 124
-0.005916 -0.002713 -0.096591 4 5 0
0.056705 0.034468 0.033484 126 131 117
-0.046915 0.015215 0.005734 137 150 147
-0.005846 -0.002713 -0.096591 131 104 0
-0.005934 -0.002727 -0.096591 0 2 0
0.003209 0.001543 0.011034 170 157 144
-0.005943 -0.002702 -0.096591 16 16 18
-0.005967 -0.002717 -0.096591 97 110 97
-0.041676 -0.022778 0.000084 104 115 115
-0.030475 -0.030049 -0.001016 6 7 3
-0.030042 0.023792 0.013309 138 138 138
0.032329 0.017101 0.019934 136 136 130
-0.005922 -0.002733 -0.096591 1 9 51
-0.002320 0.036409 0.024159 126 129 128
-0.054274 -0.033171 -0.005316 42 50 37
-0.073829 0.027655 0.008009 130 145 140
0.010067 -0.039052 0.042609 103 107 100
0.003869 0.021862 0.017834 137 136 136
-0.051373 -0.018800 0.002209 89 93 88
-0.039048 -0.031647 -0.004841 75 81 81
-0.006027 0.017491 0.013659 146 142 145
-0.005910 -0.002702 -0.096591 16 11 9
-0.005893 -0.002713 -0.096591 60 57 23
-0.005982 -0.002701 -0.096591 61 71 57
0.075190 -0.043029 0.048859 137 114 0
-0.005923 -0.002696 -0.096591 4 4 4
-0.005896 -0.002707 -0.096591 19 16 11
-0.005929 -0.002701 -0.096591 9 9 9
-0.005909 -0.002710 -0.096591 104 101 60
0.050737 0.019509 0.024209 130 133 115
0.064831 0.036511 0.036209 117 127 102
-0.005965 -0.002710 -0.096591 5 12 6
-0.007608 0.023597 0.016634 138 138 140
0.033466 0.029189 0.026709 130 130 124
-0.005967 -0.002710 -0.096591 17 17 21
-0.031885 0.017689 0.009634 140 141 137
-0.102287 -0.038968 0.037759 97 110 93
-0.006957 0.026203 0.018084 139 136 133
0.002964 -0.056239 0.044884 101 102 73
-0.027320 0.038547 0.021409 127 135 136
0.076510 -0.028965 0.041084 125 92 0
-0.003207 0.044096 0.028134 120 126 124
0.076936 -0.030417 0.038809 126 99 0
0.013664 -0.005676 0.025559 161 152 133
0.004932 0.004740 0.009359 154 151 148
-0.093652 -0.041106 0.037659 12 10 0
0.039281 0.007331 0.015759 138 140 131
-0.005907 -0.002713 -0.096591 0 1 0
-0.005918 -0.002701 -0.096591 2 1 1
-0.005629 0.007960 0.011284 129 125 126
-0.053004 0.009301 0.002134 147 159 151
0.060086 -0.001147 0.016259 150 156 123
-0.092764 -0.021850 0.046759 5 17 7
0.074842 -0.007754 0.035384 146 147 118
0.005142 0.027282 0.020659 132 131 131
0.075145 -0.032586 0.049934 133 139 99
0.084424 0.047690 0.037984 116 89 0
0.045901 -0.014524 0.035359 152 157 143
-0.041239 0.004157 0.007584 135 132 127
-0.005958 -0.002708 -0.096591 9 14 4
-0.006555 0.032600 0.021484 132 132 132
0.075752 -0.036646 0.044484 131 102 0
-0.038890 0.034734 0.017434 127 135 134
0.002615 0.019096 0.015684 137 136 136
-0.097183 -0.021659 0.046109 135 149 140
-0.033787 0.036319 0.019159 126 134 135
0.003276 -0.003323 0.020984 155 143 123
-0.080941 0.030157 0.008409 135 143 140
-0.099690 -0.011555 0.048534 116 129 114
-0.031094 0.041280 0.022484 126 134 133
-0.056865 0.027579 0.010734 135 147 149
-0.010386 -0.000578 0.011534 21 21 17
0.065692 0.007193 0.020984 128 137 117
-0.074662 0.030431 0.009534 128 143 140
-0.005984 -0.002703 -0.096591 80 88 75
-0.011822 -0.008903 0.008859 3 3 3
-0.025153 0.031560 0.018284 130 138 137
-0.082521 0.035253 0.010184 131 145 134
-0.005913 -0.002725 -0.096591 2 3 0
-0.005920 -0.002726 -0.096591 3 3 0
0.076280 -0.045527 0.031734 128 108 0
-0.064831 0.004907 0.006359 129 142 129
-0.005958 -0.002704 -0.096591 11 18 10
0.037204 0.041957 0.033634 122 126 119
-0.005949 -0.002704 -0.096591 7 11 6
-0.043336 -0.000188 0.018509 82 76 63
-0.040657 -0.030240 -0.012816 104 124 119
-0.005919 -0.002709 -0.096591 2 2 2
-0.049009 0.038740 0.018109 124 142 140
0.034005 -0.055104 0.050734 104 104 71
-0.068379 0.006557 0.002984 133 149 138
-0.038146 -0.020702 0.002309 81 92 88
0.015475 -0.057245 0.046709 87 90 67
-0.005977 -0.002699 -0.096591 55 60 48
-0.060122 0.022915 0.007759 132 150 146
-0.005967 -0.002708 -0.096591 16 22 20
-0.070467 0.004167 0.008909 125 145 138
-0.005969 -0.002726 -0.096591 113 124 103
0.036669 -0.058005 0.050984 101 102 75
-0.005392 0.012630 0.011309 147 146 146
-0.031212 0.029809 0.016009 124 120 123
-0.006042 0.044527 0.027584 121 126 131
-0.017893 0.025041 0.015759 139 140 136
0.035199 -0.005157 0.026484 166 158 134
0.073657 -0.056055 0.053409 139 120 0
-0.005922 -0.002699 -0.096591 2 3 0
-0.039761 0.043549 0.022259 122 135 134
-0.046404 0.015405 0.005959 140 149 142
-0.005907 -0.002724 -0.096591 5 6 2
-0.099078 -0.035399 0.040134 92 109 95
-0.023767 0.032325 0.018584 135 135 135
-0.044408 0.006663 0.002559 154 160 158
-0.018328 -0.036336 -0.010416 3 6 5
0.073391 0.039496 0.039884 122 126 98
0.012914 0.018990 0.017734 143 142 142
0.044841 -0.025455 0.058434 115 128 111
0.057782 -0.042649 0.060359 144 148 123
-0.061586 0.004314 0.007634 124 134 122
0.063436 -0.033542 0.063859 136 144 115
-0.034110 -0.031566 -0.003141 81 90 81
-0.035495 -0.029872 0.051534 1 4 3
-0.041155 0.008332 0.003859 148 154 154
-0.000809 0.001312 0.011184 171 158 147
0.005371 -0.008710 0.031034 130 120 106
0.001998 0.015438 0.013959 23 46 92
0.040007 0.011813 0.017984 130 134 127
-0.039193 0.029463 0.014809 135 141 143
-0.045096 0.006944 0.002459 152 161 154
-0.005920 -0.002716 -0.096591 2 2 0
0.014809 0.026372 0.021859 138 138 140
-0.009806 -0.001995 0.013059 5 5 1
-0.041694 -0.024137 -0.000816 99 114 111
-0.053039 -0.027963 -0.003791 109 122 109
-0.005921 -0.002711 -0.096591 2 2 0
-0.035836 -0.055898 0.037484 6 6 6
-0.033160 0.008213 0.004809 150 150 150
-0.042687 0.040663 0.019659 123 133 136
0.021805 -0.013059 0.033959 14 14 8
0.057238 0.018310 0.024959 130 133 115
0.052711 0.023974 0.027259 121 127 108
-0.011533 0.009620 0.009234 148 151 154
-0.064732 -0.000832 0.010584 69 70 64
0.035794 -0.036961 0.061184 123 125 112
-0.005943 -0.002698 -0.096591 41 27 21
-0.005908 -0.002713 -0.096591 5 5 1
-0.092239 -0.031312 0.043184 10 15 5
0.008638 -0.029310 0.034334 148 62 53
-0.005923 -0.002718 -0.096591 4 5 1
-0.005898 -0.002714 -0.096591 19 21 12
0.078577 -0.023000 0.032659 121 99 0
-0.059018 0.009189 0.001209 143 157 148
0.070046 -0.009417 0.037684 154 159 131
-0.067715 0.022502 0.006384 135 148 147
-0.020222 0.042130 0.024309 123 130 136
-0.050810 -0.035498 -0.007541 127 143 134
-0.069542 0.008808 -0.000766 138 156 152
0.028887 -0.041009 0.054784 95 114 86
-0.022850 0.041375 0.023459 126 132 134
-0.097665 -0.051738 0.032234 92 107 89
-0.012191 0.025581 0.016934 136 139 140
0.019268 0.022925 0.020784 139 139 139
-0.005923 -0.002717 -0.096591 0 3 2
0.035739 -0.042067 0.056309 111 131 84
0.022648 -0.027796 0.037009 8 12 7
-0.005893 -0.002712 -0.096591 126 126 93
-0.032802 0.017384 0.009259 138 146 147
0.037945 -0.030019 0.065284 82 84 75
-0.005967 -0.002710 -0.096591 6 15 6
-0.005967 -0.002730 -0.096591 58 67 47
-0.005972 -0.002733 -0.096591 119 132 115
0.070579 0.015188 0.026784 124 134 109
-0.053380 0.029221 0.012309 130 148 146
-0.005952 -0.002704 -0.096591 13 14 8
-0.005913 -0.002728 -0.096591 1 1 1
-0.037261 -0.027142 -0.001691 85 98 93
-0.005957 -0.002726 -0.096591 103 130 125
0.067743 -0.025169 0.064534 136 139 98
-0.098654 -0.024991 0.044684 85 108 100
0.013680 -0.021768 0.036634 74 0 1
0.068054 0.013435 0.025159 128 133 105
-0.098350 -0.039032 0.036909 92 109 95
0.054488 0.008329 0.019334 131 137 118
-0.024414 0.021448 0.012909 142 142 142
0.060036 0.046387 0.040409 111 120 100
0.050839 0.042921 0.036734 112 122 110
-0.022795 -0.033481 -0.001241 4 8 3
-0.005921 -0.002703 -0.096591 2 2 2
-0.059558 0.012377 0.004809 123 142 142
0.035918 0.046757 0.036534 112 123 119
0.057415 -0.039860 0.063209 138 143 115
0.019691 -0.055381 0.046784 93 90 58
0.051753 -0.049293 0.055384 123 127 97
0.021556 0.004876 0.012434 146 143 140
-0.005898 -0.002717 -0.096591 9 11 0
0.075333 -0.041806 0.040459 138 113 0
0.082024 0.052127 0.045934 119 117 94
-0.005979 -0.002726 -0.096591 11 11 5
-0.060830 0.032343 0.012834 129 144 143
-0.059016 0.019595 0.006209 134 151 152
0.007939 -0.020887 0.035909 120 1 0
-0.005962 -0.002704 -0.096591 4 8 1
0.003132 0.041053 0.027284 121 124 123
-0.011369 0.006449 0.007584 156 153 148
-0.042642 0.003630 0.008984 129 133 126
0.038348 -0.036072 0.060809 126 128 119
0.024468 -0.015253 0.033884 60 45 17
-0.005900 -0.002712 -0.096591 110 6 24
-0.038193 -0.019208 0.003809 89 101 93
0.014293 0.000126 0.014259 167 158 139
-0.039028 -0.000844 0.019684 75 67 64
-0.005929 -0.002696 -0.096591 12 12 12
-0.050504 0.033562 0.015109 128 143 142
0.007592 0.009624 0.012009 149 143 145
-0.005918 -0.002714 -0.096591 2 2 0
-0.005890 -0.002706 -0.096591 19 19 13
-0.078209 0.034318 0.011109 132 143 143
-0.005917 -0.002730 -0.096591 6 9 8
-0.005977 -0.002693 -0.096591 56 71 53
0.051360 -0.017001 0.035009 152 155 137
-0.005900 -0.002703 -0.096591 17 17 11
-0.005910 -0.002724 -0.096591 11 3 2
0.034297 0.005951 0.014959 117 124 118
-0.010765 0.036418 0.022834 131 134 133
-0.017694 0.017125 0.011659 144 144 144
-0.022502 0.029300 0.017434 135 138 141
0.076652 -0.040508 0.032909 125 106 0
0.083208 0.051136 0.042559 108 84 0
-0.005905 -0.002711 -0.096591 87 58 46
-0.047110 -0.000845 0.019634 70 63 57
-0.055252 0.029459 0.012034 134 147 146
0.013503 0.005969 0.012109 113 107 109
0.055436 -0.050562 0.056234 122 124 113
0.015555 0.006287 0.014059 120 116 119
-0.005913 -0.002703 -0.096591 7 7 3
0.026251 0.021687 0.021459 139 140 136
0.008966 0.019441 0.017034 145 141 142
-0.100797 -0.000086 0.036634 44 53 33
0.020199 0.011823 0.014834 141 140 142
0.013014 0.021404 0.018859 138 141 140
0.048778 0.025500 0.026784 122 131 111
0.073399 0.045931 0.043434 120 123 100
0.056879 0.043014 0.038159 116 121 107
0.029094 0.004434 0.013009 147 149 138
-0.064932 0.022637 0.006934 130 148 146
0.005809 0.004910 0.009559 155 152 147
-0.100073 -0.020521 0.046209 130 150 145
-0.005938 -0.002714 -0.096591 5 5 5
-0.064384 -0.000292 0.017584 67 65 57
-0.005914 -0.002726 -0.096591 4 4 0
-0.048203 -0.036066 -0.007941 69 97 101
-0.005932 -0.002709 -0.096591 2 3 0
-0.005922 -0.002718 -0.096591 4 5 1
-0.005916 -0.002733 -0.096591 0 1 0
-0.019213 -0.035019 -0.008316 3 3 5
-0.096631 -0.031864 0.041909 90 106 97
-0.005846 -0.002703 -0.096591 135 149 138
0.037294 -0.053898 0.053534 94 95 66
-0.015670 0.000733 0.010359 47 48 39
0.055449 -0.012056 0.037409 154 156 138
-0.005915 -0.002700 -0.096591 1 2 0
-0.070527 0.013501 0.003484 110 116 114
-0.071212 0.008173 -0.000791 140 165 148
-0.005908 -0.002719 -0.096591 104 0 2
-0.096596 -0.051991 0.030209 97 107 91
0.077132 -0.036198 0.032034 133 113 0
-0.005941 -0.002736 -0.096591 35 42 20
0.063275 -0.013932 0.037534 157 168 149
-0.037797 -0.017343 0.004659 41 42 36
0.075466 -0.050511 0.032234 139 116 0
-0.043635 0.038351 0.018909 122 137 136
-0.099401 0.000135 0.037859 50 52 43
0.029775 -0.041908 0.055259 162 173 141
-0.032358 -0.035716 -0.004941 78 94 85
0.071472 0.007939 0.022584 128 137 117
0.032562 -0.055051 0.050584 98 102 72
0.003552 0.012286 0.012259 133 134 130
-0.032305 -0.021993 0.002984 80 88 77
-0.072320 0.002617 0.013659 116 131 113
0.074033 -0.041347 0.053084 129 99 0
0.073283 0.038185 0.039184 119 124 96
-0.005901 -0.002707 -0.096591 21 18 15
0.007238 0.024332 0.019434 133 136 135
-0.005912 -0.002706 -0.096591 16 16 12
-0.071344 0.024961 0.007109 125 145 138
0.084197 0.047839 0.038384 118 90 1
-0.005929 -0.002732 -0.096591 0 2 0
-0.034772 -0.031132 -0.003216 78 91 88
0.048035 -0.056055 0.053409 97 101 73
0.061364 0.028726 0.031459 125 128 105
-0.005932 -0.002708 -0.096591 3 3 5
-0.005912 -0.002708 -0.096591 9 9 3
-0.031663 -0.037939 -0.005966 85 102 84
0.014316 0.010386 0.013059 149 146 143
0.003028 0.013306 0.012684 45 43 57
0.070638 -0.015537 0.037859 152 166 144
-0.040069 0.029523 0.014734 131 139 138
-0.098141 -0.025146 0.045009 90 105 89
-0.001963 -0.037539 -0.009141 2 78 79
0.075204 -0.049939 0.035659 141 114 0
-0.043263 -0.012413 0.003584 8 15 7
0.073037 -0.029844 0.056909 135 143 114
-0.004943 0.024331 0.017634 135 138 139
-0.005908 -0.002726 -0.096591 1 1 1
-0.028022 0.013018 0.007584 144 144 144
-0.052504 0.035511 0.015784 130 141 137
-0.043221 0.019076 0.008434 136 147 145
0.006797 -0.011598 0.032209 15 12 7
0.075773 -0.036512 0.042234 133 104 0
0.069193 0.016951 0.027634 123 129 110
-0.039582 0.020669 0.010084 132 143 141
-0.016284 0.028873 0.018009 132 132 132
-0.028378 0.010309 0.008534 111 111 107
0.046164 0.016973 0.022259 130 133 117
0.010393 -0.055016 0.046359 86 95 77
-0.006420 0.008653 0.011109 136 132 135
0.058601 -0.053224 0.056834 130 134 109
-0.034796 0.035600 0.018784 126 133 137
-0.005895 -0.002724 -0.096591 3 4 0
-0.005930 -0.002708 -0.096591 1 4 5
-0.047263 0.032131 0.014984 130 141 141
-0.005939 -0.002729 -0.096591 5 6 2
-0.067001 0.018027 0.004084 131 148 149
-0.050112 0.023219 0.009634 133 145 137
0.072650 0.020340 0.029234 126 130 105
-0.022824 0.043102 0.024534 124 134 137
-0.005968 -0.002714 -0.096591 13 21 10
0.007386 -0.016793 0.028859 14 14 8
-0.005961 -0.002711 -0.096591 138 151 146
0.023000 0.042729 0.032034 128 131 130
0.044201 -0.049664 0.054784 121 127 110
0.034948 -0.047598 0.053809 116 89 15
-0.005907 -0.002726 -0.096591 12 13 9
0.009044 0.033296 0.024409 128 128 130
-0.005911 -0.002712 -0.096591 8 12 7
-0.033405 -0.013684 0.024984 51 27 4
0.052133 -0.041567 0.059709 143 147 117
0.029134 0.002543 0.012134 147 148 137
-0.100539 -0.032876 0.040509 86 101 87
0.036929 -0.047267 0.054184 121 92 1
-0.028046 0.020815 0.012209 120 120 114
0.012479 -0.055931 0.046284 95 98 73
-0.021419 0.029224 0.017459 136 139 140
-0.005854 -0.002710 -0.096591 155 170 143
0.075814 -0.034830 0.044234 127 97 0
0.071697 0.020054 0.029184 126 131 101
-0.005846 -0.002699 -0.096591 139 143 118
0.061042 -0.053115 0.057534 124 137 106
-0.017539 0.008334 0.008809 116 116 118
-0.005876 -0.002709 -0.096591 150 159 141
-0.005967 -0.002703 -0.096591 24 9 0
-0.005923 -0.002724 -0.096591 2 3 0
0.074082 -0.050954 0.047059 141 116 0
-0.005957 -0.002704 -0.096591 9 10 6
-0.022124 -0.036751 0.082609 4 4 4
-0.005899 -0.002722 -0.096591 121 115 100
0.068644 -0.029208 0.068359 146 143 100
0.067241 -0.052963 0.058459 94 98 54
-0.046175 0.014995 0.005759 139 150 148
-0.098734 -0.041913 0.036059 93 110 94
-0.097128 -0.006883 0.032409 62 70 55
-0.005910 -0.002723 -0.096591 12 7 3
-0.069795 0.008278 -0.000491 137 158 145
0.011031 -0.038127 0.042984 10 12 0
0.044534 -0.059671 0.050259 102 102 71
0.062424 -0.019233 0.035884 158 175 149
-0.005909 -0.002703 -0.096591 16 7 2
-0.005921 -0.002713 -0.096591 5 6 2
-0.037326 0.004553 0.007784 135 136 132
0.047435 0.000759 0.013709 136 144 131
-0.033218 -0.006749 0.011209 54 21 4
0.038990 -0.050645 0.053684 129 135 116
-0.005923 -0.002718 -0.096591 4 4 0
-0.048637 0.033305 0.015584 127 140 139
-0.052363 0.022465 0.009084 133 150 151
0.069086 -0.026670 0.065909 103 90 52
0.032786 0.006861 0.015084 140 139 141
-0.026681 0.019518 0.011334 136 142 140
-0.038427 0.024800 0.012509 134 142 141
0.043135 0.037865 0.032159 120 127 119
-0.095627 -0.027855 0.044484 87 102 88
-0.053926 0.001073 0.015834 99 106 98
-0.011953 0.028657 0.018759 135 135 139
-0.015261 -0.037125 -0.009541 1 0 0
0.044197 -0.040572 0.060334 125 129 108
0.082298 0.029531 0.033959 101 100 74
-0.046913 0.011416 0.006484 133 142 135
0.075918 -0.052535 0.031609 138 110 0
0.016003 0.017143 0.017234 143 142 144
-0.015851 0.040153 0.023984 126 132 132
0.023380 -0.005645 0.024259 160 153 132
0.051216 -0.024586 0.056334 128 135 111
0.047926 -0.053162 0.054959 131 138 114
0.073305 -0.027418 0.053784 123 133 92
0.054855 -0.055809 0.053959 93 102 66
-0.076740 0.022241 0.004709 131 144 143
-0.005973 -0.002732 -0.096591 14 24 12
-0.005934 -0.002726 -0.096591 3 4 0
0.068707 -0.005414 0.030059 144 149 119
-0.038947 -0.035849 -0.006766 62 78 67
0.070134 -0.028975 0.067659 140 146 113
0.073874 0.013768 0.026984 129 134 106
0.008214 -0.037887 0.044484 23 23 23
-0.005925 -0.002698 -0.096591 3 2 2
0.051138 -0.042693 0.059184 147 151 121
-0.067038 0.002786 0.009134 98 102 97
-0.042189 -0.021870 0.000509 108 114 112
-0.005959 -0.002704 -0.096591 5 11 9
-0.098843 -0.038324 0.039059 90 110 95
-0.059853 -0.005870 0.010884 36 25 2
0.079596 -0.020735 0.029409 132 108 0
0.007095 0.042983 0.029609 61 61 63
0.054351 -0.059308 0.052709 100 100 67
0.021538 0.000166 0.012684 166 159 142
0.053580 -0.018844 0.033534 157 166 148
-0.005953 -0.002704 -0.096591 7 10 9
0.013832 0.007770 0.012609 149 145 138
-0.037417 -0.027016 -0.001641 85 98 93
0.031163 0.025886 0.024209 134 134 130
-0.002431 -0.035528 -0.007991 6 9 8
-0.026064 0.010466 0.007334 136 139 140
-0.005968 -0.002710 -0.096591 1 6 0
0.068902 0.041906 0.039909 123 127 106
-0.005866 -0.002710 -0.096591 161 170 150
-0.040864 -0.026289 -0.010641 63 61 38
-0.063345 -0.004309 0.006809 60 34 5
0.051318 0.003849 0.018259 87 94 86
-0.005900 -0.002726 -0.096591 9 14 4
0.077568 -0.010458 0.036959 144 159 134
-0.005926 -0.002705 -0.096591 4 5 1
-0.005967 -0.002716 -0.096591 93 107 98
-0.032396 -0.026172 0.000634 77 85 72
0.053100 -0.034560 0.056859 124 131 107
-0.072626 0.006363 0.002459 128 144 133
0.009340 0.004612 0.009759 155 152 147
-0.005926 -0.002728 -0.096591 5 5 5
-0.052164 0.035173 0.015759 131 142 140
-0.058492 0.021456 0.007409 136 147 143
0.034882 0.015349 0.019659 136 138 129
0.074811 -0.021558 0.043034 154 170 149
-0.025978 0.039068 0.021659 126 133 137
0.040153 -0.053651 0.052809 94 99 62
-0.041736 -0.020720 0.002009 97 103 101
-0.038017 0.013771 0.006559 139 147 148
0.054913 0.017742 0.024234 130 133 117
-0.027288 0.034686 0.019359 126 132 134
-0.005963 -0.002727 -0.096591 110 123 118
0.041760 -0.026818 0.061409 111 122 101
-0.035134 0.005345 0.005209 141 139 129
-0.036161 0.020667 0.010434 136 142 142
0.076211 0.021849 0.031334 130 128 105
-0.057790 -0.012936 0.005134 110 128 126
-0.096432 -0.046079 0.034834 95 107 99
0.066056 -0.057937 0.056184 94 100 67
-0.005970 -0.002723 -0.096591 6 6 0
0.017777 0.017161 0.017334 143 143 143
-0.062065 0.025456 0.009259 126 144 138
-0.033789 -0.012526 0.006309 6 12 12
-0.071105 0.025402 0.007334 126 144 138
0.046878 -0.000053 0.013559 150 152 139
0.078681 0.048157 0.045934 111 116 86
0.041428 -0.048780 0.054434 113 121 90
0.005580 0.004991 0.009609 154 152 144
0.013098 0.014847 0.015359 146 145 145
-0.054412 0.024034 0.009159 136 148 150
-0.043023 0.030524 0.014534 129 142 141
0.083655 0.037291 0.033984 114 87 0
0.064483 0.001295 0.017484 130 134 113
-0.055429 0.039797 0.017784 123 142 142
-0.001256 0.015716 0.013684 138 141 140
-0.015335 0.008626 0.010109 129 128 128
0.046916 -0.036501 0.062284 122 130 117
-0.005911 -0.002720 -0.096591 4 4 0
-0.005922 -0.002696 -0.096591 4 3 3
-0.005940 -0.002702 -0.096591 1 1 0
0.059734 0.041885 0.037734 120 125 111
0.033186 0.034207 0.028709 126 133 127
-0.040400 -0.022820 0.000284 105 113 110
-0.034713 -0.019873 0.004259 101 105 100
-0.014298 0.012659 0.009859 149 149 151
0.027730 -0.006515 0.029609 168 161 140
0.042409 0.012210 0.019109 133 134 128
0.077629 -0.031897 0.031784 131 106 0
-0.005926 -0.002717 -0.096591 4 3 3
0.055489 -0.045737 0.058634 89 100 81
-0.094507 -0.016897 0.048759 93 107 87
0.065394 0.036412 0.036534 120 129 109
-0.013168 0.018222 0.012834 144 144 146
0.048207 -0.006623 0.030109 158 157 129
-0.001934 0.023197 0.017434 136 139 140
-0.036388 0.024135 0.012084 134 140 142
0.074007 -0.043248 0.051609 137 106 0
-0.005958 -0.002704 -0.096591 2 9 1
-0.005973 -0.002712 -0.096591 8 15 7
-0.042642 -0.030902 -0.014291 12 23 19
0.004985 0.018895 0.016359 137 137 133
0.058982 -0.010704 0.037809 152 156 131
-0.005896 -0.002703 -0.096591 16 11 7
-0.065344 -0.000541 0.017659 55 53 41
0.012076 -0.032215 0.037059 145 137 123
-0.015774 0.001999 0.010634 149 142 136
-0.048981 0.039047 0.018259 126 140 142
0.041540 -0.001478 0.016234 153 153 131
0.033922 0.005669 0.016684 110 110 114
-0.034020 -0.026597 0.000334 81 93 83
-0.069364 0.031554 0.011109 128 146 140
-0.062262 -0.002200 0.004059 86 52 28
-0.037670 0.000960 0.014909 128 125 120
-0.005937 -0.002724 -0.096591 52 56 51
-0.039320 -0.031637 -0.013391 89 100 109
0.012963 -0.007036 0.028634 156 147 126
-0.005922 -0.002733 -0.096591 0 29 97
0.052764 0.042734 0.037334 119 129 115
-0.043021 0.012098 0.004934 142 150 149
0.019657 -0.041138 0.042034 88 68 58
-0.049115 0.012933 0.004559 141 156 153
-0.007545 0.014628 0.012434 147 146 146
-0.005945 -0.002704 -0.096591 4 4 4
-0.023187 0.018891 0.011759 143 143 145
0.018786 0.019226 0.018534 139 139 141
0.045301 -0.022517 0.055084 135 139 116
0.074438 0.019175 0.029434 126 130 100
0.029851 0.011004 0.016159 138 139 133
-0.005971 -0.002722 -0.096591 9 16 10
-0.046852 0.035284 0.016334 128 139 137
0.074853 -0.043386 0.045634 135 110 0
0.044046 0.030086 0.028759 121 128 122
0.078665 -0.012660 0.035009 138 154 133
-0.059537 0.010609 0.001634 138 156 150
0.062524 -0.033812 0.065884 112 123 91
0.022253 -0.005188 0.023609 164 152 134
0.028621 -0.054856 0.049434 103 103 81
-0.040968 0.028013 0.013709 130 141 141
-0.031898 -0.034241 -0.003941 83 95 85
-0.029504 0.004933 0.006709 148 144 137
-0.075029 0.026205 0.006934 127 146 136
-0.005898 -0.002708 -0.096591 19 21 12
-0.096743 -0.041059 0.036134 91 104 91
0.082091 0.033870 0.035809 92 88 63
-0.075819 0.012271 0.000734 119 127 124
-0.034537 -0.020897 0.003384 125 133 122
-0.005885 -0.002730 -0.096591 125 129 108
0.018600 -0.008554 0.031709 156 149 130
-0.005928 -0.002720 -0.096591 1 0 0
0.054814 0.000050 0.014484 136 144 129
0.078460 -0.016178 0.031759 142 157 130
-0.090950 -0.021352 0.047784 1 5 0
0.013072 0.000424 0.013309 170 161 142
-0.047266 -0.020811 0.000559 101 114 113
-0.038463 0.011142 0.007259 114 114 116
0.076287 0.007382 0.023234 126 129 104
0.005205 0.012362 0.012809 136 135 135
-0.023677 0.008374 0.006309 123 122 122
-0.005910 -0.002716 -0.096591 3 4 0
-0.005920 -0.002702 -0.096591 4 4 4
0.081205 0.020927 0.030409 124 130 95
-0.005866 -0.002710 -0.096591 161 172 153
-0.005906 -0.002724 -0.096591 13 17 12
-0.005920 -0.002726 -0.096591 0 1 0
-0.047980 0.038635 0.018284 128 139 139
-0.108149 0.006771 0.052334 64 72 61
0.075183 -0.038254 0.048084 128 96 0
-0.014213 0.000510 0.010784 38 33 29
-0.028249 0.024026 0.013609 137 137 137
-0.035647 0.012057 0.006209 140 148 145
0.007266 0.044185 0.030359 29 29 31
0.015236 -0.057903 0.046509 87 95 66
0.040768 -0.039324 0.060409 122 128 109
-0.005935 -0.002731 -0.096591 4 7 6
-0.098602 -0.007486 0.036009 61 70 63
-0.005890 -0.002715 -0.096591 128 125 93
-0.068310 0.020510 0.005259 133 148 145
-0.005933 -0.002720 -0.096591 2 2 2
-0.063816 0.011048 0.001684 130 146 137
-0.062315 0.031116 0.011984 135 146 144
0.063761 0.038610 0.037334 115 125 100
0.071575 -0.048367 0.061034 87 89 57
-0.064742 0.017422 0.004009 131 149 145
0.033797 0.018224 0.020484 133 137 130
0.022348 0.010692 0.014934 140 141 137
-0.076232 0.033408 0.010984 131 142 140
0.049540 0.034583 0.031909 119 127 114
0.067668 0.028704 0.033309 122 125 102
-0.040556 -0.026485 -0.001816 93 108 103
-0.004511 0.040180 0.026084 125 132 126
0.054548 0.016243 0.023159 129 136 114
-0.005973 -0.002722 -0.096591 15 19 12
-0.070630 0.007981 0.000659 143 160 142
0.069614 -0.025780 0.065509 134 136 91
0.011249 0.000817 0.012984 167 160 143
-0.038566 0.005586 0.004509 141 137 130
-0.005927 -0.002727 -0.096591 5 5 5
-0.035756 -0.046338 0.044059 2 5 4
0.016498 0.025011 0.021609 139 139 139
-0.005970 -0.002716 -0.096591 6 8 0
-0.005939 -0.002719 -0.096591 0 1 0
-0.042543 -0.020943 0.000884 102 113 109
0.036241 -0.059516 0.048759 94 104 77
-0.032301 -0.014044 0.043784 3 3 7
-0.005896 -0.002736 -0.096591 104 94 64
0.016111 -0.059134 0.045384 93 90 58
-0.072351 0.036685 0.013309 129 142 141
0.005962 0.031347 0.022859 131 132 128
-0.095915 0.001242 0.053784 109 112 94
0.012538 0.000898 0.013009 167 158 141
0.063983 0.015540 0.024909 122 132 109
0.034376 0.033643 0.028984 127 131 124
0.016420 0.035741 0.027434 129 135 133
0.033862 -0.007083 0.029984 169 162 141
0.016271 0.033474 0.025609 133 136 135
0.073316 -0.056510 0.051334 150 127 0
0.073798 -0.045895 0.048459 140 116 0
0.046696 -0.045702 0.056884 102 112 96
-0.047415 0.040702 0.019534 121 138 141
-0.016786 0.018718 0.012909 143 142 144
0.064017 -0.062341 0.052084 99 96 66
-0.097100 -0.051962 0.030134 96 106 92
0.066224 -0.010622 0.038084 155 163 132
-0.009616 0.006460 0.007709 156 152 145
0.067947 -0.008467 0.036209 152 156 131
0.034507 -0.040096 0.059784 118 116 97
0.006387 -0.052304 0.047309 135 135 111
0.073237 -0.045961 0.056209 128 104 0
-0.005972 -0.002720 -0.096591 9 10 4
-0.056073 -0.020344 0.002334 69 79 67
-0.097395 0.001147 0.054409 52 48 39
-0.067562 0.015542 0.002609 130 150 147
-0.005943 -0.002704 -0.096591 8 8 8
0.022656 -0.020529 0.036134 129 110 65
-0.053086 -0.018695 0.002459 97 108 106
0.027379 0.041683 0.032559 123 131 128
0.029654 -0.053549 0.050609 97 100 77
0.072065 0.012970 0.025709 128 135 111
0.063471 -0.038142 0.062859 144 147 129
-0.064275 0.035220 0.013734 128 142 144
0.007987 0.013806 0.013884 146 145 145
-0.005984 -0.002689 -0.096591 65 64 49
-0.005916 -0.002721 -0.096591 0 1 0
-0.016574 -0.001233 0.009984 17 17 17
-0.099627 -0.043101 0.035809 93 108 94
0.009603 0.045061 0.031209 119 127 128
0.073418 -0.044290 0.054209 132 108 0
0.046068 0.042779 0.036034 91 100 93
-0.005974 -0.002700 -0.096591 68 51 35
-0.005846 -0.002719 -0.096591 131 107 0
-0.005916 -0.002715 -0.096591 4 4 0
-0.005929 -0.002719 -0.096591 3 3 3
0.039780 0.045150 0.036409 118 126 125
-0.032148 0.040509 0.021334 119 133 135
-0.044583 -0.025953 -0.002841 5 17 9
-0.106338 -0.015890 0.047084 77 106 86
-0.044257 0.039416 0.019509 126 137 137
-0.005972 -0.002722 -0.096591 3 6 7
0.053215 0.009932 0.020009 127 135 120
-0.078272 0.023935 0.005509 127 143 132
-0.005976 -0.002725 -0.096591 12 13 7
-0.005969 -0.002705 -0.096591 6 5 7
0.054550 -0.052810 0.056259 126 130 109
-0.005894 -0.002722 -0.096591 103 109 109
0.062121 0.014893 0.024134 128 132 109
0.066958 -0.017050 0.036359 119 119 88
-0.103271 -0.015087 0.047534 77 86 77
-0.005918 -0.002724 -0.096591 0 1 0
-0.007624 0.004761 0.007484 158 159 153
0.029722 -0.000454 0.013709 162 161 135
-0.035871 -0.049065 0.041734 6 6 6
-0.005929 -0.002710 -0.096591 0 0 0
0.022242 0.011292 0.015159 145 142 137
0.048670 -0.042216 0.058659 122 131 111
-0.062577 0.014989 0.003184 134 149 148
-0.035245 0.003544 0.008834 140 136 129
-0.037918 -0.027350 -0.009566 77 97 90
0.059975 -0.040252 0.062884 137 141 116
0.073458 -0.040313 0.055559 143 149 112
-0.081383 0.035909 0.011584 131 143 135
0.021548 0.000768 0.011459 165 159 135
0.000894 0.036918 0.024634 125 125 125
-0.036097 -0.018792 0.004434 120 127 119
0.051488 -0.036965 0.058584 123 126 105
0.051611 -0.049956 0.055009 119 122 104
-0.028655 0.010554 0.008034 133 133 133
-0.055545 0.018948 0.006359 137 154 155
-0.027245 0.035099 0.019584 125 138 137
0.027339 -0.014916 0.035409 26 26 20
-0.049144 -0.024383 -0.002791 99 117 111
-0.005952 -0.002700 -0.096591 10 14 9
0.076217 -0.033421 0.041609 127 100 0
0.007890 0.031744 0.023634 124 132 129
0.004242 0.009443 0.011109 133 133 137
0.059275 -0.005762 0.029059 155 151 126
-0.005922 -0.002731 -0.096591 1 4 3
-0.037329 -0.027795 -0.002116 91 97 97
-0.005907 -0.002720 -0.096591 2 2 2
0.052738 0.045851 0.038634 117 125 112
