ply
format ascii 1.0
element vertex 1220
property float x
property float y
property float z
property uchar blue
property uchar green
property uchar red
end_header
-0.001564 0.033906 -0.024193 68 73 60
0.097736 -0.063721 0.004957 98 123 120
-0.083854 0.024198 -0.047643 90 95 80
0.079115 0.059780 0.060657 83 104 111
0.068095 0.048963 0.081207 97 121 134
-0.031937 0.021922 -0.043793 220 231 194
-0.081036 0.056949 0.003957 73 90 97
-0.026796 0.017610 0.008457 198 190 161
-0.047190 -0.025404 -0.044118 56 51 41
0.080473 -0.028959 0.044157 101 130 135
-0.045750 -0.035366 -0.047143 64 61 58
-0.096312 -0.037248 -0.009443 124 150 158
-0.069240 0.040093 0.008432 64 53 47
-0.108374 -0.038615 -0.016118 113 142 147
0.101636 -0.031488 0.004282 115 139 139
0.076576 0.006929 0.055957 101 127 135
-0.006390 0.026409 -0.020468 64 108 122
-0.083261 -0.011767 -0.001443 73 97 97
0.070717 -0.015928 0.064932 107 133 139
0.083418 -0.068686 0.031157 91 119 120
0.005218 -0.028545 -0.037868 75 61 57
-0.087815 0.018307 -0.001393 90 109 111
0.097685 0.042112 0.023807 97 120 122
-0.012326 0.056767 0.005932 116 105 85
-0.018100 0.004701 -0.035493 66 77 76
0.007083 0.055532 -0.009643 101 84 63
-0.023126 -0.021021 -0.053393 43 54 52
0.098011 -0.056868 0.004757 96 128 126
-0.030551 -0.019177 0.006757 175 173 147
0.076667 0.037437 0.062482 83 109 115
0.108049 0.016022 -0.000018 115 141 142
0.012381 -0.033874 -0.033793 89 44 25
0.079547 0.025158 0.053582 90 111 118
-0.037004 -0.008365 -0.059068 101 62 31
0.052805 0.041442 0.074832 102 130 140
0.090376 -0.009119 0.028782 110 139 144
0.064635 0.064855 0.082182 97 121 134
-0.015793 -0.003993 -0.023643 67 77 113
0.089077 -0.071839 0.020657 89 113 113
0.078350 -0.056437 0.045682 97 122 133
-0.026501 0.027874 -0.037268 28 71 108
-0.084238 0.069540 0.003282 65 77 79
-0.011510 -0.043226 -0.048618 114 56 28
0.067312 -0.078491 0.065782 81 105 113
-0.021779 0.029617 0.001757 134 147 146
-0.070050 0.021184 0.006982 53 44 33
-0.081305 0.031620 -0.045743 82 86 75
0.057455 0.070779 0.065582 0 15 27
-0.004086 0.040138 -0.025443 115 90 72
-0.079096 0.042420 -0.043718 57 57 38
0.078852 0.049298 0.061357 82 102 107
-0.043958 0.032078 -0.042893 53 42 29
0.058081 0.023211 0.076282 105 127 140
-0.023401 -0.004541 -0.038118 82 99 100
0.083684 -0.059667 0.030057 101 122 129
0.105758 -0.022492 -0.002943 114 144 140
0.006865 -0.003815 -0.025218 85 42 9
-0.094114 0.021887 -0.000893 94 111 112
-0.036338 -0.036242 -0.062068 156 176 86
0.067163 -0.017869 0.073607 112 133 140
0.011079 0.033210 -0.017168 26 38 28
-0.047626 -0.020920 -0.042768 56 50 43
-0.081888 0.019489 -0.047093 106 116 104
0.079135 -0.021062 0.047732 108 132 140
0.074561 0.042387 -0.054043 36 23 3
-0.106379 0.015157 -0.011193 105 129 129
-0.081327 0.008182 0.000757 81 101 106
0.106101 0.000160 0.000307 113 140 139
-0.106675 -0.000242 -0.012793 102 126 132
0.054369 -0.034263 0.070832 103 133 143
-0.024402 0.049420 -0.050243 125 135 142
-0.087529 0.024197 -0.044918 87 92 79
0.091605 0.040560 0.034257 94 115 122
-0.081640 -0.007812 -0.000268 73 96 98
-0.100329 -0.008648 -0.010168 98 118 123
-0.001319 0.059489 -0.005393 151 134 87
-0.083328 0.026686 0.000957 83 105 110
-0.003916 -0.021630 0.007357 157 152 127
-0.031199 0.004416 -0.025768 82 88 87
0.070064 0.045179 -0.042818 31 14 0
0.058737 -0.019583 0.074582 110 136 151
0.056314 -0.034032 0.072882 104 134 144
0.069196 0.053368 -0.041143 72 94 99
0.082899 0.000977 0.043857 107 133 141
-0.081469 0.044818 0.003157 82 95 94
0.099563 -0.002443 0.011857 115 140 144
-0.018895 -0.003325 -0.018193 63 75 104
0.091623 -0.026307 0.022932 107 131 137
-0.085829 0.028321 -0.047718 90 94 83
0.061858 -0.055240 0.073382 97 121 134
-0.096057 -0.023793 -0.008818 93 117 123
0.014617 0.043490 -0.016318 70 69 47
0.092817 -0.013983 0.023307 110 139 138
-0.021113 -0.022718 -0.051993 160 188 198
0.012787 0.029075 -0.015243 40 42 31
0.010293 0.019302 -0.013543 113 117 99
-0.081653 0.055927 0.003582 74 89 90
-0.075473 -0.026257 0.001732 65 87 92
0.104534 0.022014 0.007332 112 138 139
-0.046717 -0.004798 -0.042318 57 47 38
0.078605 0.046689 0.062107 80 102 115
-0.017579 0.030961 -0.017593 173 148 110
0.105377 -0.041868 -0.005593 116 138 143
0.048624 0.086819 0.071532 1 6 15
-0.085720 0.035769 -0.048743 79 77 65
0.002691 -0.036366 -0.040268 111 116 125
0.110637 0.036588 0.000057 105 131 132
0.041960 -0.047338 0.063332 102 131 143
-0.029497 0.024299 0.008757 159 161 135
-0.111016 0.021524 -0.011543 88 84 72
0.000815 -0.041441 -0.040818 103 46 22
0.007760 -0.006573 -0.040218 50 20 12
0.085742 0.087642 0.054532 69 91 91
-0.024998 0.025821 -0.031568 120 132 134
-0.004231 0.000795 -0.029793 37 45 52
0.089110 -0.056181 0.023382 100 126 132
0.107151 -0.013820 -0.002343 116 141 137
0.088967 0.068681 0.044282 83 100 107
-0.017013 -0.037891 -0.051218 112 59 37
0.060048 0.075273 0.064832 88 124 130
0.053025 -0.051353 0.069707 96 124 134
0.097060 0.049983 0.025957 97 119 119
-0.085122 -0.037542 -0.003643 70 91 93
-0.032787 0.026806 -0.056368 82 45 14
-0.075380 0.040197 0.005757 70 88 93
0.007381 -0.002955 -0.019018 90 45 12
0.064569 0.087224 0.066582 71 94 91
0.070565 0.050648 -0.043268 54 27 9
-0.023231 0.035372 -0.037143 42 48 47
-0.089320 -0.006337 -0.004193 82 104 104
0.047287 -0.069122 0.065482 87 111 124
-0.073359 -0.035849 0.002232 52 47 42
-0.112977 0.013788 -0.015443 106 132 133
-0.111305 -0.017710 -0.016718 122 147 151
-0.100430 0.008225 -0.009168 97 116 123
-0.114016 -0.051170 -0.019693 102 131 143
-0.086257 -0.004310 -0.002293 77 101 101
-0.077740 0.020927 -0.045443 83 79 65
0.042887 -0.043750 0.064482 106 133 145
-0.079650 0.033058 0.003132 77 98 100
-0.048670 -0.013268 -0.040443 60 49 43
-0.037702 -0.003395 -0.056543 94 55 19
0.055369 0.029358 0.075657 99 124 135
0.055820 0.006190 0.074532 104 134 144
0.100210 0.054297 0.019207 0 4 0
0.069491 0.045247 -0.042318 36 20 3
-0.068876 -0.034099 0.003707 55 47 40
0.091556 -0.070424 0.015532 91 116 120
0.001953 0.056853 -0.003643 124 83 38
0.069471 0.049099 -0.039793 77 88 86
0.102712 0.049697 0.015457 5 5 6
0.074006 0.078640 0.074082 78 102 110
0.090708 -0.044678 0.021082 105 132 136
-0.010820 -0.020985 -0.033318 60 69 67
0.057973 -0.077606 0.071632 77 107 110
-0.074593 -0.004140 0.003082 68 91 102
0.015648 0.030585 -0.024443 10 9 1
-0.020105 -0.020326 -0.038393 66 78 80
-0.030516 0.039389 -0.054143 201 196 166
-0.016807 -0.025127 -0.049568 166 200 211
-0.091810 0.048645 0.000057 89 99 94
0.038989 -0.042459 0.062282 104 132 147
-0.112429 0.008698 -0.015568 108 134 135
0.087437 0.046885 0.044432 84 105 114
-0.030723 0.031600 -0.040718 12 25 38
-0.002859 0.029369 -0.023318 36 50 58
-0.119092 0.057915 -0.007893 43 26 0
-0.098552 -0.037163 -0.010768 120 145 149
0.081596 0.028795 0.052007 89 112 123
-0.078405 -0.064038 -0.001618 122 153 158
-0.010717 0.004734 -0.033318 50 60 67
0.078853 0.047477 0.059932 77 103 111
-0.070409 0.072713 0.010232 35 33 27
-0.105684 -0.049819 -0.015643 112 136 142
-0.017968 0.005400 -0.035843 69 79 74
-0.103250 -0.059708 -0.013968 101 130 129
-0.066500 0.043871 0.013482 67 60 42
-0.025042 0.024407 -0.031993 206 202 174
-0.031639 -0.042640 -0.059493 159 164 50
-0.043347 -0.017289 -0.001568 176 177 143
-0.027679 -0.037633 -0.057118 111 69 47
-0.098707 0.014363 -0.007318 98 117 119
-0.102818 -0.061094 -0.014293 89 126 128
0.099759 -0.005626 0.010307 113 141 142
0.018086 0.012989 -0.028218 52 41 28
0.081496 0.073596 0.058782 74 98 98
0.096401 0.042887 0.028407 102 122 127
0.055484 0.026779 0.075382 100 126 134
-0.084545 0.023475 -0.047568 80 85 72
0.091644 -0.028904 0.022107 116 138 143
0.075726 -0.051590 0.049482 94 120 126
0.020430 0.052035 -0.025143 70 38 8
-0.097192 -0.009865 -0.008293 90 111 113
-0.084110 0.020917 -0.048693 87 94 85
-0.081582 0.006780 0.000757 77 99 104
-0.021956 0.055190 -0.036143 113 120 111
0.088969 0.024488 0.037532 96 120 126
-0.000182 -0.004464 -0.025243 46 54 56
0.009749 0.058276 -0.005343 79 62 47
-0.081971 -0.054741 -0.003468 125 148 150
0.101515 0.070345 0.021582 82 104 104
0.086815 -0.011470 0.035107 108 135 139
-0.032833 -0.000884 -0.057618 117 123 105
-0.019924 -0.043104 -0.053018 119 67 42
0.069235 0.002561 0.073282 106 135 142
-0.023563 0.042713 -0.049818 80 85 72
-0.003595 0.011117 -0.029343 239 248 239
-0.017449 0.066752 -0.005043 28 33 54
0.010632 0.032332 -0.018168 28 36 29
-0.116004 -0.020290 -0.018643 114 141 145
0.051373 -0.062630 0.067982 91 119 129
-0.023307 0.045278 -0.049718 78 86 74
0.044632 -0.021016 0.067007 112 139 151
-0.106014 -0.012984 -0.013468 113 139 145
-0.113833 -0.005110 -0.016543 113 141 151
0.068290 0.039648 0.079957 91 114 125
0.039768 0.018473 0.065482 103 128 139
-0.004884 -0.008862 -0.005293 66 76 71
-0.114358 -0.047002 -0.019368 109 133 141
-0.020097 -0.027166 -0.052318 106 85 74
0.104809 -0.022538 -0.000918 116 143 142
0.015940 -0.022735 -0.029793 62 48 38
0.052384 -0.075763 0.069257 82 110 120
0.076129 0.048036 0.066482 86 110 118
0.101743 -0.004178 0.007532 113 140 144
0.068441 -0.050810 0.064907 98 124 132
-0.005908 -0.002626 -0.031018 44 58 66
-0.080859 0.019373 -0.047268 90 99 85
-0.019520 0.005568 -0.037368 60 72 80
-0.032199 0.016970 -0.056318 73 128 150
0.106153 -0.004203 0.001382 115 143 144
0.021818 0.044142 -0.024668 57 28 9
0.045598 0.021729 0.069082 101 126 137
0.056321 -0.055153 0.071482 95 123 133
0.088072 -0.030195 0.028282 110 134 142
0.069740 0.047852 -0.040868 29 18 7
-0.007350 0.025981 -0.015043 73 110 127
-0.032806 0.028961 -0.055918 91 51 17
-0.081984 0.022854 -0.047993 73 83 64
0.045186 -0.089636 0.063832 67 97 100
-0.068620 -0.020157 0.009332 64 62 62
0.082980 0.032829 0.051332 91 112 121
-0.039499 -0.008218 -0.003818 163 165 141
0.097624 0.077487 0.030532 83 102 104
-0.079927 0.039978 0.003482 75 91 94
-0.080062 0.031656 -0.044343 77 80 65
0.021034 0.012206 -0.027193 73 68 63
-0.087864 0.044705 0.000032 82 95 93
0.012430 0.022377 -0.030968 61 70 69
0.015690 0.031832 -0.020193 28 21 16
-0.040413 0.027086 -0.048393 31 36 39
0.083388 0.092319 0.061082 65 82 83
0.010745 -0.026720 -0.033818 108 66 26
-0.012407 0.037707 -0.015968 43 62 76
-0.092886 0.016399 -0.004718 91 111 116
0.072316 0.050831 -0.048693 35 21 0
0.094248 -0.058494 0.012057 98 126 127
0.087982 -0.029182 0.028407 105 134 141
-0.024748 -0.024781 -0.054218 159 194 208
0.096206 -0.003220 0.019632 115 140 144
-0.097262 0.007316 -0.007293 95 114 121
-0.008278 -0.040118 -0.046193 109 50 31
0.096826 -0.069009 0.006107 89 117 113
-0.021636 0.009586 -0.040418 165 128 78
-0.102213 -0.051278 -0.013368 104 133 140
0.071985 -0.071430 0.054307 89 113 121
-0.082883 0.021887 -0.048318 95 99 88
-0.069289 -0.035384 0.003057 58 51 46
-0.093698 0.017994 -0.004818 92 113 115
-0.034785 0.003175 -0.058593 91 52 23
0.088425 -0.070592 0.022257 92 118 119
0.101678 0.043964 0.017057 91 117 123
0.078832 -0.049333 0.042807 99 123 129
0.059269 -0.021643 0.075232 110 137 149
0.090248 0.036677 0.035607 93 117 123
-0.028345 -0.039661 -0.057618 154 158 26
0.007135 0.002287 -0.038568 99 45 12
-0.022955 0.052620 -0.044318 123 138 139
-0.000874 0.055399 0.002257 88 63 16
0.049573 0.069603 0.063282 3 16 29
0.100952 0.046996 0.020557 96 119 121
0.090773 -0.024501 0.024432 113 137 145
0.098956 -0.053184 0.005482 108 135 134
0.002378 0.038891 -0.012768 98 99 84
-0.098238 -0.026706 -0.010693 120 147 146
-0.043612 -0.011872 -0.047493 56 45 39
-0.013823 0.067047 -0.003618 42 34 52
0.011237 0.022654 -0.025868 106 111 107
0.059967 0.006412 0.077207 110 137 149
0.056709 -0.057146 0.072307 90 121 128
-0.109097 -0.024961 -0.015893 121 144 155
-0.103100 -0.016281 -0.012293 112 134 139
-0.098783 -0.009908 -0.009318 91 117 118
-0.083757 -0.060963 -0.004443 120 146 154
-0.101944 -0.041823 -0.012843 116 144 154
0.102067 -0.061306 -0.001868 94 125 125
0.069506 0.082295 0.084132 83 113 123
0.022152 0.045738 -0.024043 103 119 117
-0.076122 0.057612 0.006982 69 87 85
-0.016277 0.007018 -0.035593 75 84 83
0.097817 -0.050921 0.006232 104 131 135
-0.071956 0.029206 0.006782 46 53 49
0.085604 0.067952 0.053357 77 99 104
-0.114872 -0.051712 -0.020068 107 126 140
-0.014719 0.058128 0.009107 173 167 131
-0.082134 -0.040315 -0.001993 64 88 96
0.092774 -0.052948 0.016282 105 131 132
-0.096583 -0.003244 -0.007643 88 115 114
-0.077113 -0.016221 0.001357 68 92 98
0.092659 -0.039036 0.017407 108 136 137
-0.095599 -0.031343 -0.008993 125 153 154
-0.040409 -0.010838 -0.053418 59 56 46
0.016121 0.031920 -0.020318 13 11 5
-0.090074 -0.032527 -0.005643 76 98 103
0.017422 0.018810 -0.028393 34 32 26
0.095571 -0.022590 0.016582 112 138 144
-0.017027 -0.038567 -0.051068 114 65 31
0.036478 -0.059913 0.059832 98 127 132
0.069734 0.037361 0.075532 90 114 127
-0.102558 -0.017494 -0.012018 109 137 132
0.051250 0.010645 0.072032 103 126 142
-0.108038 0.012264 -0.011943 108 128 128
-0.081993 -0.064085 -0.003418 118 149 154
-0.014434 -0.039712 -0.049818 107 48 24
-0.036436 -0.034013 -0.061418 156 171 88
0.088482 -0.005401 0.032082 114 139 143
-0.067611 0.013409 0.007182 59 47 38
0.095449 0.049139 0.027982 97 118 125
0.070693 -0.024467 0.064857 105 131 139
0.074727 0.019794 0.064407 91 116 127
-0.083414 0.020033 -0.048493 96 107 93
-0.084573 -0.047987 -0.004018 126 152 160
0.081215 -0.078021 0.035957 82 108 114
0.099675 -0.067365 0.001032 92 124 122
0.065228 0.097765 0.083657 71 89 94
0.090453 0.077341 0.042607 79 101 106
-0.107239 -0.046447 -0.016093 108 137 144
-0.095951 -0.003250 -0.007468 92 113 115
-0.013171 0.025964 -0.001543 97 127 130
0.090575 0.046661 0.038007 88 111 113
0.084379 -0.017113 0.038357 108 133 144
-0.022512 0.036126 -0.037318 31 47 50
0.004471 0.013917 -0.003068 155 158 129
-0.097773 -0.022826 -0.009618 101 125 133
-0.091828 0.045546 -0.000668 85 98 97
-0.013255 0.039518 -0.015118 84 93 92
0.092148 0.059467 0.036732 88 108 113
-0.113306 0.060556 -0.006918 51 55 24
0.003711 -0.039598 -0.039593 96 46 30
-0.072799 -0.042415 0.002782 58 50 43
-0.037979 -0.019584 0.000657 164 167 138
-0.097925 0.012791 -0.007193 100 118 123
-0.013289 -0.021464 -0.047893 56 63 59
0.095942 -0.029571 0.016757 115 142 141
-0.079526 0.036124 -0.044943 71 68 46
-0.116421 0.003374 -0.018218 110 139 144
-0.000983 -0.038921 -0.042343 162 186 194
-0.005910 -0.020625 -0.030493 164 161 165
0.102066 -0.025866 0.003282 117 143 144
-0.032411 0.035188 -0.055768 81 43 16
0.082486 -0.018836 0.043232 110 136 142
-0.021725 0.028839 0.002557 107 127 139
0.107983 0.016522 -0.000118 114 138 138
-0.081035 0.027453 -0.045568 88 93 78
0.007730 -0.046217 -0.037518 135 134 0
-0.095493 -0.003131 -0.007418 93 116 118
-0.019268 -0.038230 -0.052593 97 92 87
0.012320 0.019558 -0.031018 102 123 125
0.007085 -0.016939 -0.012693 126 105 68
-0.083497 -0.052652 -0.003393 122 147 158
-0.081870 0.014813 0.000832 81 101 106
0.041737 -0.078094 0.063082 85 110 121
-0.017962 0.016397 0.013657 183 180 150
0.095778 0.044818 0.027757 93 115 120
-0.074137 -0.023097 0.002907 59 83 89
0.069287 -0.024606 0.067632 106 131 142
-0.079764 0.035048 -0.044368 79 76 54
-0.040264 0.004759 -0.016568 111 120 106
0.006513 0.055061 -0.009243 92 71 41
0.090532 -0.041353 0.022757 106 134 135
0.110348 0.040520 -0.002243 100 125 122
0.012174 -0.051918 -0.035418 119 84 14
0.095874 -0.055371 0.010332 99 129 132
-0.024414 0.027878 -0.032818 37 80 111
-0.070277 0.041807 0.008357 52 36 38
0.092973 0.081038 0.038507 74 94 99
-0.068936 0.008459 0.005332 55 45 36
0.002924 0.056422 0.006532 106 81 48
-0.089066 0.041696 -0.000368 85 99 94
0.066666 -0.026633 0.071307 104 132 142
-0.024487 0.034674 -0.036718 38 41 33
0.086778 -0.046765 0.029657 103 130 134
-0.039355 -0.000591 -0.018618 97 110 97
-0.001731 0.016097 0.004307 169 170 141
0.075079 -0.073194 0.046382 88 110 115
0.084909 -0.028953 0.036707 106 132 138
0.105609 -0.002255 0.000332 122 144 149
0.090683 0.075104 0.043482 85 100 106
-0.097638 -0.033391 -0.010068 122 146 154
-0.097776 -0.047069 -0.010668 112 143 143
-0.087102 -0.047192 -0.005443 124 150 156
-0.022313 0.023221 0.007482 162 173 159
-0.037141 -0.031190 -0.061818 148 168 84
-0.085553 -0.038438 -0.004043 70 92 92
0.003131 0.061312 -0.011868 78 73 50
0.059249 0.019209 0.076557 103 128 139
0.071572 0.089379 0.082232 67 93 94
-0.026584 0.024399 -0.031368 219 213 179
0.107195 -0.036740 -0.005993 113 140 139
-0.035246 0.024501 -0.056793 88 49 20
-0.005488 -0.027548 -0.043843 21 12 13
-0.004639 0.022487 -0.005418 140 147 138
-0.028158 -0.000642 -0.026568 82 92 99
0.009830 -0.042466 -0.035618 133 131 0
0.022339 -0.010767 -0.033018 103 67 49
0.083977 0.019465 0.046507 98 121 132
-0.025218 0.007166 -0.037193 75 88 80
0.008163 -0.023616 -0.036168 45 30 22
-0.025971 -0.016688 0.009407 186 186 155
0.000355 0.062289 -0.010168 33 26 21
0.081912 0.016403 0.049032 97 123 131
-0.012591 -0.000916 -0.032743 52 63 76
0.104904 0.027682 0.008157 109 131 131
-0.034028 0.039698 -0.056193 124 144 149
-0.105569 0.004709 -0.011543 106 126 126
0.006208 -0.022711 -0.036718 45 49 48
-0.046115 0.020453 -0.039893 57 39 34
0.079952 0.047650 0.056457 81 102 111
0.079430 -0.019113 0.047657 108 132 138
-0.077457 0.044751 0.005057 78 94 97
0.101359 -0.041785 0.002332 110 137 136
-0.098080 -0.005641 -0.008218 88 115 114
0.097777 0.036996 0.023432 94 121 125
-0.081177 -0.018845 -0.000168 73 94 101
-0.074826 0.036381 0.005682 64 85 87
-0.001035 0.001732 -0.028343 51 61 68
0.072276 0.048032 -0.050343 36 20 3
0.096068 -0.053865 0.010682 105 132 136
0.011015 0.047050 -0.008668 139 126 99
0.011572 0.038630 -0.018918 54 42 25
0.108749 0.026819 0.000082 112 137 141
0.067150 -0.066449 0.064107 91 112 119
0.096502 -0.007195 0.017282 114 140 141
-0.036452 -0.020617 -0.060468 109 65 23
-0.009822 0.042999 -0.032443 82 66 49
-0.016488 -0.035965 -0.051093 114 63 34
-0.035871 -0.003173 -0.059243 97 58 27
-0.007001 -0.026166 -0.044093 94 46 28
-0.038982 0.007264 -0.017193 111 120 106
-0.071402 0.067261 0.009632 64 79 85
-0.021741 -0.020982 0.008482 154 155 126
-0.115106 0.009301 -0.017668 109 133 139
0.069974 0.050592 -0.042643 45 23 1
-0.077075 0.043973 0.005082 71 91 91
0.090134 0.033887 0.035357 93 118 122
-0.043507 -0.035522 -0.050793 70 76 76
0.088002 -0.027501 0.031032 108 134 142
-0.082340 -0.040791 -0.002093 65 90 87
-0.078936 0.044455 -0.042993 54 51 34
0.052976 0.073722 0.063732 7 17 32
-0.009091 -0.021373 -0.009718 158 155 138
-0.111215 0.017163 -0.013918 108 129 126
-0.048715 0.004665 -0.037868 58 50 43
-0.089790 -0.060788 -0.007168 109 140 145
0.109497 0.017782 -0.001643 113 139 140
-0.011079 -0.038579 -0.048043 156 170 160
-0.104471 -0.038337 -0.014068 114 141 145
0.064212 0.089017 0.083382 53 77 85
0.085585 0.070557 0.050457 79 98 105
0.081219 -0.016599 0.044832 106 136 139
-0.027191 0.040211 -0.051768 125 145 150
-0.039639 -0.010114 0.000032 179 179 148
0.059284 0.064408 0.078832 88 115 127
-0.021707 -0.037705 -0.054143 189 212 209
-0.073045 0.013025 0.005132 72 94 99
0.094202 0.068477 0.035557 83 103 108
-0.107381 -0.014809 -0.013893 123 149 150
0.007951 0.014824 -0.009293 159 161 130
0.093833 -0.052349 0.015657 102 135 130
0.103456 0.032446 0.011332 99 128 127
-0.030644 -0.040709 -0.059093 160 162 30
0.039675 -0.048318 0.062257 105 130 141
0.084655 -0.016971 0.036832 106 134 144
-0.001953 -0.039638 -0.042793 104 49 27
0.065231 -0.012469 0.077007 108 133 144
-0.086324 -0.010145 -0.002943 82 102 107
0.000423 -0.009027 -0.014768 83 85 79
-0.104263 -0.007557 -0.012318 100 121 128
-0.049700 -0.045957 -0.041718 64 60 53
-0.001427 0.060811 -0.004768 138 129 102
0.074024 -0.026924 0.056832 104 133 138
-0.018382 0.060860 0.015807 104 105 97
0.107632 -0.007201 -0.004243 119 145 146
0.076773 0.092231 0.072607 63 83 88
0.086589 0.031533 0.041707 89 113 121
0.097644 -0.064478 0.005932 94 123 122
-0.008812 -0.019931 -0.031568 179 180 146
0.086213 -0.024068 0.033407 106 134 144
0.085553 0.061959 0.050782 79 104 108
0.076126 0.069260 0.069607 81 101 113
0.089416 0.028176 0.036132 95 119 127
-0.077172 -0.044229 -0.000043 65 87 92
-0.051635 -0.017711 -0.035368 64 61 58
-0.111580 0.004435 -0.014768 106 131 135
-0.043925 -0.021060 -0.048568 53 48 43
0.007536 -0.045638 -0.037468 135 134 0
-0.001768 -0.042339 -0.042993 106 48 20
-0.080585 0.033509 -0.044093 79 84 69
-0.082168 0.049422 0.002982 80 96 94
0.101023 -0.034052 0.003482 116 140 146
0.009615 -0.024888 -0.034818 113 65 28
-0.023707 -0.020179 0.009507 162 163 134
0.069889 -0.055967 0.061807 95 124 131
-0.021130 -0.044431 -0.053893 122 69 47
0.056758 -0.030206 0.073932 108 135 147
0.099132 0.034316 0.021132 100 124 130
0.006612 -0.036695 -0.037793 93 43 18
0.086006 -0.031538 0.034657 107 133 139
-0.115126 -0.019527 -0.018443 113 142 149
-0.008914 -0.021682 -0.031643 54 63 61
-0.081035 -0.011594 -0.000493 75 96 105
-0.083488 -0.038532 -0.003143 68 90 95
-0.082045 0.022252 0.001232 84 102 107
-0.040303 -0.018199 -0.054968 65 56 43
-0.074324 -0.012015 0.003057 62 88 94
0.035047 -0.087723 0.058482 73 99 105
-0.080492 0.026369 0.002382 87 103 106
0.070090 0.040661 -0.040593 58 42 25
0.012015 0.039291 -0.018993 39 20 4
-0.048830 -0.000194 -0.037818 53 46 36
0.004529 0.022394 -0.014068 107 111 100
0.102786 -0.035543 -0.000318 116 143 142
-0.107980 -0.005008 -0.013868 111 132 134
0.106090 0.040906 0.006007 95 123 119
0.078317 0.086568 0.068232 68 88 93
0.085431 -0.036856 0.033007 106 132 140
0.066563 -0.058890 0.068557 97 123 131
0.096955 0.074378 0.031882 85 100 106
-0.068594 0.041355 0.008107 69 61 40
0.006673 -0.015219 -0.040393 107 65 25
0.086149 0.003498 0.038507 106 132 138
0.095567 -0.061751 0.010507 95 127 125
-0.065830 0.050804 0.008182 80 96 93
-0.032109 -0.032939 -0.059618 111 70 53
0.089438 0.058016 0.042457 78 102 108
-0.103965 0.008880 -0.010868 104 124 129
0.074327 -0.051104 0.054332 91 119 129
-0.097978 -0.017932 -0.009468 99 119 124
-0.072299 0.009777 0.005582 47 41 39
-0.099551 0.006319 -0.008393 97 120 122
0.080022 0.003386 0.050907 106 129 140
-0.010378 -0.032667 -0.047218 102 49 27
0.088262 0.070746 0.047882 80 97 104
-0.034506 -0.040737 -0.060968 156 160 50
-0.036860 -0.034357 -0.061368 152 172 82
-0.066280 0.063478 0.009132 69 86 80
-0.078332 0.026375 0.003382 83 100 107
0.105291 0.038748 0.008357 98 121 123
-0.003488 0.010280 -0.029218 96 86 70
0.089044 -0.014889 0.028782 110 134 140
0.044438 -0.052264 0.064407 99 127 137
-0.013959 0.018647 0.015982 172 167 142
0.103557 -0.030613 0.001732 117 142 138
0.090677 -0.048996 0.020732 102 129 128
0.082468 0.022842 0.050032 93 115 128
0.097486 -0.058610 0.005657 101 126 130
0.100083 -0.008227 0.011107 114 140 146
0.086032 0.031162 0.044882 92 116 122
-0.026754 0.035746 -0.040043 36 37 29
0.001389 -0.049625 -0.040968 98 42 16
0.104811 -0.057966 -0.005893 100 126 132
-0.100078 -0.042935 -0.011818 119 143 151
-0.014802 -0.040642 -0.049743 114 63 36
0.071350 0.039754 -0.042418 55 33 19
0.087556 0.026107 0.041032 100 124 130
-0.073875 -0.034880 0.001907 47 45 39
-0.004067 -0.044870 -0.043893 107 49 21
0.043362 0.037803 0.068557 94 125 132
0.084299 0.071931 0.055532 76 97 99
0.089807 -0.004153 0.030732 113 137 145
-0.105054 -0.055018 -0.014993 108 134 142
0.097591 0.041374 0.024457 98 119 121
-0.043284 0.018581 -0.045493 56 42 32
0.001378 -0.047215 -0.041193 105 47 26
-0.079830 -0.004564 0.000832 73 95 108
-0.027472 0.046910 -0.051693 112 123 115
0.072813 0.089863 0.082007 68 92 98
0.006241 -0.008027 -0.033943 98 49 15
-0.019825 -0.022885 -0.051618 156 186 196
-0.110156 -0.046083 -0.016893 108 137 144
0.021506 0.009176 -0.032543 64 41 16
0.037876 -0.044271 0.061857 105 133 143
-0.004239 -0.011544 -0.001093 119 128 112
-0.079844 0.031267 -0.044393 87 87 68
-0.034629 -0.029941 -0.060493 104 65 49
-0.036374 -0.029118 -0.061643 142 163 69
-0.050009 -0.009594 -0.036943 56 49 44
0.093177 0.001697 0.025482 108 137 142
0.102504 -0.006817 0.004857 117 146 145
-0.107525 -0.017755 -0.013668 121 147 148
-0.013583 0.062677 0.013707 49 47 47
0.050385 0.019278 0.072182 103 126 142
-0.004445 -0.002549 -0.030268 48 57 66
0.083440 0.076576 0.055907 76 97 99
0.096137 -0.039524 0.012782 110 139 138
-0.016310 0.009495 -0.036443 155 121 75
0.097262 0.040056 0.024382 92 121 120
0.049497 0.070721 0.062957 5 14 25
-0.082190 -0.023278 -0.001868 71 95 101
-0.073501 0.045085 0.007032 64 85 82
-0.016479 -0.046300 -0.051193 122 65 34
-0.033328 -0.009946 -0.058368 170 168 135
0.066061 -0.076731 0.066282 78 107 114
0.053726 -0.080092 0.068932 81 105 113
-0.035272 0.024508 0.005032 186 184 151
0.101163 -0.050244 0.000132 107 134 138
-0.013211 0.041495 -0.016018 116 117 95
0.071774 0.050195 -0.050568 23 15 0
0.016529 0.037122 -0.020593 12 10 4
0.094879 0.014773 0.025107 108 133 137
0.074303 0.018908 0.064182 99 122 133
-0.017765 0.031660 -0.018118 119 121 110
0.067401 0.028035 0.078807 94 115 122
0.093603 -0.061656 0.014957 97 124 128
-0.097444 -0.060371 -0.011668 106 133 137
-0.043850 -0.010294 -0.047618 56 45 39
-0.033363 0.017676 -0.056818 91 52 23
-0.067232 0.062693 0.009182 71 89 80
-0.080766 -0.056583 -0.002818 118 149 156
-0.011672 -0.044716 -0.049018 120 59 32
-0.114192 -0.048892 -0.019443 101 130 137
0.056533 -0.077190 0.070907 77 105 115
0.093700 -0.056367 0.014357 107 128 135
0.098054 -0.006967 0.015532 116 140 146
-0.006648 0.005628 -0.029768 53 59 73
0.016952 -0.040846 -0.031368 127 141 40
-0.032952 -0.037326 -0.059918 158 159 37
-0.094980 -0.015148 -0.007468 86 107 116
-0.020951 -0.032298 -0.053243 100 79 63
0.095805 0.004867 0.022682 103 136 136
-0.073937 0.028006 0.005757 72 93 100
-0.034618 -0.011203 0.004232 183 182 153
0.075908 -0.004560 0.058357 106 132 138
0.064239 -0.016613 0.076082 110 137 149
0.003777 0.007215 -0.026068 129 83 21
-0.109525 -0.019893 -0.015068 118 148 151
0.100959 -0.029006 0.006432 116 142 143
0.103456 0.032582 0.011332 100 129 128
-0.067747 0.066290 0.010307 65 77 67
-0.084516 -0.040101 -0.003343 67 91 99
-0.004166 -0.038561 -0.044368 109 59 43
0.014118 -0.051029 -0.033793 112 70 16
-0.033232 -0.007671 -0.058418 79 80 72
-0.022485 0.004830 -0.039868 63 76 82
-0.002426 -0.021943 -0.028893 48 55 51
0.094851 -0.018399 0.018932 115 139 145
-0.090563 0.029884 -0.002193 89 102 101
0.106800 0.025602 0.003407 108 133 130
-0.096346 0.007326 -0.006968 96 117 119
-0.094823 0.008825 -0.005943 93 113 118
0.062867 -0.012250 0.076407 109 136 148
0.105350 -0.014253 -0.000468 120 141 143
-0.085425 0.037725 -0.048918 68 77 61
0.010253 -0.034148 -0.035443 91 45 22
0.090040 -0.059414 0.020882 96 120 126
-0.076872 -0.056158 -0.000768 120 151 156
-0.082051 0.067791 0.004507 68 84 81
-0.010448 -0.013903 0.014232 88 96 98
0.104893 -0.019731 0.000807 115 141 142
-0.068173 0.024470 0.014807 58 48 39
-0.094487 0.005021 -0.006343 95 116 118
-0.040464 0.036163 -0.046218 41 44 47
-0.111942 -0.024804 -0.016793 113 142 147
0.001106 -0.037950 -0.040818 169 200 187
-0.017401 0.003793 -0.035418 64 74 76
-0.006881 -0.042771 -0.046318 108 53 22
0.105314 -0.044753 -0.006243 112 139 138
-0.020103 0.011311 -0.039318 120 114 100
-0.021473 -0.019220 -0.038518 196 198 160
-0.084108 0.033714 -0.046343 78 80 69
0.104177 -0.033265 -0.000918 122 147 151
-0.110096 0.013095 -0.013668 101 127 128
-0.114702 0.037445 -0.012393 80 89 73
-0.095342 -0.018490 -0.007918 82 106 112
-0.088813 -0.013244 -0.004468 77 102 106
-0.076965 0.010056 0.002882 72 96 102
-0.031397 0.028587 -0.039743 23 63 89
0.080302 0.004862 0.050782 104 129 140
-0.070208 0.007561 0.005957 57 46 40
-0.006607 -0.048008 -0.045768 115 60 24
0.101972 -0.062302 -0.002218 99 129 125
0.046419 0.096515 0.072982 65 86 93
-0.013582 0.019657 0.007582 191 199 169
0.098078 0.014856 0.017357 112 138 144
-0.075512 0.048234 0.006432 67 86 88
0.075425 -0.005581 0.058432 104 132 142
0.048764 -0.040262 0.067382 104 132 147
0.093151 0.005502 0.026907 113 140 144
0.105447 -0.050823 -0.007143 107 133 134
0.062070 -0.058865 0.074157 93 118 129
-0.072908 0.027322 0.006507 75 95 100
0.021917 0.021140 -0.025893 104 120 118
0.075355 -0.012093 0.056782 104 129 140
0.039124 -0.050004 0.062082 104 132 142
-0.092758 -0.023257 -0.006843 79 100 102
-0.106558 0.006237 -0.012043 104 126 126
0.082676 0.063306 0.055232 77 98 105
0.064203 0.042241 0.079932 100 125 136
0.022264 0.028709 -0.025193 107 125 123
-0.034803 0.011854 -0.058193 94 55 19
-0.006709 -0.027803 -0.007968 53 63 58
-0.002713 -0.029472 -0.042568 98 45 23
-0.026230 0.030694 -0.039018 29 36 40
-0.099862 0.011374 -0.008693 99 120 122
-0.032144 0.027631 -0.044168 27 60 67
-0.082423 -0.057538 -0.003293 118 147 152
-0.029699 -0.020946 -0.057218 22 45 35
0.078141 0.044217 0.060807 80 106 114
0.099174 0.041485 0.020682 95 122 121
-0.081973 -0.033460 -0.001793 69 88 95
-0.082715 -0.028056 -0.001818 73 90 99
-0.032313 0.014804 -0.056568 135 151 136
0.040047 -0.062598 0.061507 98 122 135
0.094855 -0.048011 0.012932 109 132 134
-0.016875 0.043081 -0.035668 159 141 102
-0.049840 0.035059 -0.031093 53 44 31
-0.040017 -0.015764 0.000657 184 185 151
0.055269 0.067351 0.064557 9 18 29
0.096122 -0.028052 0.016832 114 140 141
0.099712 -0.043747 0.005432 108 134 140
-0.015517 0.018461 0.009057 191 183 147
0.095953 -0.069097 0.006657 93 117 117
-0.102654 -0.012250 -0.011268 99 124 128
-0.035014 -0.021308 -0.002493 152 144 123
0.009870 -0.027118 -0.034343 108 65 32
0.048626 0.018286 0.070732 100 124 137
0.080841 -0.023401 0.044282 108 132 140
-0.073396 0.005571 0.004682 66 92 100
-0.044982 0.025967 -0.040743 50 39 28
-0.078610 -0.026538 0.000357 63 88 99
0.038859 -0.067166 0.060682 90 120 130
0.018703 -0.046742 -0.030843 112 111 108
-0.104498 -0.004518 -0.011743 101 124 126
-0.021041 0.040504 -0.036243 110 110 84
-0.001494 0.009525 -0.029568 84 75 70
0.042179 -0.053455 0.063557 104 129 140
0.079859 -0.046730 0.041807 104 131 135
0.081707 0.054827 0.056207 79 100 109
0.094854 0.014624 0.025057 107 132 136
0.064413 0.064263 0.082057 99 122 133
-0.033948 0.029253 -0.056518 79 38 9
-0.067195 0.037298 0.006357 69 61 40
-0.108932 -0.028934 -0.015618 121 145 151
-0.087170 0.030850 -0.047918 82 87 74
0.013095 0.039185 -0.017518 26 23 6
0.008619 0.048520 -0.004143 163 154 115
0.088200 -0.049598 0.025732 103 129 130
-0.018833 -0.024913 -0.050918 157 197 205
0.045525 0.013410 0.069582 103 126 142
-0.078710 0.028053 0.003357 79 100 107
-0.078300 -0.011320 0.000832 71 95 101
0.096616 -0.005283 0.018282 115 144 149
-0.115723 -0.025624 -0.019193 110 141 148
0.091236 -0.057904 0.017907 100 127 131
0.018538 0.050863 -0.020618 22 19 9
0.083554 0.069153 0.054057 77 98 105
-0.110113 -0.043166 -0.017468 110 136 144
0.006766 0.021486 -0.016768 118 125 116
-0.078785 -0.055467 -0.001318 127 153 159
0.049564 0.022412 0.070932 101 127 135
0.098416 -0.056801 0.004557 95 130 125
0.052525 0.000045 0.072107 111 135 148
0.085959 0.005372 0.039507 107 133 141
-0.031821 0.030274 -0.049668 10 23 29
0.075450 -0.074557 0.044782 85 109 115
-0.094284 -0.050618 -0.009643 115 142 146
-0.035325 -0.025191 -0.060668 98 90 83
0.071362 -0.073639 0.054932 85 110 121
0.099238 -0.023007 0.009632 117 141 147
0.053711 0.018090 0.073307 99 128 140
-0.107279 -0.036396 -0.015318 115 141 147
0.012725 0.066411 -0.008468 47 43 29
0.052009 0.040669 0.074532 100 124 137
0.062146 -0.082151 0.071807 73 99 107
0.095719 -0.003366 0.019782 116 141 145
0.107205 -0.011231 -0.003393 118 141 143
-0.099064 -0.060501 -0.012543 101 126 137
-0.033885 -0.026640 -0.060168 104 61 44
0.104376 -0.047442 -0.003343 106 134 130
-0.086787 0.040954 -0.046368 71 72 50
-0.027759 0.027374 0.009807 143 144 131
-0.034586 -0.024345 -0.059368 110 90 76
0.050678 -0.068652 0.068032 85 115 125
-0.012322 -0.022074 -0.047118 54 56 50
-0.003718 0.060122 0.000607 146 135 103
-0.038963 -0.007681 0.001807 174 176 152
-0.038822 0.032415 -0.050543 64 52 43
0.061804 -0.028916 0.075182 102 133 140
0.098128 -0.017907 0.011957 114 141 145
-0.102538 0.002101 -0.010668 95 116 123
0.080152 -0.053547 0.040182 96 125 130
0.063346 0.097130 0.082957 68 87 101
-0.080503 0.014132 0.002107 75 100 104
-0.097855 -0.003451 -0.008618 93 115 115
0.108256 0.036053 0.003257 104 125 132
0.012368 -0.024512 -0.033093 97 58 29
-0.078832 0.023269 -0.044843 85 89 66
-0.074057 0.006223 0.004707 73 94 101
0.096522 0.025959 0.022682 105 127 127
-0.094302 -0.007655 -0.006918 87 112 116
0.045474 0.003091 0.067657 104 128 141
-0.037358 0.021813 -0.053343 82 42 15
0.061591 0.041092 0.078482 93 124 131
0.007991 0.055807 -0.008793 93 64 45
-0.097736 -0.025819 -0.010318 119 145 146
-0.010734 -0.036258 -0.047543 112 66 51
-0.007242 -0.014672 0.009307 122 127 114
-0.076255 0.053763 0.005982 71 90 92
0.011125 0.003578 -0.037393 146 133 98
-0.022259 -0.033929 -0.053943 169 196 195
0.059711 0.030672 0.077632 103 126 137
-0.000497 -0.043200 -0.042168 104 49 18
0.072798 0.043898 -0.049518 31 18 3
-0.032616 0.026035 -0.056368 83 49 17
0.016433 0.017726 -0.028618 97 107 114
-0.071062 0.006245 0.005782 55 43 34
-0.101793 -0.028295 -0.011718 123 147 153
0.092038 0.065129 0.037157 83 104 111
-0.036456 -0.030344 -0.061643 148 167 72
-0.015518 -0.020407 -0.034943 88 77 84
-0.110071 -0.018242 -0.015293 115 144 151
-0.021978 0.012339 -0.040018 239 247 240
0.091210 0.052772 0.037032 88 109 116
-0.006685 0.061031 0.006132 110 103 78
-0.034507 0.013755 -0.057693 89 50 21
0.102820 -0.027397 0.002407 124 145 147
-0.012929 -0.044793 -0.049293 120 62 34
-0.086867 0.061930 0.001432 75 88 86
-0.116259 -0.027822 -0.018918 112 137 148
-0.017883 -0.023285 -0.050568 166 199 204
-0.037725 0.000408 -0.017193 66 92 100
-0.026061 0.029985 0.003307 135 143 136
-0.002718 -0.000300 -0.027543 27 30 33
-0.030124 0.041206 -0.038693 33 34 31
0.004030 -0.025972 -0.037843 111 69 29
-0.019377 -0.026264 -0.051643 76 52 37
-0.043665 -0.013815 -0.002393 182 182 151
-0.003003 -0.030194 -0.042743 99 46 24
-0.015663 0.007416 -0.035718 93 92 84
0.045661 0.063044 0.071082 86 106 118
-0.011137 -0.001011 -0.033068 51 63 71
-0.034107 0.029327 -0.056568 85 43 16
-0.004544 -0.039669 -0.044443 114 94 109
-0.022815 0.008971 -0.041068 166 127 77
0.065707 0.100446 0.081332 66 84 89
-0.115238 -0.001295 -0.017643 113 140 144
0.100127 -0.049197 0.003932 110 135 139
0.065545 -0.078371 0.067507 79 103 109
0.082921 -0.059893 0.035282 96 120 126
-0.078086 -0.009543 0.000932 73 97 105
-0.080126 0.025128 0.002732 87 103 106
-0.025460 -0.032367 -0.055668 105 59 36
0.035712 -0.051268 0.059357 102 130 140
-0.114182 -0.035418 -0.018818 106 137 142
0.044370 -0.071135 0.064082 82 111 118
0.018449 -0.031915 -0.030493 126 138 49
-0.090149 -0.025801 -0.005493 75 99 99
-0.083878 -0.017205 -0.002293 74 94 99
0.094731 0.059736 0.033807 88 109 111
0.061810 -0.006953 0.076557 114 138 151
-0.032748 0.023478 -0.043543 105 140 140
0.046083 -0.029489 0.067207 111 137 145
-0.007704 0.005531 -0.029393 46 60 63
-0.073942 -0.029713 0.002407 51 55 54
0.011796 0.064370 -0.008118 91 81 47
0.108511 0.021448 0.000882 109 134 138
-0.032504 0.029692 -0.045593 14 31 32
0.008407 -0.002443 -0.038668 16 19 22
0.065550 0.038186 0.080107 97 126 133
0.062322 0.052976 0.079832 99 124 135
-0.115222 -0.041105 -0.019893 108 134 140
0.080532 0.014246 0.051382 99 125 131
0.098186 0.020671 0.018332 107 133 134
-0.025334 -0.031500 -0.055393 108 59 38
-0.018855 -0.013092 0.012757 162 164 133
0.052921 -0.032643 0.070757 112 135 146
-0.086930 0.066390 -0.002718 72 85 83
0.011809 -0.025156 -0.033468 109 65 30
0.097850 0.047340 0.025232 99 120 122
0.065568 -0.023982 0.074982 105 133 143
-0.095901 0.021645 0.000357 93 112 114
0.059285 0.091130 0.080282 10 15 31
-0.061843 0.044959 0.013457 51 35 23
0.103199 -0.035422 -0.000868 113 140 139
-0.081651 0.016884 0.001207 79 101 106
-0.099142 0.018325 -0.006543 104 121 115
0.086644 -0.069435 0.024582 91 117 123
0.023303 0.051486 -0.023168 58 38 4
-0.111109 -0.025628 -0.016668 119 143 156
0.002171 0.051615 -0.001543 178 162 123
-0.080880 -0.041820 -0.001993 66 87 94
0.109255 0.040017 0.000657 100 122 122
-0.117213 0.042231 -0.013518 71 75 57
-0.032772 -0.042063 -0.060318 157 160 45
0.082942 -0.051201 0.035332 103 128 132
-0.003776 -0.004606 -0.026768 77 86 84
-0.032365 -0.035610 -0.059593 152 156 24
-0.044409 0.009039 -0.043618 57 46 40
-0.083797 0.059488 0.002582 71 86 87
-0.008165 0.021728 -0.000043 110 123 110
-0.003900 -0.018003 0.009207 180 174 138
0.091694 -0.062269 0.017982 94 120 126
-0.082434 -0.048875 -0.002718 101 126 137
-0.011997 0.035190 -0.011893 78 87 96
0.078852 -0.072104 0.040057 87 114 118
-0.088118 0.027979 -0.047593 88 93 78
0.089755 0.013421 0.032557 105 133 134
0.064230 0.041329 0.080032 99 127 137
0.057936 -0.040283 0.073582 102 128 143
0.081145 0.092147 0.061982 71 86 87
0.090317 0.056612 0.038807 86 108 113
0.075410 0.047977 -0.054718 52 33 3
-0.002336 -0.038874 -0.042793 108 51 27
-0.095614 -0.009446 -0.007418 88 113 110
0.085562 0.073966 0.052432 79 98 107
0.004053 -0.034696 -0.038918 118 108 106
-0.010924 0.002582 -0.033268 49 61 71
-0.012411 -0.034041 -0.048818 163 182 176
-0.108100 -0.024664 -0.014943 121 148 147
-0.092992 -0.043817 -0.008693 121 145 158
-0.105636 -0.057523 -0.015718 100 131 138
0.014741 -0.037672 -0.032293 130 144 43
0.076818 -0.081179 0.042507 83 106 108
-0.017018 -0.027413 -0.050218 111 82 61
-0.032459 0.007437 -0.057043 113 118 91
-0.033833 -0.001619 -0.058368 101 67 35
0.053914 -0.065970 0.070432 88 117 124
0.074162 -0.016802 0.058707 104 129 140
-0.098232 0.020408 -0.005318 61 59 53
-0.108489 -0.009407 -0.014343 121 143 148
-0.116874 0.037246 -0.011118 76 85 69
-0.100270 -0.034097 -0.011693 123 145 150
0.081163 -0.078433 0.035832 80 107 111
0.091123 -0.054554 0.019357 101 128 127
0.054295 -0.061356 0.070532 94 117 128
0.080882 -0.004483 0.050582 104 129 140
-0.111883 -0.056558 -0.018543 97 128 135
0.090389 0.001227 0.030382 110 136 142
-0.081716 0.045913 -0.045993 39 34 4
-0.077742 -0.019670 0.001332 65 89 95
-0.046527 0.004718 -0.040768 56 45 39
0.100637 -0.065731 -0.000518 95 126 126
-0.087167 0.024754 -0.001168 88 108 108
0.072479 0.017560 0.067682 99 123 136
-0.105801 0.011242 -0.011168 104 127 129
0.100373 -0.026745 0.007907 113 141 142
-0.109884 0.003860 -0.014168 104 127 129
0.043119 0.020007 0.067357 102 123 139
-0.092280 0.043678 -0.000018 86 99 97
0.000189 -0.046104 -0.041843 100 44 11
-0.084508 -0.030694 -0.003093 71 92 94
-0.073462 0.028993 0.006232 76 93 100
-0.035454 -0.013045 0.003032 182 186 155
0.072095 -0.048443 0.056607 94 120 126
0.086731 -0.047524 0.027932 99 126 125
0.095949 0.077218 0.033507 76 97 99
-0.083223 0.064152 0.003032 74 86 81
-0.113225 -0.039557 -0.018568 108 136 146
0.013104 -0.019075 -0.038193 12 17 20
-0.047341 -0.024779 -0.043943 56 52 45
0.015083 0.034472 -0.017143 50 52 34
0.086036 -0.076673 0.024207 81 109 104
-0.027083 0.028305 0.009757 148 150 139
-0.040919 -0.015387 0.000707 184 185 151
0.106262 -0.019926 -0.001593 119 144 148
-0.076412 0.011502 0.003432 76 97 104
0.046563 0.051049 0.071957 94 125 130
-0.105091 -0.011649 -0.012693 111 134 136
-0.029010 0.032080 -0.039418 17 23 22
-0.016975 -0.036868 -0.051618 109 62 36
-0.098118 -0.020186 -0.009643 101 125 125
-0.079484 0.018657 0.002432 82 101 108
0.100905 -0.060482 -0.001718 97 124 128
-0.032490 -0.034637 -0.059768 149 160 48
0.081814 -0.026169 0.043532 104 133 138
0.085652 -0.061947 0.028807 101 126 130
-0.087554 0.038746 -0.046618 59 60 45
-0.027129 -0.029236 -0.056418 111 80 66
-0.094612 0.032654 -0.001393 70 85 77
-0.069329 0.038738 0.008307 69 60 42
0.094621 -0.042797 0.015057 108 135 139
0.097453 0.028808 0.021457 99 126 130
0.085940 -0.013596 0.036957 111 137 145
-0.082579 0.055852 0.003332 80 93 92
0.101729 -0.053310 -0.000593 99 126 130
-0.034529 -0.017943 -0.059268 109 70 27
-0.082737 -0.024298 -0.001768 75 96 98
0.107359 0.030495 0.004082 110 133 135
0.062583 -0.014282 0.076707 108 134 149
-0.031039 0.030120 -0.044018 18 30 40
0.102463 -0.040734 0.001207 112 139 138
0.071325 0.084823 0.082032 75 99 107
0.039740 -0.070117 0.060807 89 115 121
-0.002599 -0.023223 -0.041743 89 56 33
0.049755 0.027961 0.070982 97 124 136
-0.071105 0.055370 0.008807 39 39 39
0.088270 0.032575 0.040157 92 116 124
-0.042423 -0.023681 -0.050818 59 56 53
-0.080109 -0.064292 -0.002893 120 149 156
-0.002184 -0.000514 -0.027518 31 34 37
-0.076505 0.055032 0.006282 73 87 90
0.108055 0.018686 0.001357 119 146 145
0.017292 -0.008144 -0.033743 130 126 112
-0.037270 0.023218 -0.053343 85 51 21
0.079431 -0.014552 0.049357 105 131 139
-0.029269 0.026358 -0.033293 102 118 116
0.081737 -0.014945 0.044132 107 133 141
-0.119060 0.052055 -0.015018 54 51 34
0.081995 -0.016047 0.043982 107 132 143
0.086046 -0.073889 0.026757 88 112 112
0.097721 -0.055896 0.006982 102 129 128
0.006486 0.017051 -0.011243 152 152 128
-0.097269 0.004395 -0.007718 98 120 120
-0.087457 -0.036119 -0.004968 70 93 104
-0.007271 -0.000767 -0.030343 45 57 67
-0.018897 0.031651 -0.018168 117 119 108
-0.079175 0.028940 0.003232 77 101 107
0.111041 0.037776 0.000282 99 128 127
0.000216 -0.041115 -0.041218 102 46 20
-0.117271 0.035732 -0.013268 77 79 61
-0.038637 0.049102 -0.048193 0 1 0
0.094517 0.071578 0.034307 82 104 104
0.089654 -0.014570 0.028507 112 136 142
-0.020575 0.006476 -0.040343 70 79 83
-0.089479 -0.043694 -0.006093 124 151 155
0.073637 -0.006616 0.063232 104 130 145
0.087257 -0.031134 0.030382 110 134 140
0.110537 0.022455 -0.002518 119 139 139
0.004060 -0.035905 -0.038818 95 46 25
0.092174 -0.044853 0.019482 107 134 133
0.074906 -0.024465 0.055982 108 132 140
-0.034847 0.037939 -0.056343 79 47 17
0.052229 -0.024613 0.070857 113 138 149
0.095858 0.053844 0.030282 90 113 115
0.078849 0.057078 0.062307 81 103 116
0.077692 0.012145 0.056257 103 129 137
-0.036129 -0.035002 -0.061643 152 172 82
-0.113508 -0.018542 -0.017343 117 142 146
0.074073 0.029383 0.066107 90 110 122
-0.006886 -0.040405 -0.045893 111 51 30
-0.046408 -0.033382 -0.045668 65 57 55
-0.009078 0.010164 -0.033318 99 91 84
0.108590 0.020155 -0.000543 106 134 135
-0.095409 -0.018598 -0.008018 81 106 110
0.087935 -0.074172 0.021532 84 109 113
0.091807 0.057421 0.038332 88 110 110
-0.007588 -0.007743 -0.005493 132 136 118
-0.008401 0.042068 -0.031343 127 94 71
0.096041 0.009436 0.022032 115 137 142
0.089866 -0.032751 0.027707 104 136 134
0.094394 0.082209 0.036282 76 95 97
-0.006227 0.040477 -0.029893 239 247 240
-0.041719 -0.019403 -0.002718 165 165 134
-0.020420 -0.028518 -0.052568 105 55 30
-0.092861 0.039528 -0.001618 84 95 94
-0.033706 -0.009843 -0.058543 150 141 123
-0.088732 0.000209 -0.003118 80 105 109
0.092072 0.055903 0.037232 88 108 113
-0.035122 0.019533 -0.056943 89 48 17
-0.106805 -0.029680 -0.014793 121 144 155
0.004004 0.057191 -0.018843 92 67 49
-0.018810 0.023654 0.006657 200 202 184
-0.038116 -0.011251 -0.056593 99 62 26
0.016167 -0.035032 -0.031743 131 143 54
-0.028886 -0.004823 -0.026718 120 129 120
-0.115087 -0.046536 -0.019768 102 129 141
-0.116270 0.005197 -0.017793 106 136 139
0.016100 0.038868 -0.018868 24 19 9
0.092947 0.026921 0.029507 100 123 120
0.095456 -0.000983 0.020907 116 139 141
0.019344 0.040912 -0.025793 58 34 19
-0.031705 -0.037199 -0.059568 151 157 27
0.054700 0.008890 0.073657 107 131 144
-0.114731 0.012121 -0.016243 106 131 135
-0.069959 -0.000963 0.005632 49 41 34
0.106264 -0.000244 0.001757 118 141 143
-0.108846 -0.024068 -0.015043 121 145 153
-0.101497 -0.032059 -0.011818 122 144 157
0.073280 0.044194 -0.053868 33 18 3
0.097579 0.019086 0.021157 104 132 133
0.094885 0.034371 0.026857 93 120 124
-0.106281 0.016838 -0.010968 105 127 127
-0.109939 -0.005286 -0.015318 114 140 148
0.051964 0.081962 0.062432 0 7 21
-0.081936 -0.028851 -0.001593 68 89 98
-0.026135 -0.020353 -0.024118 161 161 135
-0.099694 0.013217 -0.008143 98 119 121
0.082486 -0.076817 0.032832 80 105 109
-0.083555 0.064625 0.002907 69 81 89
0.086158 0.076817 0.051057 79 98 100
-0.024585 0.035498 -0.037443 39 42 34
-0.107096 -0.036183 -0.015243 117 140 151
-0.034368 0.028486 -0.056893 83 45 11
0.087811 0.024114 0.038407 98 122 128
-0.085216 -0.053529 -0.004493 121 148 152
0.101971 -0.024685 0.005707 114 141 145
0.071857 0.048715 -0.049718 39 17 0
-0.097601 0.001125 -0.007993 94 120 121
-0.079321 0.036244 0.003582 74 94 94
-0.067694 0.022159 0.013782 55 44 31
-0.021021 0.040440 -0.034643 78 79 66
-0.076339 0.048136 0.005532 69 87 92
-0.093849 -0.033002 -0.007993 117 144 148
-0.083885 -0.042656 -0.003093 59 82 93
0.007959 0.038642 -0.018868 90 88 69
0.104073 0.036213 0.011232 100 124 124
0.064908 -0.038610 0.073307 100 126 134
-0.038612 0.020476 -0.052293 62 48 36
-0.001769 -0.034416 -0.043018 102 49 32
0.060052 -0.056143 0.073382 92 120 130
0.002442 -0.007889 -0.016168 55 62 53
-0.103827 -0.048093 -0.014543 105 134 139
-0.102915 0.057536 0.006732 40 38 39
0.045879 -0.047254 0.066257 103 130 142
-0.016658 0.032533 -0.017718 113 112 104
0.008617 0.006627 -0.038543 14 12 13
-0.029220 -0.034915 -0.057893 117 72 55
0.000763 -0.000281 -0.028468 44 52 59
-0.034562 -0.038317 -0.061068 154 158 47
0.099229 0.009066 0.015407 114 138 144
0.001462 0.008251 -0.027143 135 99 55
0.050554 -0.051915 0.068257 94 123 135
-0.027376 -0.026400 -0.056468 36 21 13
-0.007283 0.029735 -0.020643 56 86 101
0.103330 0.027697 0.010207 105 132 131
0.072551 0.044664 -0.048318 32 17 0
-0.025004 -0.043414 -0.055818 119 70 49
-0.040713 0.012753 -0.049268 34 38 38
-0.042314 0.041124 -0.042968 45 33 24
0.089604 0.011914 0.032557 107 131 137
0.077077 -0.077331 0.042357 84 109 113
-0.099921 0.009664 -0.009218 101 121 121
-0.010271 0.040382 -0.028243 150 136 112
0.104804 -0.031083 -0.003643 112 144 142
0.090501 0.007362 0.031257 110 136 142
-0.027511 0.005552 -0.033393 86 98 93
0.102747 -0.011021 0.005257 119 144 148
-0.117973 0.041935 -0.013768 63 67 49
-0.118284 0.040055 -0.015293 63 67 44
0.013470 0.034991 -0.016293 29 28 20
0.020578 0.032419 -0.026143 74 72 58
-0.034017 -0.020173 -0.027368 157 158 129
0.053666 -0.052687 0.070882 96 125 132
0.006518 -0.002204 -0.013968 19 13 11
-0.114743 -0.032586 -0.018343 110 137 141
0.087221 -0.053831 0.028357 97 129 127
-0.018623 0.032712 -0.026293 66 75 74
-0.029360 0.029158 -0.036293 20 40 60
-0.012107 -0.014207 0.014557 78 83 79
-0.026521 0.017205 0.008382 201 192 160
-0.076917 0.005932 0.003082 76 95 102
-0.022078 0.005218 -0.039993 56 70 78
-0.006974 0.040672 -0.017968 113 112 95
-0.072644 0.005056 0.005107 48 56 58
0.006311 0.007280 -0.023993 239 247 240
-0.035600 -0.004837 -0.059318 100 66 27
0.006252 0.036648 -0.012818 68 82 67
-0.015905 -0.035045 -0.050593 175 178 181
0.066962 0.043737 0.081157 96 125 132
0.081530 0.047260 0.056182 78 101 112
0.097947 0.013755 0.017632 108 138 141
0.086193 -0.047594 0.030007 103 133 136
-0.034849 -0.024441 -0.059318 106 66 32
0.008747 -0.032204 -0.036343 94 46 23
0.097229 -0.004846 0.017857 116 143 142
-0.028538 0.049396 -0.052168 115 132 139
-0.024324 -0.041886 -0.055768 120 72 54
-0.094737 -0.029386 -0.007918 107 131 139
0.106262 0.033412 0.006707 110 131 133
-0.082260 0.039215 0.002307 73 92 94
0.087732 0.019030 0.036832 95 126 131
0.093528 -0.065173 0.013257 93 121 122
0.086658 0.006602 0.038607 106 135 142
-0.072858 -0.067067 0.000607 64 72 74
-0.110825 0.020071 -0.010743 85 87 69
0.091713 -0.015367 0.024282 110 137 149
0.079490 -0.075447 0.038532 91 116 120
0.088691 -0.006895 0.031882 111 138 142
-0.045922 0.011794 -0.040843 56 46 37
-0.073519 0.051361 0.007782 69 84 90
0.081512 -0.024646 0.042782 109 137 147
-0.021455 -0.029966 -0.053418 103 57 34
0.103095 -0.012547 0.004757 117 144 148
-0.082921 -0.020008 -0.001918 74 95 102
0.008463 0.039242 -0.021993 131 113 81
0.088468 -0.031064 0.028182 108 132 140
-0.104003 -0.039952 -0.013693 120 144 152
0.098997 0.042379 0.020882 98 125 124
-0.110213 0.019830 -0.010768 86 90 72
-0.103237 -0.050910 -0.013418 102 131 143
0.088496 0.051459 0.042107 84 105 112
0.092904 -0.058876 0.015732 104 132 133
0.065944 0.057559 0.082182 99 123 136
-0.112598 -0.043318 -0.018493 108 138 141
0.066687 -0.077349 0.066032 79 105 111
0.095400 0.014053 0.022732 109 134 138
-0.007169 0.032276 -0.020793 98 95 78
-0.009589 -0.000287 -0.033343 49 61 69
-0.084932 0.007485 -0.001368 84 103 110
-0.118273 0.058154 -0.015793 55 50 25
-0.080939 -0.048297 -0.002143 82 109 108
-0.014001 0.041562 -0.026193 149 142 110
0.104411 0.026182 0.008882 107 133 134
-0.081608 -0.061817 -0.003168 118 147 154
-0.075370 0.040585 0.005732 72 90 95
0.098854 0.000907 0.016232 111 139 140
0.109380 0.044883 -0.001818 14 24 26
-0.084975 0.038673 0.000932 76 94 91
-0.068042 -0.021364 0.010382 72 76 75
0.090945 -0.058508 0.017607 104 127 129
