ply
format ascii 1.0
element vertex 1229
property float x
property float y
property float z
property uchar blue
property uchar green
property uchar red
end_header
-0.002175 -0.020447 0.010520 50 41 30
0.001928 0.020652 -0.012305 119 119 119
0.033903 -0.028813 0.017770 240 249 240
-0.025940 0.017292 -0.014805 142 143 128
0.027622 0.029085 -0.006180 111 119 107
0.009709 0.003183 0.001970 64 76 78
0.036248 -0.002850 0.004120 71 88 89
0.039932 -0.003742 -0.019505 82 95 82
-0.037678 -0.029768 0.013245 1 59 85
0.015515 -0.030299 0.018520 43 50 46
0.017226 -0.004734 0.017145 70 74 74
0.029794 0.006667 -0.010680 50 66 69
-0.002357 -0.010411 0.027845 35 31 31
0.005738 -0.034655 0.014345 1 5 4
-0.000875 -0.030744 0.000720 30 35 31
0.039618 -0.007465 -0.019105 85 94 80
0.043058 0.030463 -0.005755 119 125 107
0.024724 -0.034830 0.014070 30 28 9
0.000932 0.025883 -0.009055 114 120 113
0.019998 -0.024420 0.016395 95 93 81
0.035196 0.032258 -0.004130 117 119 108
0.049516 0.032545 -0.003830 129 134 119
-0.001664 -0.003529 0.009745 42 85 143
0.003528 0.029695 -0.006180 118 115 112
0.039756 -0.003882 -0.018555 86 95 81
-0.024906 -0.018489 0.009070 51 65 50
-0.053715 -0.019501 0.022120 34 40 59
0.017629 -0.020432 0.025795 72 78 77
-0.054882 -0.032910 0.017170 59 70 56
-0.033715 0.009746 -0.004055 135 138 125
-0.007266 -0.034529 0.014570 80 75 24
-0.046644 0.008077 -0.001005 130 137 117
-0.019160 0.012666 -0.008480 146 146 140
0.055466 0.031831 -0.004505 124 130 112
0.003831 0.026901 -0.008080 114 119 115
0.007570 0.010564 -0.005480 155 155 156
-0.036437 -0.026816 0.012270 2 28 55
-0.037428 -0.015441 0.027620 36 40 39
0.027469 -0.031854 0.016020 25 14 1
0.039358 -0.020441 -0.022930 74 89 63
0.015127 0.031425 -0.004830 109 111 105
0.017317 0.020677 -0.012405 122 123 120
-0.008414 -0.024645 0.018570 4 4 4
-0.050963 0.005645 0.002045 128 131 118
0.039410 -0.014167 -0.018830 88 96 73
0.006682 0.015211 -0.013030 157 158 155
-0.023197 0.010791 -0.005455 142 146 135
-0.023382 0.002318 0.006170 131 131 125
-0.042176 -0.009254 0.016695 46 50 39
-0.020641 0.024297 -0.010055 124 126 115
-0.065437 -0.003834 0.017845 50 63 55
0.015457 -0.033959 0.014745 19 19 13
0.015046 -0.023604 0.023295 37 41 41
-0.043630 -0.025009 0.010370 36 106 103
-0.007548 0.016909 -0.014755 156 155 152
0.017586 -0.030071 0.014770 59 40 3
-0.068244 -0.022661 0.023545 96 108 103
0.039306 -0.017958 -0.008680 82 87 74
0.013422 0.002121 0.007270 112 116 116
-0.018504 0.014971 -0.012405 151 149 143
-0.042012 0.017221 -0.014455 130 138 126
-0.022282 0.009496 -0.003030 152 153 145
0.030157 -0.020640 0.009670 53 40 25
0.003296 0.007644 -0.000355 143 152 150
-0.035034 0.008400 -0.002230 132 137 124
0.006623 0.020965 -0.012280 119 119 119
-0.059639 -0.020304 0.023370 64 64 53
-0.048057 -0.001384 0.013220 116 119 104
-0.023312 -0.004971 0.014545 242 248 241
-0.029246 0.000452 0.008895 139 138 130
-0.063247 -0.006881 0.028920 40 42 36
0.013748 0.017029 -0.014880 125 125 125
0.036429 0.016245 -0.014630 144 155 139
0.040018 -0.007284 -0.001480 71 72 64
-0.017656 -0.020083 0.024145 80 85 81
-0.016878 0.014149 -0.010905 154 153 150
0.012800 0.031171 -0.004905 112 111 108
-0.037848 0.022192 -0.011730 94 101 92
-0.027041 -0.020396 0.023795 37 47 42
0.005760 0.013924 -0.011005 158 159 156
0.039195 -0.022447 -0.008580 74 85 69
0.000469 0.008893 -0.001905 168 172 171
0.024695 0.005536 -0.006505 46 59 65
-0.021414 -0.032031 0.016320 102 104 93
0.029612 0.017346 -0.014780 130 127 117
0.042622 0.008780 -0.020505 128 138 119
0.015741 -0.017837 0.025845 2 2 2
0.023760 -0.027936 0.013845 79 86 77
-0.005521 0.030276 -0.005655 105 104 101
0.038740 -0.026890 0.016220 45 53 41
-0.042170 -0.027047 0.012570 7 72 85
0.038600 -0.016072 0.010320 40 45 41
0.014407 0.013627 -0.010580 155 154 151
0.039713 -0.010830 -0.011480 82 91 82
0.019176 -0.022203 0.023570 31 41 36
0.035861 0.002783 -0.014280 131 127 115
0.035428 0.014150 -0.010580 142 147 134
0.024603 0.004709 -0.015930 125 127 116
-0.023021 0.010523 -0.004805 146 147 139
-0.022928 -0.013140 0.023445 48 47 25
-0.026730 -0.018225 0.007920 81 82 69
-0.021961 0.016733 -0.014655 148 148 137
-0.028903 0.020744 -0.012730 101 104 96
-0.066234 -0.030963 0.016995 109 118 104
0.044330 0.019140 -0.013480 125 131 113
0.039261 -0.030409 0.000945 56 55 47
0.034217 -0.021912 -0.003730 17 19 13
-0.051291 -0.002632 0.015795 108 113 98
0.009921 0.018638 -0.013905 118 123 119
-0.025935 0.014253 -0.010905 144 143 135
-0.017155 0.006208 0.000920 88 99 91
-0.015287 0.019510 -0.013405 107 114 105
-0.021973 0.003150 0.005295 134 133 130
0.006755 -0.015090 0.028445 1 2 0
0.044907 0.019654 -0.013030 133 135 117
-0.032851 0.006736 0.000570 137 139 133
0.008107 -0.002241 0.006945 18 51 119
0.028607 0.027263 -0.007805 118 118 112
0.008468 0.009641 -0.003955 153 153 153
-0.008026 0.009741 -0.004105 155 160 156
0.004644 -0.008071 0.023720 90 96 96
-0.044029 0.005826 0.001970 132 135 120
0.037917 0.010192 -0.005280 80 94 84
0.035658 -0.002629 0.003570 74 90 93
-0.018270 0.000811 0.011295 140 138 132
-0.026180 -0.027621 0.019670 58 71 63
0.021698 0.003894 -0.015605 128 131 123
-0.014133 -0.034129 0.012620 9 10 7
0.045791 0.025618 -0.008880 118 129 113
0.025111 0.003021 -0.015430 157 151 137
-0.009481 0.007508 0.000345 150 160 155
0.028761 -0.012087 0.005445 88 84 77
-0.025584 -0.017164 0.025620 25 23 9
0.039902 -0.007760 -0.019555 84 88 77
-0.029720 -0.002616 0.010245 141 142 134
-0.024303 -0.004300 0.014045 148 146 140
0.013858 0.015073 -0.012680 157 157 151
-0.068469 -0.022457 0.023995 10 19 18
0.015441 0.014827 -0.012355 154 156 150
-0.009515 -0.025211 0.020395 4 1 0
0.035342 0.011697 -0.008055 44 46 40
0.023780 0.002970 -0.015630 156 150 136
-0.004050 0.028391 -0.008305 104 103 95
-0.035260 -0.018079 0.018870 46 49 41
-0.034669 -0.021781 0.008170 16 42 96
0.023101 0.025582 -0.008655 111 117 110
0.039381 -0.011631 0.004220 48 54 53
0.016613 0.015855 -0.013605 155 157 151
-0.047609 -0.001192 0.013695 114 119 104
0.019611 -0.019981 0.009995 99 56 5
-0.060923 0.001843 0.010045 118 129 113
-0.066740 -0.024158 0.022445 95 106 92
0.039519 -0.012326 -0.025530 86 93 84
-0.022669 -0.007695 0.019920 124 120 113
-0.028167 -0.020552 0.008270 128 77 0
0.039390 -0.004488 0.009095 29 39 34
0.041425 0.015998 -0.009930 127 130 115
0.010044 0.031717 -0.004805 111 111 105
0.020913 0.002532 -0.015980 138 134 127
0.014835 0.016164 -0.014305 157 155 155
-0.037894 0.002317 0.007420 125 129 118
-0.049656 0.001649 0.008970 120 123 110
-0.023064 0.018775 -0.013955 107 108 105
-0.048483 0.011553 -0.006105 130 135 122
-0.028015 -0.017354 0.009995 34 43 41
-0.055128 -0.031172 0.016970 101 106 93
-0.042567 0.011281 -0.006055 134 137 124
0.023455 -0.020309 0.009420 68 48 14
-0.042399 -0.024134 0.010620 66 114 110
-0.025345 0.013104 -0.009880 145 147 136
-0.015428 0.009319 -0.002405 152 154 148
0.013316 -0.013446 0.029395 52 62 57
0.000425 -0.002574 0.009470 11 50 125
-0.024053 -0.030792 0.017570 86 96 84
0.030579 0.004084 -0.015755 129 124 119
0.000805 -0.033986 0.014070 13 29 46
0.006583 -0.025724 0.010945 15 76 99
0.047041 0.014968 -0.016155 125 135 116
0.018486 0.023509 -0.010580 119 119 119
0.030719 0.007713 -0.009230 71 83 85
-0.028584 -0.034992 0.014670 68 71 63
-0.072067 -0.014265 0.028870 24 34 36
0.039303 -0.016860 -0.017555 73 91 69
0.039530 -0.012527 -0.020630 84 95 81
-0.033156 0.013383 -0.009780 139 142 129
0.041718 0.008593 -0.020580 133 139 121
-0.016392 0.022246 -0.011355 110 112 106
0.010786 -0.020200 0.025070 46 57 56
-0.022607 0.011134 -0.005880 147 148 140
0.028112 -0.033638 0.014645 10 26 11
0.039511 -0.014449 -0.009230 83 88 75
-0.026940 -0.033487 0.014620 0 1 0
-0.012692 0.008669 -0.001780 155 157 151
0.000139 0.011389 -0.006080 162 163 160
-0.025440 0.016076 -0.013505 145 147 136
-0.042673 0.020189 -0.013305 91 95 84
0.034036 -0.013494 0.000145 19 17 17
0.052126 0.029289 -0.006230 122 132 113
-0.054703 -0.028096 0.021020 77 89 79
0.032182 -0.006478 -0.001305 24 32 34
-0.039151 -0.015100 0.025045 19 24 20
0.012627 0.012158 -0.009455 156 154 155
-0.034817 0.009727 -0.004255 137 140 127
0.013168 -0.011401 0.028695 62 69 65
-0.036495 -0.008094 0.012745 12 17 13
-0.053598 -0.010171 0.018245 113 122 108
-0.009903 -0.007938 0.022370 8 6 6
-0.005248 -0.011913 0.028895 62 62 62
-0.060883 0.001133 0.012695 117 127 122
0.011166 0.025081 -0.009230 117 119 113
-0.007027 0.011832 -0.006980 158 159 156
0.042563 0.004519 -0.023805 132 139 112
-0.042634 -0.032650 0.015045 2 65 92
0.010058 0.005475 0.002445 126 133 129
0.016505 -0.001505 -0.007155 123 125 114
-0.020346 0.023644 -0.010480 118 116 110
0.006519 -0.034168 0.012720 0 2 0
-0.039646 -0.008188 0.012345 45 46 33
0.025967 0.030937 -0.005230 113 114 106
0.039437 -0.017228 -0.002980 70 78 66
-0.045479 -0.022412 0.009770 21 52 105
-0.038517 0.024704 -0.009930 113 116 101
0.011098 -0.018405 0.008995 11 11 12
-0.011588 0.015147 -0.012830 155 154 151
-0.039461 0.024937 -0.010030 113 114 101
0.002323 0.004267 0.003745 7 28 97
0.007779 0.012607 -0.008905 152 157 153
0.032443 -0.007276 -0.002030 135 133 121
0.025866 0.009515 -0.008230 80 94 97
0.023821 0.001902 -0.015805 158 153 143
-0.037423 -0.004222 0.017095 105 107 101
0.040421 0.007653 -0.012830 84 91 82
-0.004535 -0.000907 0.007845 0 31 109
-0.020856 0.015077 -0.012380 147 147 141
0.016942 -0.006781 0.021395 78 82 82
0.007557 0.022408 -0.011330 118 118 118
-0.047700 0.012540 -0.007830 132 136 125
-0.014010 0.016411 -0.014305 153 153 147
0.046099 0.015787 -0.015680 128 134 116
-0.032404 -0.019143 0.025270 39 47 40
0.021309 -0.008733 0.000520 121 117 110
0.035908 0.018444 -0.013880 117 120 112
-0.023934 -0.022806 0.022545 4 5 2
0.041151 0.011181 -0.018780 120 131 115
-0.033656 0.013038 -0.008880 138 141 128
-0.018522 0.018670 -0.013980 108 114 107
0.010248 0.015645 -0.013655 157 158 155
0.008459 0.009471 -0.003305 151 151 151
0.042182 0.010912 -0.019055 129 138 124
0.034513 0.018972 -0.013555 119 123 112
0.024994 0.001391 -0.014005 151 149 135
0.039862 -0.001341 -0.023430 89 94 81
0.040147 0.001556 -0.022155 91 95 84
0.020893 0.018535 -0.013705 121 122 114
-0.046759 0.013238 -0.008980 128 138 119
-0.014499 -0.014434 0.025795 21 26 22
0.005317 -0.018316 0.025870 3 3 3
0.033529 0.015586 -0.013180 149 154 141
0.009806 0.018966 -0.013580 98 102 102
0.027142 -0.010680 0.003370 80 81 78
-0.022520 0.025860 -0.010105 105 113 101
0.001241 0.022717 -0.011155 121 121 121
-0.026620 -0.013364 0.023395 26 32 9
-0.052952 -0.025119 0.017095 62 62 63
0.026604 -0.007333 -0.000580 127 122 117
0.005682 -0.018604 0.008420 28 28 38
0.039464 0.012007 -0.008580 125 134 120
-0.024842 0.003210 0.004870 132 134 128
0.039007 -0.022212 -0.001630 65 71 53
0.039477 -0.029155 0.005195 34 44 32
0.014893 -0.035172 0.014770 0 2 1
0.040326 0.006074 -0.013005 76 83 79
-0.013562 0.006264 0.002120 164 165 162
0.039730 -0.009866 -0.019305 81 92 78
-0.040636 -0.027360 0.012245 3 49 77
-0.000439 -0.018601 0.009270 27 50 46
-0.059996 -0.001311 0.014970 115 124 110
-0.043249 0.002972 0.007520 128 131 118
-0.046137 -0.008764 0.020145 9 11 5
0.030409 0.002922 -0.015580 143 141 129
0.025719 0.009233 -0.008355 90 98 100
0.039957 -0.011442 -0.016405 83 88 75
-0.033841 0.023906 -0.010305 98 107 93
-0.038945 -0.018438 0.005770 26 64 43
-0.012746 0.024987 -0.009530 115 117 111
0.040116 -0.001126 -0.019655 95 99 81
0.039902 -0.001857 0.005745 41 45 44
-0.008275 -0.016674 0.012295 93 100 96
-0.001948 -0.033286 0.014270 27 42 56
-0.033387 -0.022622 0.010295 140 112 54
0.024510 0.003361 -0.015480 171 166 149
-0.030399 -0.008297 0.022895 37 42 38
-0.006118 0.007065 0.001045 142 143 140
0.039375 -0.020495 -0.023455 76 90 73
0.017346 -0.002427 -0.009755 138 133 128
-0.053072 0.004835 0.003870 125 130 117
0.039839 -0.003294 -0.016780 89 92 77
-0.039706 -0.024604 0.012020 37 67 77
0.030336 0.023233 -0.010630 115 124 110
0.014177 0.023107 -0.010705 115 116 113
0.021345 0.026370 -0.008380 115 119 108
-0.063423 -0.026099 0.020620 88 97 83
0.013047 -0.003954 0.017445 98 102 101
-0.065325 -0.028060 0.019645 101 108 99
0.020290 -0.027575 0.016820 78 73 56
0.021432 0.014427 -0.011105 161 160 157
-0.024895 0.002056 0.007095 131 131 125
0.040177 0.002432 -0.022455 95 97 86
0.040821 0.012538 -0.015655 88 93 80
-0.066142 -0.003350 0.017070 37 75 79
-0.035470 -0.022818 0.009295 56 115 111
-0.065926 -0.004622 0.018670 41 67 75
-0.042632 -0.003504 0.017220 111 115 104
0.003877 -0.025159 0.012270 57 54 44
-0.006919 0.018670 -0.013980 116 116 116
-0.052951 0.007036 0.000520 121 131 112
0.039540 -0.009157 -0.010005 81 88 79
-0.028065 -0.014195 0.022795 30 28 14
0.039194 -0.024046 0.000795 70 73 58
-0.006956 0.009478 -0.002580 159 159 159
0.034520 -0.030663 0.001895 51 64 51
0.041859 0.027548 -0.007605 118 123 110
0.006638 0.026797 -0.008230 115 119 108
-0.024882 -0.033712 0.014845 5 4 1
-0.034999 0.014587 -0.011380 134 138 120
-0.036497 0.017893 -0.014755 113 114 99
0.017895 -0.026106 0.017245 53 51 39
-0.039303 0.012817 -0.008555 133 140 120
-0.027025 -0.008910 0.015595 6 7 4
-0.041069 0.007079 0.000220 134 135 120
-0.063783 -0.028546 0.020020 86 102 87
0.039992 -0.004390 -0.014430 81 91 79
-0.005252 0.016349 -0.014605 156 154 154
0.021501 0.010893 -0.007980 91 104 103
0.004896 0.018910 -0.013605 116 121 117
-0.009502 -0.026475 0.019045 2 5 0
-0.018105 0.016051 -0.013880 143 149 142
-0.044652 0.013245 -0.008930 124 136 117
-0.003142 0.015069 -0.012705 157 158 155
0.032821 0.018271 -0.013980 120 122 111
-0.002681 0.013917 -0.010730 159 157 157
0.039053 -0.017821 -0.026555 78 88 69
-0.008965 0.010513 -0.005430 155 158 150
-0.057016 -0.030561 0.017095 86 89 76
0.026266 -0.000983 0.004745 85 102 109
-0.024719 -0.018917 0.025320 70 77 68
-0.035984 0.017215 -0.014705 136 141 128
0.032078 -0.018913 0.026095 24 22 22
0.024703 -0.019216 0.009045 28 25 8
-0.019435 0.015991 -0.013930 149 150 137
0.040659 0.000442 -0.026580 129 137 114
0.017033 0.029556 -0.006105 109 116 107
0.039142 -0.020933 -0.014080 74 86 76
-0.060804 -0.030717 0.017345 38 49 35
-0.009466 0.012330 -0.008180 155 156 153
-0.029278 -0.019963 0.022495 47 51 51
-0.008084 0.014147 -0.011230 157 156 153
0.007494 0.006194 0.001945 103 112 111
0.039330 -0.015152 -0.013355 83 88 75
-0.051414 0.002771 0.006295 126 127 114
-0.021262 0.013308 -0.009930 147 146 138
-0.066751 -0.020746 0.024695 0 11 0
0.016098 0.013634 -0.010205 152 157 153
-0.038561 -0.002211 0.014495 113 116 101
-0.061487 -0.031876 0.016495 78 89 73
-0.002541 0.024803 -0.009780 115 121 114
-0.005522 0.006216 0.002420 99 103 108
0.039029 -0.018180 -0.021830 72 84 65
0.011729 0.014244 -0.011880 158 158 158
-0.018759 -0.023918 0.018045 88 89 86
-0.014723 0.016947 -0.014805 153 151 145
0.043325 0.029156 -0.006605 120 125 105
-0.036695 0.010777 -0.005580 132 141 125
0.023798 -0.012982 0.006920 102 96 89
0.020622 0.027209 -0.007805 110 118 111
0.007551 0.011715 -0.007480 159 159 153
-0.012220 0.028171 -0.007380 110 112 106
-0.012911 0.012984 -0.009255 153 153 147
0.007018 0.017035 -0.014855 123 127 126
0.018278 0.007076 -0.008355 78 94 97
-0.042889 0.013003 -0.008755 133 142 126
0.027018 0.017595 -0.014330 126 126 120
0.041355 0.014210 -0.016880 123 134 118
0.024591 -0.014962 0.011995 111 111 100
-0.024924 0.002576 0.006145 129 130 127
-0.035050 0.010441 -0.005055 135 136 128
-0.039610 -0.026102 0.012420 15 57 78
-0.043649 -0.010048 0.017845 36 36 30
-0.010437 0.004305 0.005520 133 140 136
0.000628 -0.009952 0.027345 43 36 37
0.017881 0.001803 -0.015505 127 127 116
-0.024909 -0.030226 0.018295 80 85 81
0.029849 0.003167 -0.015405 167 158 145
0.039451 -0.011223 -0.022780 84 89 76
-0.040790 0.020730 -0.012780 93 95 84
-0.005377 0.020503 -0.012680 117 116 113
0.023979 0.013054 -0.009505 161 160 157
0.039562 -0.013992 -0.005130 72 82 70
0.017892 0.000665 0.008195 77 82 85
0.021928 0.011378 -0.008005 90 102 104
-0.014928 0.018417 -0.014205 119 121 115
-0.062376 -0.006667 0.027320 30 35 31
-0.008852 -0.000254 0.003745 52 98 141
-0.058062 0.004970 0.004170 115 132 112
-0.033629 -0.031551 0.014345 95 107 88
-0.023184 -0.002472 0.014070 137 135 129
0.025098 0.014372 -0.010505 154 160 153
0.011170 0.009255 -0.003805 130 134 134
0.008129 0.011894 -0.007780 152 156 155
-0.005831 -0.030429 0.013545 21 53 95
0.035467 0.003177 -0.014580 135 137 119
0.039734 -0.006953 -0.018830 80 93 80
0.025584 0.019515 -0.012980 119 126 117
-0.063507 -0.003914 0.016820 104 112 100
0.022355 -0.018729 0.008670 14 19 15
0.002030 -0.003267 0.009845 0 48 121
-0.052320 -0.024982 0.019545 65 120 108
0.038577 -0.026705 0.009745 54 55 40
0.011963 -0.020560 0.024195 48 54 54
-0.027781 0.006537 0.001420 120 127 118
-0.034483 -0.011507 0.028895 38 46 39
-0.010542 0.001937 0.004945 86 100 108
-0.015521 0.005390 0.000120 133 139 132
-0.041963 -0.021751 0.007570 60 82 87
0.001289 0.019323 -0.013555 115 117 111
-0.063458 -0.024069 0.022095 88 97 81
0.017242 -0.002371 0.013445 66 69 72
0.040338 0.004721 -0.020705 83 95 85
0.030816 0.023620 -0.010205 121 124 116
0.039397 -0.019302 0.001670 66 77 63
-0.032112 0.023928 -0.010405 104 112 100
0.039649 -0.019062 -0.006105 76 82 64
0.001983 -0.011361 0.028370 67 73 73
0.011524 0.009919 -0.005205 141 145 144
-0.027139 0.002121 0.007370 132 131 128
-0.004426 0.004953 -0.002255 132 138 138
0.026263 0.003653 -0.015480 153 146 136
-0.005815 0.030601 -0.005530 105 107 96
-0.022092 0.014205 -0.010880 137 143 136
0.010295 0.000626 0.003720 36 67 113
0.039464 -0.020390 -0.007930 81 86 71
0.011973 -0.029116 0.013170 13 12 45
0.017555 0.018292 -0.014105 123 125 119
-0.046127 0.021749 -0.012030 91 101 89
0.040523 0.009811 -0.017405 90 101 85
0.025817 0.003890 -0.015780 158 153 143
0.026713 0.016985 -0.014630 130 130 124
-0.029977 -0.016477 0.025295 17 18 5
-0.038487 -0.004289 0.018095 105 112 103
-0.024547 0.016500 -0.014355 136 145 131
-0.051526 -0.014680 0.024870 47 60 39
0.006769 -0.014338 0.028820 0 2 1
-0.037764 0.021441 -0.012405 95 103 91
0.039151 -0.026731 0.014270 39 52 44
-0.050436 0.009349 -0.003380 128 134 116
0.021769 0.002146 -0.016030 143 139 132
0.039985 -0.003752 -0.002180 103 100 83
-0.025076 -0.024092 0.011670 70 71 63
-0.006301 -0.011057 0.027870 37 45 47
-0.037576 0.016880 -0.014430 138 143 128
0.040078 0.000621 -0.021630 93 98 85
0.010723 0.001149 0.002295 134 140 139
0.040800 0.011585 -0.010605 95 106 92
0.046368 0.021389 -0.011655 121 132 111
-0.001693 -0.033031 0.007570 35 35 11
0.039904 -0.008997 -0.014680 80 87 78
0.040386 0.002130 -0.011955 73 75 69
0.000607 0.002827 0.004645 2 21 96
-0.042254 0.006007 0.001870 131 133 122
0.008605 -0.033494 0.008570 40 48 50
0.010447 -0.032053 0.016795 14 58 66
-0.029966 0.023272 -0.010855 104 108 97
-0.067461 -0.017544 0.026395 98 103 99
-0.073953 -0.014944 0.028545 67 82 62
0.029916 -0.031877 0.014270 56 56 50
0.022535 -0.008985 0.000595 83 76 71
-0.026994 0.011876 -0.006630 140 143 135
0.018123 -0.030228 0.004320 28 28 4
-0.005784 -0.000816 0.007145 2 43 113
0.035050 0.003223 -0.014830 140 141 126
-0.005669 -0.019028 0.011720 13 25 35
0.006611 -0.032406 0.016770 28 35 46
0.020692 -0.034088 0.015470 36 24 0
0.006819 0.005703 0.001970 98 108 110
-0.011339 -0.029950 0.017895 3 3 3
0.033127 0.006255 -0.010580 77 88 87
-0.059178 -0.012292 0.021820 48 70 36
-0.005345 -0.017601 0.011145 87 79 38
0.010246 -0.002476 0.005320 61 87 122
0.028713 0.025150 -0.009180 113 121 109
-0.064587 -0.028414 0.019095 97 105 93
0.018405 -0.028031 0.014145 74 47 2
0.025355 0.003557 -0.015430 170 166 154
0.039811 -0.003280 -0.019555 75 87 77
0.018695 -0.022141 0.023970 9 12 15
-0.029776 0.021244 -0.012380 100 109 100
-0.031058 -0.027953 0.011520 121 124 109
0.019285 0.015770 -0.013530 155 156 153
0.020359 -0.030481 0.001745 25 22 0
0.003239 -0.002980 0.009545 18 56 123
-0.013030 0.028830 -0.006905 112 112 106
0.046199 0.026709 -0.008005 122 131 115
0.035446 -0.022041 -0.000830 19 21 15
-0.036431 0.006610 0.000470 132 136 125
0.015692 0.003087 0.005395 111 111 111
-0.045123 -0.028367 0.012795 0 52 71
0.023064 0.031632 -0.004730 118 114 107
-0.046858 0.005415 0.002495 126 129 116
0.018182 -0.015020 0.015395 107 108 100
-0.034373 -0.003774 0.016895 139 134 124
0.039497 -0.013975 -0.016455 81 89 77
-0.027328 0.026582 -0.009680 66 64 58
0.040701 0.009847 -0.017505 85 94 80
-0.040893 -0.033794 0.014495 1 2 0
-0.010860 0.004611 0.004945 136 140 139
0.017329 -0.031265 0.014945 51 30 0
-0.019419 0.020592 -0.012730 110 112 106
-0.000264 0.019122 -0.013555 116 113 117
-0.047008 -0.001920 0.014295 114 119 106
-0.016062 0.029827 -0.006430 110 114 103
-0.011782 0.024018 -0.010105 111 117 110
-0.007365 -0.034280 0.014845 83 71 20
0.012304 0.030202 -0.005705 109 114 110
-0.002120 -0.017889 0.026120 2 6 6
0.039307 -0.033109 0.012670 48 53 49
0.040452 0.010234 -0.014580 96 101 88
0.017127 0.001744 -0.014480 113 113 107
0.039759 -0.008690 0.002495 48 56 49
0.040048 -0.007970 0.002170 50 59 50
-0.013212 0.004017 0.000620 133 137 136
-0.056774 0.003794 0.005620 117 128 112
-0.004306 0.014428 -0.011705 157 158 155
-0.004290 0.001613 0.005595 15 46 106
-0.001912 -0.011408 0.028745 66 75 79
-0.041905 0.025584 -0.009655 90 93 85
-0.028450 0.000444 0.009295 135 135 129
0.040229 -0.000367 -0.024955 66 71 56
-0.051407 -0.009357 0.015745 76 94 58
0.008068 0.002699 0.004245 19 44 102
-0.024107 -0.030567 0.017770 88 96 84
0.039713 -0.007243 -0.003255 73 80 71
0.038082 0.023241 -0.010605 118 128 109
0.016556 -0.018349 0.026045 11 12 9
0.036103 -0.013135 0.005220 87 85 73
-0.012820 0.013772 -0.010655 149 153 152
0.039847 -0.001563 -0.017755 84 93 77
0.029209 0.032201 -0.004130 116 117 104
0.032811 -0.012541 0.006620 106 104 98
-0.039848 0.023943 -0.010530 104 104 98
0.039919 -0.003300 -0.018830 85 94 80
-0.052013 0.008325 -0.001655 125 130 115
-0.016339 0.013155 -0.009180 153 152 149
0.006408 0.027662 -0.007430 116 115 112
-0.003162 0.003693 0.003170 8 16 91
0.021554 0.004591 -0.015080 19 13 26
0.029840 0.029916 -0.006030 113 114 106
-0.003895 0.028633 -0.008230 90 95 91
0.034830 0.020205 -0.012655 121 125 114
-0.034857 0.017780 -0.014605 110 119 110
-0.011993 0.000779 0.009220 125 128 120
0.014419 -0.017533 0.026770 46 55 53
0.021991 -0.029927 0.016270 58 57 40
-0.045862 0.008789 -0.002480 129 138 122
-0.005060 -0.019515 0.025170 53 61 63
0.035257 0.010213 -0.007755 76 90 85
-0.005605 0.021712 -0.011605 122 120 114
0.025956 0.021324 -0.011705 123 121 115
-0.043587 0.023539 -0.010655 95 103 91
0.018952 0.005736 -0.005705 60 69 73
-0.002839 0.032686 -0.004055 116 115 112
0.039526 -0.012984 -0.012705 80 87 78
0.039375 -0.012703 -0.019905 78 88 76
0.024739 0.023225 -0.010480 118 125 116
-0.053070 -0.005941 0.017695 9 21 11
0.044390 0.016269 -0.015230 132 136 125
0.039447 -0.014049 -0.027355 89 94 79
-0.003097 -0.000780 0.007995 10 37 109
-0.042621 0.012431 -0.008230 132 137 122
0.001908 0.023456 -0.010405 118 119 116
0.007423 0.015732 -0.013980 155 160 156
-0.021133 0.012326 -0.008205 142 144 138
0.023864 -0.031119 0.002270 27 22 5
0.022631 -0.007878 -0.000980 95 88 83
0.001903 -0.018666 0.008970 33 50 57
0.024742 -0.019889 0.026220 38 44 43
0.016704 0.029509 -0.006080 114 114 108
-0.018443 0.007457 0.000495 158 160 154
0.026802 0.016536 -0.014655 149 153 142
0.014912 0.031982 -0.004405 111 112 104
-0.019380 0.017940 -0.014555 113 114 106
-0.004902 -0.030064 0.013295 25 45 84
0.008805 -0.033209 0.015995 44 55 54
0.025116 -0.022730 0.010195 106 95 55
0.039399 -0.018558 -0.013880 86 91 78
-0.012675 -0.032401 0.016145 68 76 69
0.039432 -0.009805 -0.027555 80 89 73
0.016938 0.001881 -0.013005 113 104 99
0.005602 0.007042 0.000620 133 138 141
0.022795 0.013909 -0.010130 159 161 155
-0.026502 -0.009486 0.015045 32 35 22
-0.041308 -0.018569 0.025145 38 45 41
0.020604 0.006727 -0.007880 56 66 73
0.027051 0.030956 -0.005180 116 119 104
-0.024342 -0.020872 0.023845 77 82 78
-0.035058 -0.012770 0.019920 37 46 32
0.022454 -0.031449 0.005020 26 27 5
0.033923 0.000513 -0.006780 137 142 129
0.038889 -0.028352 0.013395 49 50 42
0.018375 -0.032447 0.015270 53 38 3
-0.026372 -0.031637 0.017270 74 83 74
-0.038377 -0.019739 0.006345 58 74 91
0.039879 -0.002595 -0.004705 70 69 66
-0.025627 0.020739 -0.012555 103 108 95
0.031810 0.003557 -0.015380 137 135 123
0.024066 0.023181 -0.010630 119 122 114
0.025605 -0.007204 0.008920 23 33 40
0.035882 -0.003073 0.004645 80 89 98
0.031984 -0.006986 -0.002005 120 121 106
0.016378 0.007996 -0.002155 121 125 124
0.008980 -0.019026 0.008245 0 85 102
-0.032737 0.023256 -0.010730 103 104 96
-0.015945 -0.021623 0.022395 6 7 4
0.026133 -0.004485 0.009945 33 47 50
-0.032556 -0.032595 0.013920 77 87 75
-0.061763 -0.006065 0.020970 19 20 12
-0.018030 0.000740 0.011445 134 133 130
0.039652 -0.009118 -0.007880 90 89 81
-0.053534 -0.016499 0.025870 0 1 0
-0.010643 0.006564 0.001970 146 151 147
-0.005752 0.031556 -0.005080 113 110 107
0.039420 -0.012031 -0.004480 79 89 70
-0.032843 0.013723 -0.010305 140 143 128
-0.028491 0.023383 -0.010655 105 110 97
0.010359 0.021472 -0.011730 119 117 117
-0.057025 -0.004329 0.017595 60 71 57
-0.062526 -0.016167 0.027170 74 88 73
-0.055434 -0.030352 0.017120 106 117 96
0.025239 -0.005603 0.010420 24 37 43
-0.023343 0.010133 -0.004180 146 146 140
-0.012355 0.000642 0.009395 127 122 117
-0.024146 0.019341 -0.013480 103 107 96
0.018373 0.008798 -0.007130 78 88 95
0.006438 0.015771 -0.013780 157 157 157
-0.050033 0.012116 -0.006905 128 137 121
0.028413 0.005577 -0.014955 128 128 117
0.006795 -0.022573 0.009620 74 91 110
-0.037006 0.021520 -0.012305 97 106 90
-0.003383 -0.031968 0.013545 35 55 73
0.039807 -0.009984 -0.004855 78 86 74
-0.033516 0.024923 -0.009905 105 117 107
-0.002279 -0.003946 0.009945 47 94 147
0.006204 0.011126 -0.005955 159 159 159
-0.026556 -0.020071 0.008195 136 88 0
0.047075 0.030731 -0.005180 119 129 110
0.042528 0.008637 -0.020580 126 136 117
0.019285 0.009334 -0.008430 80 92 100
-0.006353 -0.026896 0.016970 59 59 14
-0.025326 -0.036095 0.014420 1 2 0
-0.011546 0.019592 -0.013280 95 102 98
0.007156 -0.004995 0.008770 56 98 138
0.018758 0.006415 -0.007630 72 80 87
-0.018768 0.002383 0.007120 135 134 131
-0.002862 -0.017280 0.026695 63 70 66
-0.022454 0.007940 -0.000405 151 154 146
-0.033785 -0.030135 0.013095 121 129 117
0.022128 -0.009394 0.000920 72 68 61
-0.036931 -0.020139 0.021895 105 56 0
-0.055486 0.005136 0.003445 128 129 114
0.040571 0.009027 -0.011130 81 91 79
-0.042130 0.013230 -0.009030 137 140 125
0.039289 -0.020981 -0.018155 72 84 65
-0.018803 0.013293 -0.009680 146 145 142
-0.023416 0.011655 -0.007080 145 145 139
0.026650 -0.006009 0.011170 20 34 37
-0.006507 0.008950 -0.001930 164 164 164
0.041813 0.004179 -0.023780 135 139 121
-0.014633 0.006838 0.001345 164 166 160
-0.038008 0.007569 -0.000605 129 136 127
-0.046470 -0.005431 0.019595 77 83 76
0.052315 0.026681 -0.008255 121 132 116
0.021325 -0.034070 0.015420 27 20 0
0.021459 0.026378 -0.008355 116 120 109
0.028439 -0.002087 0.005220 86 100 110
-0.061932 -0.002585 0.016295 111 120 104
0.040297 0.000608 -0.024080 84 91 82
-0.017177 -0.013530 0.028845 2 6 5
-0.018384 0.019831 -0.013130 98 99 96
-0.049414 -0.000517 0.012270 116 121 106
0.007099 -0.014036 0.028970 26 31 27
-0.019460 -0.008354 0.024220 0 3 6
0.016716 0.019698 -0.012855 121 123 117
0.039074 -0.026341 -0.002255 69 71 60
0.021009 0.027729 -0.007555 117 117 111
0.037575 0.004679 -0.009155 40 46 39
-0.001052 0.013985 -0.010955 159 157 157
0.016130 -0.020771 0.025170 79 83 82
-0.007656 0.012735 -0.009130 159 159 153
0.012924 0.029398 -0.006080 111 113 107
-0.076435 -0.014713 0.028620 96 110 100
0.039543 -0.013022 -0.020980 80 90 71
0.000159 0.011649 -0.006680 161 162 159
-0.046179 0.025682 -0.009680 78 92 87
0.029198 0.005479 -0.014955 127 128 120
-0.019102 -0.027371 0.020345 90 89 86
-0.024533 0.003335 0.004695 136 134 128
0.048642 0.018400 -0.013855 130 135 115
0.034498 0.013945 -0.010555 141 150 134
0.038473 -0.019203 0.025570 77 78 75
0.039368 -0.017459 -0.019530 79 89 77
-0.013428 0.027961 -0.007355 112 111 108
0.036073 0.015341 -0.012605 149 151 140
0.038463 0.014836 -0.012305 134 135 120
-0.043288 0.023294 -0.010955 96 107 93
0.024649 0.001946 -0.015055 167 161 149
0.037300 0.015062 -0.012180 142 144 133
-0.059983 -0.020569 0.023170 19 9 7
0.040543 0.006795 -0.016555 89 93 82
-0.000443 -0.018429 0.009395 25 26 23
0.029360 -0.034117 0.014045 22 12 0
-0.016141 0.018344 -0.014305 117 117 111
0.034351 -0.009523 0.000970 78 76 70
-0.075492 -0.010887 0.029820 88 105 99
-0.032455 -0.010162 0.026395 10 9 6
-0.073062 -0.018169 0.026345 8 13 9
0.010834 0.008062 -0.002055 129 133 132
-0.002021 0.018461 -0.014230 122 124 118
0.021575 0.022358 -0.010955 118 125 116
0.019422 -0.032117 0.015145 46 33 6
0.031224 -0.000164 0.002870 77 96 105
-0.020775 0.005553 -0.001855 136 137 134
-0.027062 -0.014355 0.023320 26 27 12
-0.019674 0.001313 0.009220 137 134 131
-0.050036 0.006124 0.001745 126 131 116
-0.034696 -0.012342 0.019545 16 22 15
-0.028596 0.021435 -0.012055 102 104 98
-0.033522 -0.024311 0.010295 144 146 135
0.039852 -0.000318 -0.008130 79 73 66
0.023931 -0.031449 0.015270 35 17 7
-0.054770 -0.011839 0.019145 82 85 70
0.015159 -0.019996 0.025595 85 91 90
-0.035504 -0.034978 0.014270 77 92 72
0.000515 -0.032363 0.014445 9 34 53
-0.036388 0.015429 -0.012405 136 143 123
-0.068136 -0.016608 0.026945 104 108 97
0.033417 0.003168 -0.015280 149 144 127
-0.048438 0.013912 -0.009780 123 134 118
0.018415 -0.019559 0.025770 67 75 68
0.039539 0.004712 -0.006330 38 44 37
0.040076 -0.005115 -0.021705 86 96 84
-0.012857 -0.019522 0.024820 45 56 55
-0.039245 0.011117 -0.006030 133 136 121
-0.001030 -0.012993 0.029070 55 61 60
0.016529 -0.035645 0.017870 31 24 1
0.005804 0.013296 -0.010005 158 159 156
-0.028876 0.023569 -0.010730 105 110 97
-0.029777 0.008517 -0.002230 135 142 133
0.003681 0.022597 -0.011030 118 119 116
-0.007498 0.004712 0.003970 77 89 91
0.006687 0.023876 -0.010230 117 117 117
0.046695 0.028269 -0.007255 119 128 114
-0.003961 -0.032208 0.013820 22 48 70
-0.040426 -0.000952 0.012845 116 121 108
-0.018645 0.018787 -0.013905 116 116 110
0.039848 -0.002968 -0.016680 81 92 78
0.023697 0.019939 -0.012705 118 125 116
0.011906 -0.034132 0.015395 21 29 22
0.040301 0.011296 -0.009555 95 106 92
0.039470 -0.017556 -0.012330 88 91 78
-0.055316 0.001721 0.008345 121 127 109
0.030525 -0.013944 0.007195 84 79 69
-0.038551 -0.026985 0.012370 23 86 97
0.031891 0.027603 -0.007605 115 119 108
-0.010097 0.004980 0.004520 135 142 138
0.009406 -0.021882 0.009545 88 109 118
0.025515 0.004554 -0.016230 131 127 115
0.028886 -0.024077 0.013345 99 78 28
-0.011479 -0.029369 0.018370 1 5 5
-0.034056 -0.023185 0.010620 104 114 66
-0.011543 0.012275 -0.007780 154 155 152
0.039195 -0.018676 -0.018480 80 89 73
-0.027132 0.013727 -0.010280 136 143 134
0.026020 -0.018974 -0.003155 49 47 47
0.039413 -0.016519 -0.003280 74 76 65
-0.068723 -0.005556 0.021220 42 73 80
0.039994 0.000559 -0.019555 93 98 85
-0.002481 0.007979 -0.000705 148 155 151
-0.014645 0.016126 -0.013755 154 153 145
0.032697 -0.013169 0.007245 100 97 87
0.034588 0.013052 -0.009155 139 143 132
0.039553 -0.009837 -0.018505 79 90 76
-0.018852 0.010585 -0.004755 146 147 144
0.046228 0.017440 -0.014580 130 136 118
-0.043291 0.017844 -0.014755 112 122 110
0.039322 -0.017080 -0.018980 79 89 77
0.007264 0.000198 0.005770 24 63 119
0.007878 -0.015462 0.028245 51 55 54
-0.041401 0.016054 -0.012855 132 141 125
0.037268 0.012061 -0.007755 128 133 120
0.016715 0.004554 0.002695 119 120 117
-0.038785 0.009019 -0.003205 141 139 127
0.018462 0.009994 -0.007230 79 90 94
-0.017121 0.002579 0.007345 140 139 136
0.039106 -0.021869 -0.011355 72 84 65
0.023519 -0.002137 0.004945 80 101 110
-0.064745 -0.022441 0.023270 19 23 22
-0.044337 0.013573 -0.009580 131 139 116
-0.028356 0.005717 0.002320 86 91 87
0.005084 0.005120 -0.002505 135 144 143
0.038143 0.014800 -0.011930 125 137 118
0.038387 -0.017209 0.019720 105 106 93
0.026782 0.011065 -0.007905 91 99 101
-0.026720 0.015547 -0.012855 139 142 129
0.014391 0.028973 -0.006655 111 113 107
-0.032898 0.021095 -0.012555 98 99 91
-0.019479 -0.000521 0.012370 133 132 129
0.039535 -0.006290 -0.000855 55 61 54
-0.030667 0.009817 -0.004505 138 139 131
0.040359 0.008437 -0.015355 90 98 86
0.039318 -0.020013 -0.014305 80 83 75
-0.052659 -0.003722 0.017220 109 112 97
0.031222 0.022198 -0.011155 123 123 117
-0.034757 0.026015 -0.009955 90 95 82
0.039781 -0.015177 -0.003355 72 83 69
0.003727 0.027217 -0.007780 114 120 113
0.019737 0.017122 -0.014905 121 128 119
0.024392 -0.028287 0.013845 84 89 85
0.011514 -0.028726 0.011995 4 7 42
0.036289 0.014038 -0.010305 135 140 125
0.049675 0.032631 -0.003755 124 129 114
-0.035074 -0.016699 0.006945 39 52 44
0.020054 -0.025317 0.015495 93 88 83
-0.009781 0.004675 0.004970 127 134 130
0.010573 0.012043 -0.008305 151 157 150
-0.064056 -0.014655 0.028245 55 76 44
-0.018273 0.027124 -0.008380 44 39 34
0.038716 -0.025113 0.020870 50 61 53
-0.072570 -0.013216 0.029495 17 15 16
0.040694 0.006170 -0.019755 97 106 92
-0.038669 0.012914 -0.008630 129 138 124
-0.050240 0.010446 -0.005005 124 128 117
0.039287 -0.020438 -0.020130 74 88 71
-0.060298 -0.026398 0.019820 82 84 94
0.029698 -0.007309 -0.000780 122 123 110
-0.011570 -0.029114 0.018495 0 6 6
-0.027680 -0.009399 0.016095 30 32 26
0.036657 -0.024048 0.019670 102 100 88
-0.011841 0.022227 -0.011605 116 118 112
0.036268 -0.019749 0.008770 37 47 42
-0.063452 -0.024006 0.021845 89 100 86
-0.039968 0.006951 0.000070 131 136 123
0.015175 0.005563 0.001520 112 116 116
-0.040243 -0.027678 0.012595 0 84 96
-0.041296 0.020680 -0.012780 91 102 88
-0.003243 0.030564 -0.005480 118 115 112
0.039596 -0.007676 -0.027430 84 90 72
0.039631 -0.009697 -0.009930 83 92 78
0.033446 0.032277 -0.004230 111 116 103
0.005731 0.013643 -0.010480 158 159 156
0.026877 -0.028419 0.015370 82 91 89
0.039598 -0.017070 0.001295 70 75 71
-0.057154 -0.026587 0.018920 98 94 94
-0.019509 -0.035377 0.012795 99 105 98
0.005976 -0.027261 0.017220 55 56 64
-0.003509 0.017248 -0.014780 125 125 125
0.011434 0.019366 -0.013380 123 123 117
0.039899 -0.007248 -0.021055 86 95 81
0.024201 0.014815 -0.011555 157 159 153
-0.042563 0.009369 -0.003155 133 138 125
-0.026782 -0.003321 0.012970 147 147 136
0.044110 0.012160 -0.018430 129 136 116
-0.056223 -0.022779 0.017595 65 70 45
-0.026218 -0.031070 0.017745 29 34 30
0.037750 -0.005383 0.010220 16 36 36
0.033595 0.011128 -0.007830 82 91 89
-0.000525 0.017974 -0.014405 127 125 125
0.008535 -0.019503 0.025495 53 62 61
0.012345 -0.014782 0.028545 40 49 48
0.039853 -0.016636 -0.006030 80 86 79
0.014730 -0.004731 0.018120 100 100 101
0.039311 -0.013693 -0.024030 77 88 72
0.007132 -0.034383 0.015495 0 0 0
0.024889 0.031934 -0.004680 114 116 105
0.016953 0.003480 -0.014130 112 115 107
-0.020708 0.026097 -0.011130 45 40 35
0.045664 0.017831 -0.014380 128 136 113
-0.031537 0.027108 -0.011055 0 0 0
0.009527 -0.034498 0.015045 2 3 0
0.035608 -0.012220 0.005095 92 95 80
-0.033615 -0.010105 0.015445 15 23 16
0.033283 0.014929 -0.011780 147 150 135
0.039398 -0.023120 -0.015505 74 79 64
0.007872 -0.006752 0.020220 66 63 67
0.022568 0.004639 -0.015130 37 46 50
0.039804 -0.007725 -0.021930 84 93 79
-0.041097 -0.028644 0.012795 4 74 105
0.020813 0.015161 -0.012480 154 156 150
0.038585 -0.028787 0.012595 55 63 51
0.027693 -0.028398 0.013320 79 81 75
-0.007944 -0.034460 0.014945 1 2 0
-0.013520 0.024160 -0.010330 108 115 106
-0.000696 0.027814 -0.007305 114 119 115
0.010713 -0.023395 0.009920 12 22 42
-0.000018 0.031557 -0.004780 116 112 105
0.035469 0.018474 -0.013755 116 118 107
0.004260 0.010984 -0.005730 160 161 158
-0.037067 0.016356 -0.013605 139 143 125
0.017505 0.007634 -0.001430 89 87 93
0.004860 0.016033 -0.014705 154 158 157
-0.006368 0.011114 -0.006055 162 159 156
0.025450 0.005918 -0.015005 110 109 106
-0.073052 -0.017870 0.026445 6 6 6
-0.003068 0.008737 -0.001655 162 168 167
0.048336 0.025204 -0.009005 126 132 114
-0.044432 0.018242 -0.014530 95 105 93
0.023790 -0.031037 0.002220 25 20 3
0.024564 0.028263 -0.006955 113 120 111
-0.060731 0.002515 0.008995 114 126 107
-0.005600 0.018225 -0.014180 119 119 119
-0.046730 0.015822 -0.012480 127 131 113
0.015345 -0.000761 0.011320 105 109 109
-0.058055 -0.029462 0.017970 63 64 56
-0.060689 -0.027774 0.020695 62 65 73
-0.008780 0.014980 -0.012355 156 154 154
0.029809 0.025487 -0.008955 116 120 109
-0.008147 -0.028417 0.018145 8 9 6
-0.031242 0.006405 0.001220 132 137 133
-0.019292 -0.025459 0.021595 91 93 82
0.029453 0.022727 -0.010755 119 125 118
-0.003690 -0.018611 0.009895 0 48 39
-0.038313 -0.019868 0.023495 77 46 11
-0.010329 0.016393 -0.014630 156 155 147
-0.031612 0.013520 -0.009580 136 141 126
-0.017378 -0.030798 0.017370 107 111 100
0.028168 0.018588 -0.013905 116 124 117
-0.022175 0.013497 -0.009730 147 148 140
0.029902 0.008503 -0.008705 79 90 89
0.027599 0.028110 -0.007080 110 120 108
0.016453 -0.000044 0.010045 84 84 84
-0.071594 -0.011220 0.029870 9 15 22
-0.002823 -0.021290 0.011170 140 109 28
0.023564 -0.018809 0.008445 31 31 25
-0.008126 -0.030745 0.014670 0 0 0
0.016403 -0.000324 -0.009430 126 124 118
-0.055005 -0.002820 0.015295 110 115 102
0.029963 -0.005156 0.009920 18 34 37
-0.021811 0.011037 -0.005755 145 149 138
-0.014814 0.032189 -0.004605 110 111 103
-0.007168 -0.001318 0.006670 48 90 145
-0.033660 -0.027323 0.011695 133 141 129
-0.000526 0.029769 -0.006130 117 117 111
0.014051 0.009973 -0.005230 123 123 124
0.017687 -0.006412 -0.002955 128 130 119
0.026274 0.013913 -0.010430 155 159 148
-0.009395 0.007618 0.000170 153 161 154
0.020798 0.015318 -0.012730 156 156 150
0.016506 0.014548 -0.011605 153 154 151
-0.037281 -0.008132 0.012470 25 37 27
-0.008652 0.006899 0.001345 146 151 147
0.039572 -0.009138 0.005420 101 101 90
0.015462 0.025827 -0.008730 115 116 113
-0.023536 0.016664 -0.014280 143 146 138
0.021445 0.002580 -0.015980 139 139 128
0.034651 -0.000187 0.001595 72 91 93
0.039976 -0.000840 -0.021580 82 93 77
0.020110 0.027903 -0.007205 118 118 112
-0.010582 0.029213 -0.006755 110 111 103
-0.031169 -0.019331 0.019895 41 51 46
-0.018841 -0.002634 0.014470 140 140 134
0.010689 -0.015913 0.028045 50 56 56
0.025317 0.001444 -0.014230 155 152 142
-0.020804 0.012013 -0.007705 144 147 139
0.035856 0.007742 -0.008830 73 84 83
-0.021172 0.016585 -0.014655 146 147 139
0.023798 0.016307 -0.014330 155 156 148
-0.071799 -0.019190 0.025895 99 102 110
-0.061827 -0.006458 0.022045 11 8 12
0.040178 0.007819 -0.005480 69 80 66
0.006765 -0.009705 0.026570 63 68 71
0.029534 -0.008051 -0.000555 93 90 87
0.002364 0.011115 -0.006530 163 162 159
0.016190 0.005265 0.001745 118 122 121
0.044969 0.023732 -0.010005 121 131 112
-0.017574 -0.025753 0.022120 58 61 53
-0.004985 -0.002521 0.008495 53 98 151
0.040754 0.009719 -0.018205 88 102 87
-0.021971 0.019429 -0.013530 100 106 99
0.033564 0.012995 -0.009180 146 148 137
0.017456 0.002190 -0.014780 118 116 110
0.030118 0.029805 -0.006030 117 120 107
-0.031617 -0.023205 0.009720 141 120 49
-0.050851 0.003029 0.006220 118 128 109
0.039725 -0.001124 -0.016305 88 93 80
0.008013 0.017215 -0.014705 125 125 125
0.039525 -0.014755 -0.016405 84 89 76
0.028727 0.002583 -0.015155 147 143 131
0.009037 0.031821 -0.004680 113 111 105
0.028874 0.008943 -0.008580 79 92 91
-0.057589 -0.008403 0.016845 50 65 32
0.039671 -0.006812 0.002295 118 118 107
0.026109 -0.013069 0.007045 73 71 65
0.015719 -0.027530 0.020120 55 61 60
0.011748 -0.025770 0.010870 8 20 62
-0.037398 -0.026348 0.012095 17 31 55
-0.029345 -0.000782 0.009945 142 139 129
0.015329 -0.030715 0.018220 39 50 49
-0.069634 -0.028408 0.019320 99 114 101
0.035286 -0.000089 -0.012980 131 128 111
-0.046988 0.005531 0.002295 123 132 116
0.029006 0.014557 -0.011255 156 159 146
-0.036735 0.015612 -0.012780 138 141 128
-0.032938 -0.016083 0.027145 21 23 5
0.039413 -0.010699 -0.025055 86 89 74
-0.027548 -0.020915 0.008395 155 134 91
-0.026495 -0.016984 0.025495 16 21 6
-0.040047 0.002965 0.006320 126 128 117
0.040407 0.009591 -0.015955 89 100 86
-0.046582 0.014351 -0.010630 123 132 116
0.039263 -0.016099 -0.003105 74 75 67
-0.048508 0.004776 0.004020 124 128 117
-0.051033 0.007958 -0.001005 120 131 115
0.038146 -0.022471 0.022745 47 45 39
-0.021519 0.012785 -0.009155 145 146 138
0.018210 0.003652 -0.015555 130 129 121
-0.062731 -0.016590 0.026845 83 88 73
-0.009783 0.016866 -0.015180 154 156 150
0.014052 0.027326 -0.007780 109 115 108
-0.007353 0.023367 -0.010530 119 118 115
-0.019673 -0.009165 0.025245 74 79 75
0.040360 0.002433 -0.019630 93 99 81
-0.038168 -0.018210 0.005620 38 75 63
0.039516 -0.011730 -0.015730 80 88 76
-0.001160 0.002190 0.005870 0 25 97
-0.068915 -0.016741 0.026795 104 112 100
0.040193 0.011505 -0.008730 106 112 105
0.039325 -0.025240 -0.004680 72 79 59
0.038632 -0.017727 0.020845 63 60 57
-0.037051 -0.003339 0.015645 112 115 107
-0.020539 0.008458 -0.001455 151 154 146
-0.064771 -0.024200 0.021420 95 104 90
-0.017163 0.014038 -0.010630 153 151 145
0.015849 -0.016526 0.027395 88 93 89
-0.003030 0.012764 -0.008930 158 158 158
0.006136 0.005882 0.001820 107 113 112
-0.030103 -0.017782 0.025970 0 0 0
-0.029061 -0.021835 0.008370 153 133 72
-0.001514 0.015555 -0.013605 159 158 155
0.001589 0.013484 -0.010155 158 158 158
-0.048127 0.011584 -0.006305 123 132 116
-0.007379 -0.031616 0.016370 62 69 65
-0.008649 0.015101 -0.012530 156 154 154
0.040282 0.004576 -0.017005 80 94 79
0.016713 0.016947 -0.014805 131 129 129
0.034765 -0.027754 0.018870 90 73 26
-0.034507 -0.011667 0.020045 0 1 0
-0.061820 -0.028404 0.018820 84 93 79
0.001737 0.002126 0.005720 9 30 100
0.039020 0.020218 -0.012605 121 126 113
-0.015998 0.032236 -0.004630 111 108 105
0.039954 -0.008670 -0.003355 76 87 71
-0.051552 -0.017106 0.026170 0 2 1
0.039984 -0.002417 -0.014355 83 93 81
-0.021470 -0.030071 0.018045 28 30 40
0.039741 -0.008208 0.002595 50 53 45
-0.008237 -0.015301 0.011970 101 105 105
-0.012688 0.009383 -0.003005 155 156 153
0.010766 0.026168 -0.008505 109 115 114
-0.035908 -0.019151 0.006320 7 10 33
-0.045897 0.014244 -0.010330 132 137 124
0.004047 -0.018863 0.025445 50 55 51
0.009041 0.020212 -0.012630 121 121 121
-0.022696 0.022747 -0.011230 113 111 99
0.029775 -0.028079 0.014520 107 110 102
0.026531 0.015099 -0.011980 157 158 150
-0.043036 0.023965 -0.010455 100 105 92
0.007819 -0.013593 0.028720 0 4 3
0.007702 0.003523 0.004470 22 52 109
-0.036024 0.005780 0.002345 135 137 126
0.042659 0.017533 -0.014605 124 130 112
0.034290 -0.008911 0.000495 122 120 108
0.032550 0.006861 -0.010080 71 83 85
0.039183 -0.033337 0.011995 51 58 49
0.034440 -0.002621 0.004520 67 88 90
-0.022142 0.020102 -0.013055 103 105 99
0.005035 0.027632 -0.007680 111 117 110
-0.042750 0.010993 -0.005655 134 138 120
-0.019347 -0.000877 0.012695 136 133 130
0.046731 0.027843 -0.007380 121 131 112
-0.038003 0.002317 0.007370 127 129 118
-0.018974 0.008885 -0.002005 150 156 149
-0.003180 0.003196 0.003420 7 20 94
-0.024233 -0.030615 0.017695 83 93 81
-0.039696 0.022727 -0.011480 91 99 92
0.035251 0.024229 -0.009930 119 121 110
0.006567 -0.020270 0.008995 14 15 23
0.013353 0.011411 -0.007730 155 153 154
0.031468 0.003021 -0.015380 148 146 132
-0.065110 -0.034104 0.015895 104 117 104
-0.001518 0.009117 -0.002030 166 173 169
0.044819 0.021970 -0.011230 118 130 111
0.022501 -0.011319 0.003845 115 112 102
-0.047088 0.002250 0.008420 125 127 116
0.034853 0.012980 -0.009280 135 142 133
0.040316 0.004510 -0.012930 74 86 76
0.022733 0.009226 -0.008430 89 97 104
0.020822 0.031293 -0.004880 114 117 104
0.019556 0.005327 -0.004730 51 62 66
-0.023217 0.013186 -0.009330 143 147 136
-0.027745 -0.020071 0.008195 137 86 4
0.026559 0.016568 -0.014505 152 155 147
0.037034 -0.029587 0.018595 85 80 70
-0.012097 0.021746 -0.011855 111 117 110
-0.021694 0.005969 -0.001730 128 128 122
0.045194 0.011548 -0.018480 132 135 120
-0.004990 0.012235 -0.008080 158 158 158
0.022959 0.001613 -0.015930 168 163 153
-0.022719 0.021739 -0.011880 106 107 99
-0.017112 0.009007 -0.001955 152 154 148
0.006130 -0.029747 0.017495 51 49 55
0.039554 -0.014163 -0.005380 80 84 73
-0.009391 -0.028923 0.018120 3 3 3
0.025493 0.001289 -0.013855 151 147 140
0.015623 0.014120 -0.011080 154 159 155
-0.045213 0.007361 -0.000105 128 136 124
0.039529 -0.013266 -0.015180 80 89 75
0.025922 0.027021 -0.007880 115 119 108
0.018292 0.006213 -0.005105 75 85 87
0.016346 -0.006552 0.000470 115 116 113
0.028546 0.010351 -0.007980 85 97 99
-0.022922 0.022382 -0.011605 102 109 100
0.007396 0.019932 -0.012930 122 123 120
-0.019832 0.015780 -0.013480 153 153 142
0.016046 -0.005564 -0.000980 93 92 89
-0.042817 0.025641 -0.009805 90 92 81
0.040039 -0.003292 -0.026955 84 92 80
-0.032463 0.010811 -0.005780 135 137 126
0.001376 -0.019510 0.025145 59 66 70
-0.068656 -0.030850 0.017745 114 116 110
0.011993 0.009057 -0.004105 25 35 76
-0.028038 -0.030077 0.011920 86 91 87
0.006374 0.014551 -0.012180 159 160 157
0.015046 0.014891 -0.012280 158 159 156
0.026105 0.020736 -0.012180 119 121 115
0.040330 -0.000095 -0.025430 97 98 83
0.017792 -0.018813 0.026395 3 3 3
-0.072493 -0.020619 0.025195 8 17 21
0.019871 -0.032731 0.015270 30 27 10
0.007713 0.001368 0.004645 13 44 104
0.039041 -0.025201 -0.012855 59 75 60
0.005347 0.018815 -0.013580 116 121 117
-0.061891 0.003699 0.007920 112 124 100
-0.017327 0.014480 -0.011705 140 146 139
-0.040526 -0.014049 0.021395 24 21 18
0.010184 0.019127 -0.013330 99 103 102
0.039598 -0.013063 -0.010705 81 86 73
0.031646 -0.032616 0.015345 56 31 6
-0.009707 -0.026334 0.020120 73 79 72
-0.045200 -0.006685 0.015495 8 13 9
0.018944 0.011930 -0.008755 127 121 114
-0.038899 -0.034424 0.014295 0 5 0
-0.020634 0.008408 -0.001330 156 153 150
-0.042276 0.011829 -0.007005 135 136 123
0.006842 -0.020648 0.009170 40 98 110
0.040546 0.008443 -0.020730 96 101 86
-0.064759 -0.001258 0.013570 101 120 109
-0.008227 -0.014312 0.009570 0 3 5
-0.044850 -0.013834 0.023945 31 35 24
-0.032089 -0.010462 0.026245 22 28 28
0.010359 -0.017059 0.026795 53 53 53
0.030905 -0.030318 0.001020 4 5 2
-0.037647 0.020882 -0.012780 100 103 90
0.020196 -0.021788 0.012045 103 90 50
-0.026301 0.021118 -0.012280 102 106 95
-0.067995 -0.011925 0.029620 53 69 54
-0.039307 0.005008 0.003370 130 132 121
-0.045182 -0.035125 0.013745 64 73 57
0.022475 0.027217 -0.007780 115 117 111
0.026838 0.002971 -0.015505 151 149 135
0.008151 0.018860 -0.013605 120 120 114
-0.028197 0.011652 -0.006655 141 143 132
-0.023402 0.026305 -0.011280 30 31 28
-0.076059 -0.011035 0.029695 107 118 104
-0.062458 -0.033982 0.014620 100 104 93
0.024167 -0.025904 0.014095 93 100 91
0.034421 0.009627 -0.008180 77 83 82
0.016669 0.016805 -0.014780 147 148 145
0.029508 -0.003545 0.007945 63 81 86
-0.064934 -0.020659 0.024295 17 18 15
-0.013824 -0.015938 0.023995 5 10 6
0.041782 0.012428 -0.018205 124 130 112
-0.035210 0.005347 0.002320 134 137 124
0.048748 0.021746 -0.011480 126 135 119
0.033221 0.003901 -0.015280 124 121 111
-0.050056 -0.003977 0.017795 104 110 92
-0.006262 -0.017881 0.014420 104 98 62
-0.000042 0.016155 -0.014105 159 158 155
-0.010532 0.016497 -0.014605 153 155 149
-0.023589 0.000134 0.011020 131 133 122
0.034077 0.031012 -0.005330 113 116 101
0.039274 -0.013645 -0.024355 80 94 79
0.002073 0.003512 0.003670 8 18 100
-0.030957 0.008614 -0.002480 136 139 131
-0.023673 0.021064 -0.012480 98 105 96
0.037909 0.013035 -0.008905 127 136 122
0.040381 0.005297 -0.009705 60 69 67
0.023548 0.007932 -0.009155 88 99 98
0.004214 0.031049 -0.005230 118 119 111
0.003721 0.016888 -0.015080 144 148 147
0.015724 0.014802 -0.012205 158 160 154
0.028542 -0.013030 0.006445 70 65 60
-0.028832 -0.031310 0.013070 85 93 86
-0.012028 0.016362 -0.014305 152 155 147
-0.046356 0.012671 -0.008055 131 136 121
-0.040741 -0.018441 0.025295 37 42 38
-0.030082 -0.015470 0.022620 20 21 6
0.043602 0.020952 -0.012330 119 126 117
0.040303 0.008875 -0.017780 88 100 81
0.039443 -0.013836 -0.011205 83 86 73
-0.015890 0.017477 -0.014855 131 139 132
-0.008204 0.007592 0.000720 150 154 153
-0.011670 0.008930 -0.002880 152 158 151
-0.031377 0.022199 -0.011705 98 103 90
0.012822 0.019134 -0.013505 122 122 122
0.023493 -0.020145 0.009295 72 47 9
-0.063192 -0.014844 0.028420 55 72 32
-0.002573 0.018429 -0.014155 124 126 120
-0.023622 0.021014 -0.012480 100 109 100
-0.014683 0.015036 -0.012605 151 153 147
-0.001036 0.025515 -0.009205 119 120 117
0.039184 -0.016116 -0.011405 81 88 79
