ply
format ascii 1.0
element vertex 1217
property float x
property float y
property float z
property uchar red
property uchar green
property uchar blue
end_header
-0.035622 -0.014147 0.017148 110 115 103
0.002594 0.003035 -0.068077 101 107 107
-0.039434 -0.006508 0.014323 113 118 106
0.002547 0.003007 -0.068077 15 19 14
-0.033996 0.022576 -0.016652 88 104 93
0.003424 0.001154 0.014898 138 130 127
0.020442 -0.021397 0.003548 145 146 135
-0.047546 -0.019971 0.015148 102 116 105
0.010442 0.020057 -0.018277 109 112 113
0.009901 0.020207 -0.018477 108 114 116
0.016870 0.002684 0.012798 128 126 118
0.001003 0.020575 -0.018052 107 111 104
-0.041401 -0.008737 0.021673 115 116 110
0.021280 0.016097 -0.014102 131 137 135
0.017023 -0.022141 0.003273 145 143 133
0.019274 0.018205 -0.016627 131 139 138
0.002589 0.003035 -0.068077 105 107 113
0.016323 0.014638 0.018323 21 21 17
0.036784 0.009022 -0.003777 149 158 140
-0.008414 0.021976 -0.018802 99 107 108
0.008019 -0.020841 0.005398 146 140 127
-0.040790 0.012411 -0.005402 12 21 14
0.034152 -0.014639 0.006523 105 101 92
-0.002268 0.017769 -0.013927 112 112 108
-0.007427 -0.005617 0.018748 156 145 136
0.009944 0.000093 0.015673 136 131 129
0.021741 -0.013422 0.008773 150 143 135
0.006244 -0.024159 0.003348 141 139 129
-0.001854 -0.025648 0.003798 138 137 122
-0.027564 0.004613 0.021048 27 28 17
0.034061 0.007856 -0.001652 153 155 142
0.036579 -0.011888 -0.002902 42 31 8
-0.028407 0.019608 -0.013102 81 95 97
0.002664 0.003033 -0.068077 145 160 142
-0.024999 0.020662 -0.015377 95 106 104
0.017688 -0.003533 0.015698 169 154 144
-0.021223 0.017699 -0.011277 83 98 97
0.011932 0.011830 0.018748 21 18 15
-0.027943 -0.025866 0.007698 114 122 111
0.002623 0.003034 -0.068077 119 127 126
0.041896 -0.022068 -0.000327 60 62 46
0.050346 -0.000349 0.010198 109 119 107
-0.000436 -0.015307 0.010823 145 136 127
-0.037004 -0.018319 0.014423 110 115 103
0.002625 0.003013 -0.068077 31 30 32
0.037156 -0.018014 0.003123 107 115 100
-0.011402 -0.012808 0.014398 141 137 126
-0.016505 0.011340 -0.004802 0 0 0
-0.040051 -0.024352 0.010873 110 118 105
-0.020084 0.016186 -0.009477 84 91 95
0.002660 0.003030 -0.068077 141 157 146
0.020808 -0.015916 0.007473 142 140 128
0.053833 0.000690 0.008123 103 113 99
0.038631 0.002028 0.004198 78 58 22
0.022105 0.015881 -0.013677 126 134 131
-0.030592 0.003971 0.022173 26 26 20
0.008167 0.002250 0.014823 43 36 30
-0.011333 0.015786 -0.009927 111 111 107
0.000422 0.016420 -0.012602 102 101 103
0.036914 -0.014186 0.006223 98 101 85
-0.003731 0.017859 0.023323 16 16 12
0.002665 0.003034 -0.068077 152 161 152
-0.000886 0.021090 -0.018352 108 108 108
-0.008925 0.015643 -0.009802 118 115 112
0.009335 -0.016341 0.008723 151 141 127
-0.024928 0.021984 -0.017227 93 110 111
0.000516 0.017684 0.022248 12 12 8
-0.036882 -0.019998 0.013298 106 114 101
-0.017968 -0.014216 0.014773 129 125 116
-0.006283 0.012667 -0.005827 118 117 119
0.039110 0.011180 -0.008027 150 155 145
0.030307 0.016507 -0.016477 150 160 148
0.013855 -0.010190 0.012448 152 141 132
0.038169 0.006888 -0.000702 148 156 143
-0.022035 -0.015233 0.014148 125 126 113
0.018882 0.003626 0.011898 93 90 87
0.026517 0.014517 0.016498 24 25 21
0.026244 -0.022830 0.001598 137 139 128
-0.040206 -0.026143 0.009473 103 116 101
-0.034379 -0.003537 0.020773 89 100 81
0.030893 0.014864 -0.014127 153 163 151
0.034931 -0.010391 0.009173 99 100 89
0.049673 -0.001717 0.010998 117 126 106
0.030346 0.002352 0.009823 126 132 132
-0.026068 0.016987 -0.009902 77 84 90
0.034104 0.008470 -0.002477 152 157 145
0.003074 -0.004188 0.017648 169 154 142
-0.055426 -0.023325 0.014373 103 116 103
-0.006052 0.014991 -0.009852 122 121 121
-0.005987 0.016962 -0.012227 117 117 117
0.002645 0.003035 -0.068077 129 144 143
0.002620 0.003018 -0.068077 25 24 24
0.002560 0.003007 -0.068077 90 79 56
-0.013071 0.009087 0.001848 104 103 103
0.018886 0.016714 0.019848 17 17 13
-0.041049 -0.021555 0.012723 110 118 107
0.035444 0.013844 -0.012452 147 161 150
0.002572 0.003005 -0.068077 4 5 1
0.005986 0.022869 0.023248 17 16 16
-0.050790 -0.028389 0.010398 102 112 96
0.010387 0.015791 0.019273 18 19 10
-0.003201 -0.010206 0.014773 153 139 131
-0.002459 -0.010841 0.014573 146 135 126
-0.021438 -0.007869 0.019448 139 133 120
0.002634 0.003035 -0.068077 119 136 137
-0.016851 0.001863 0.016523 116 115 115
-0.040946 0.009953 -0.005177 64 80 59
-0.002824 0.015227 -0.010552 113 113 109
0.035360 0.004094 0.000773 48 39 34
0.017903 -0.019981 0.004723 149 145 134
-0.019231 0.015095 -0.008277 79 83 78
-0.034654 0.017638 -0.010027 70 88 84
0.002144 -0.008887 0.015323 155 141 133
-0.039511 -0.025188 0.010298 107 120 105
0.024415 0.017329 0.018498 24 24 18
0.033235 -0.015052 0.006423 115 117 101
0.050528 0.002436 0.006373 106 114 99
0.003681 -0.024483 0.003648 144 141 127
-0.019301 0.015217 -0.008327 84 88 83
-0.003110 0.020479 0.021973 18 17 19
0.008047 -0.019564 0.006523 148 141 131
0.032629 0.018421 -0.019177 150 164 144
0.039741 0.002670 0.002973 68 52 31
0.037155 -0.022005 -0.003077 127 137 121
-0.014314 0.001110 0.016873 124 124 120
0.013870 0.004862 0.017498 22 19 16
0.012773 -0.022510 0.003573 143 140 124
-0.032147 0.014544 -0.008177 17 20 21
0.029919 0.013429 -0.011377 154 162 149
0.053309 -0.007030 0.008598 110 116 99
0.002628 0.003031 -0.068077 125 136 134
0.002548 0.002992 -0.068077 8 10 1
0.023481 0.001555 0.012898 136 133 130
-0.060290 0.000454 0.022523 97 109 83
0.020207 0.019669 -0.018777 127 140 139
0.002525 0.003007 -0.068077 11 20 13
0.020650 0.019147 -0.018152 129 140 140
-0.029649 -0.018815 0.012673 115 120 106
0.002541 0.003010 -0.068077 19 26 18
0.032878 -0.005084 0.012773 116 107 98
0.009009 -0.010249 0.013173 145 138 128
0.049569 -0.010946 0.006673 122 130 115
-0.004693 0.017928 -0.013927 114 114 114
-0.007229 0.016257 -0.011202 115 115 115
0.033275 -0.018258 0.003948 108 113 101
0.032484 -0.013903 0.007148 115 120 106
-0.007265 -0.017895 0.009898 143 136 126
0.003070 -0.020037 0.006998 146 139 129
-0.016539 -0.026604 0.005523 128 134 117
0.031651 0.010502 -0.005977 155 160 148
-0.038214 -0.018440 0.014423 101 109 98
0.047860 -0.017801 0.002223 126 133 125
0.008227 0.020818 -0.019102 112 115 116
0.002509 -0.005343 0.017248 163 145 136
0.014198 0.018998 0.019998 17 18 14
-0.023182 -0.007799 0.019923 138 131 121
-0.016983 -0.012528 0.015498 139 132 122
-0.029097 0.021245 -0.015702 87 101 103
-0.020182 0.019214 -0.013477 92 99 103
0.027265 0.009131 -0.002102 132 133 127
0.041415 0.006630 -0.000902 145 155 143
-0.059732 0.004567 0.035273 33 47 38
-0.003069 -0.004878 0.018323 140 125 115
-0.034707 0.019152 -0.011877 83 94 94
0.025434 0.010694 -0.005152 126 133 127
0.035033 -0.012243 0.007948 104 103 88
0.044727 -0.013565 0.005398 124 135 116
0.010541 -0.015284 0.009498 147 138 129
-0.017888 -0.005269 0.020473 131 125 110
0.044446 -0.013150 0.005473 104 113 93
-0.013547 0.021491 -0.017452 96 104 105
-0.011225 0.011042 -0.002302 111 112 106
0.017823 -0.018058 0.006423 148 142 129
0.010371 -0.015833 0.008948 149 142 136
0.027100 -0.019919 0.003198 137 138 125
-0.044212 -0.024152 0.011648 107 112 102
0.007381 -0.006144 0.015973 160 147 136
-0.010372 0.017880 -0.012927 108 109 105
-0.022657 -0.002207 0.019223 42 42 36
-0.038714 -0.003078 0.021698 57 62 50
-0.006007 -0.011013 0.014873 144 136 122
0.017656 0.008217 0.017973 26 24 16
-0.003594 0.015709 -0.010852 116 115 115
-0.064633 -0.006131 0.027473 107 117 103
-0.053665 0.003268 0.031248 33 42 33
-0.031387 -0.006336 0.021998 127 125 113
0.038280 -0.016695 0.003073 103 108 94
0.050689 -0.016542 0.002898 121 134 121
-0.023718 0.018965 -0.012952 87 98 96
0.050649 -0.015775 0.003148 130 135 125
0.043581 0.001096 0.005373 69 53 32
-0.027751 -0.009887 0.018773 124 126 110
-0.029514 0.018596 -0.011652 77 95 91
0.028398 0.015990 -0.015502 150 159 150
-0.017408 0.021907 -0.017927 89 103 94
0.032809 -0.017200 -0.004102 95 101 84
0.006737 -0.023985 0.003723 140 139 124
-0.041397 0.008733 0.005198 24 35 33
-0.032590 -0.025833 0.008498 117 122 112
-0.033393 0.021585 -0.015827 96 100 95
0.013403 -0.019593 0.005723 147 144 130
-0.049322 -0.018826 0.016148 104 117 104
-0.040922 -0.020557 0.013373 106 116 104
0.017236 0.016576 -0.014402 128 132 127
-0.015879 0.013660 -0.006427 89 95 93
0.051158 -0.009247 0.007698 101 109 94
-0.041335 0.013000 -0.003377 31 36 26
0.011339 0.000849 0.014923 137 133 126
-0.025437 -0.000055 0.018123 42 40 32
0.044890 -0.009729 0.007923 133 142 124
0.012070 0.017835 -0.015527 116 119 122
0.027673 0.010762 -0.004977 132 139 133
0.002572 0.003004 -0.068077 1 4 3
-0.015181 -0.023787 0.007323 132 135 119
-0.027005 -0.026151 0.007573 113 121 108
0.009512 0.015346 0.008198 16 13 10
-0.023707 -0.015123 0.014473 128 126 116
-0.039006 -0.009727 0.020773 110 113 97
0.025770 0.012295 -0.007652 126 133 127
0.024391 0.008448 -0.000352 131 130 130
0.023769 -0.022867 0.001698 142 144 135
-0.038154 -0.006672 0.016823 71 76 62
-0.049789 -0.000713 0.025123 41 39 27
0.010172 -0.008719 0.014148 157 144 133
-0.011880 -0.018669 0.010423 138 136 126
-0.022717 0.019409 -0.013627 88 101 98
0.032475 -0.011232 0.009123 129 126 121
0.017375 0.014020 -0.013002 27 30 29
0.027610 -0.018330 0.004373 140 142 133
0.032474 0.004124 0.002673 143 142 127
-0.025142 -0.012000 0.017023 128 124 113
0.002550 0.002991 -0.068077 7 14 6
0.028150 -0.018603 0.004398 137 142 130
0.038151 -0.021371 0.000798 123 133 121
-0.004739 -0.020240 0.008023 142 135 127
0.014056 0.016628 -0.014352 118 117 117
-0.037174 -0.021162 0.012798 112 117 103
0.034541 0.000471 0.007973 67 50 21
0.002623 0.003035 -0.068077 115 126 126
-0.016690 0.008508 -0.005852 16 16 12
0.008541 0.010160 0.000823 60 59 59
-0.024181 0.001778 0.018148 39 37 29
0.031683 -0.014778 0.006648 129 131 120
0.032380 0.015202 -0.014727 150 160 148
0.029294 -0.019797 0.003473 137 138 125
-0.039775 0.012390 -0.004927 29 33 26
0.002189 -0.020258 0.006998 148 141 131
-0.045373 -0.023549 0.012123 108 112 105
-0.055493 -0.003917 0.025948 120 130 116
0.029287 0.014268 -0.012777 153 157 150
-0.056401 0.003471 0.015673 111 124 107
0.002636 0.003035 -0.068077 124 137 136
-0.047441 -0.027094 0.010473 99 109 93
-0.012885 0.005271 0.009973 119 116 113
0.034804 -0.013545 0.007023 105 101 90
0.029769 -0.016711 0.005473 131 133 124
-0.013621 0.021759 -0.018027 92 105 104
-0.011409 0.012245 -0.004327 107 110 109
0.005186 -0.008873 0.014798 158 145 134
0.012050 0.018127 -0.015852 120 123 122
-0.009438 0.012889 -0.005577 118 117 119
0.002635 0.006065 0.019573 17 18 12
0.037802 -0.022547 0.000023 124 133 115
-0.002692 0.018882 -0.015252 116 116 112
-0.056509 -0.007850 0.025373 113 123 107
0.037442 -0.001370 0.007973 62 46 23
0.024459 -0.009014 0.011698 153 146 138
-0.002648 0.015337 -0.010627 115 111 114
0.017627 0.017376 -0.015652 133 136 135
-0.028278 -0.004618 0.021223 86 79 69
0.017239 0.007134 0.017748 25 21 22
0.016054 0.015056 0.019048 19 18 18
-0.031467 0.019127 -0.012252 90 101 99
0.011476 -0.002523 0.016223 173 157 150
0.021045 0.004300 0.010123 132 126 128
0.013847 0.017513 -0.015152 123 123 123
0.008569 0.017838 -0.015102 110 110 106
0.032227 -0.011731 0.008773 129 127 115
-0.031253 0.019557 -0.013002 82 100 96
-0.007680 0.012410 -0.005102 121 115 117
-0.046387 -0.025417 0.011098 107 116 107
0.002662 0.003034 -0.068077 153 160 154
0.035961 0.002615 0.003473 65 47 25
0.015730 0.017184 -0.015077 126 125 132
-0.025482 0.013833 -0.009877 8 11 10
0.036722 -0.020037 0.002123 64 52 36
0.020087 -0.023127 0.002123 145 146 133
-0.029732 -0.007527 0.020898 129 125 114
-0.038995 0.018500 -0.010152 81 85 80
0.021147 -0.023025 0.001848 142 147 133
-0.008423 0.021029 -0.017602 100 111 109
-0.054069 0.001214 0.028098 82 87 73
0.052061 -0.005476 0.009823 107 112 102
0.041148 0.001769 0.003848 79 60 33
0.038221 -0.002185 0.003798 45 29 0
-0.032425 0.017502 -0.010402 72 89 90
-0.015736 0.019283 -0.014177 100 106 106
0.017842 0.016598 -0.014627 129 132 131
-0.027638 -0.001874 0.018998 48 48 42
0.002572 0.003002 -0.068077 3 2 2
0.029911 0.012324 -0.009427 155 157 146
0.018907 -0.000274 0.014098 138 135 132
0.005404 -0.016542 0.009073 147 139 127
0.002599 0.003020 -0.068077 17 17 13
-0.030668 -0.010811 0.018573 119 121 110
0.027001 -0.005242 0.013748 158 151 141
-0.042498 -0.018112 0.015523 106 114 103
0.001604 0.001951 0.014473 130 130 126
-0.025909 -0.008167 0.019773 132 130 118
-0.024770 -0.020943 0.010898 118 127 109
0.045122 -0.023030 -0.001427 125 134 116
-0.049120 -0.024973 0.011823 105 118 105
-0.001376 0.015540 0.021598 12 12 6
-0.013948 -0.024168 0.006998 133 134 121
-0.005366 -0.013194 0.013298 140 131 124
0.037058 -0.014115 -0.004577 48 40 16
0.002913 0.020547 -0.018027 109 110 104
0.023609 0.016480 -0.014627 124 137 134
-0.006946 0.019628 -0.015952 107 111 106
-0.027672 -0.023275 0.009573 118 126 113
0.015389 0.018224 -0.016302 122 128 126
0.006934 0.011576 0.019398 17 16 16
0.037268 -0.019801 -0.001577 125 135 121
0.002034 -0.022074 0.005698 146 144 134
0.034045 0.006356 0.000548 149 151 140
-0.005937 0.013381 -0.007002 117 116 118
0.043797 -0.006751 0.009973 109 111 98
0.002633 0.003033 -0.068077 131 139 138
0.010058 -0.001008 0.015573 145 134 127
0.032180 0.010733 -0.006677 152 157 147
0.035965 0.007627 -0.001452 151 156 142
0.002626 0.003032 -0.068077 122 133 133
-0.000973 0.016877 -0.013052 115 114 116
0.018097 -0.013283 0.009723 146 139 129
-0.001936 0.015137 -0.010577 94 93 93
0.007993 0.009549 0.018898 20 16 17
-0.054960 0.002362 0.016173 113 122 104
0.016168 -0.019347 0.005448 147 143 136
0.006689 -0.014060 0.010948 147 138 133
-0.013280 0.017064 -0.011652 110 111 107
-0.017515 0.022168 -0.018302 93 104 100
-0.050905 -0.010105 0.022948 106 114 103
0.019819 0.013759 -0.010502 124 123 125
0.022597 0.015863 -0.013752 136 142 140
0.029717 0.017886 -0.018327 147 162 148
0.022866 -0.020318 0.003948 143 145 136
-0.022569 -0.011000 0.017398 130 126 115
0.006008 0.019053 -0.016202 114 114 116
-0.027080 0.020231 -0.014552 95 106 104
0.036762 -0.017252 -0.006377 46 30 7
0.043972 -0.010093 0.007773 123 128 116
0.002622 0.003016 -0.068077 23 23 23
0.020123 -0.019593 0.004848 146 142 133
0.011960 0.019674 -0.017777 115 118 117
0.036230 0.001749 0.004973 72 47 27
0.019839 -0.003449 0.015398 168 156 140
0.038909 0.002508 0.003698 78 60 28
0.037958 -0.009864 -0.000727 60 47 25
0.007150 -0.024876 0.002773 143 139 130
0.040696 0.013157 -0.011502 139 148 139
-0.054911 -0.007335 0.025673 107 120 107
0.001388 -0.022546 0.005498 146 142 131
-0.018093 -0.007512 0.019148 144 135 128
0.035436 0.016437 -0.016452 148 162 142
-0.022510 -0.012402 0.016148 129 127 119
0.025499 -0.016844 0.005973 143 139 128
0.032198 -0.012917 0.007973 128 126 114
-0.005946 0.014825 -0.009402 119 119 115
0.028337 -0.009465 0.010848 149 143 130
0.001523 0.000573 0.016073 132 132 128
0.031067 -0.007587 0.011523 144 133 126
0.033090 0.013673 -0.012277 150 165 151
0.007870 -0.022045 0.004823 144 140 129
-0.030565 0.022469 -0.017227 87 106 106
-0.039861 -0.015871 0.016748 105 115 99
-0.032342 0.018022 -0.010677 76 89 88
0.035964 -0.019071 0.000873 93 98 86
-0.017551 0.018813 -0.012777 96 105 98
-0.052403 0.005065 0.013123 107 115 100
0.012733 -0.020914 0.004798 144 140 129
-0.046875 -0.008106 0.023523 108 121 104
0.032763 0.017394 -0.017877 145 160 144
-0.007085 0.005868 0.007598 126 126 122
-0.041638 0.009430 0.001673 29 32 35
0.030491 0.010830 -0.006627 155 157 146
-0.020242 0.021221 -0.016427 95 106 102
0.005074 0.015002 -0.005077 14 14 10
-0.033994 -0.012038 0.018323 115 120 106
0.002644 0.003035 -0.068077 126 144 142
0.006517 0.020674 -0.018902 105 108 107
-0.010180 -0.019918 0.009198 137 133 126
-0.051600 -0.005763 0.025773 114 127 114
-0.015427 0.011307 -0.006427 1 1 1
0.022772 -0.014934 0.007773 150 141 136
-0.052820 -0.024296 0.013123 105 115 99
-0.058375 0.001249 0.019298 82 84 75
0.019095 0.020873 0.020973 19 20 16
0.029581 0.008755 -0.001402 133 137 132
0.002665 0.002983 -0.068077 85 87 69
0.008179 -0.011476 0.012373 147 138 129
0.013856 0.008968 0.017873 19 18 18
-0.017131 -0.017076 0.012348 137 130 122
-0.054171 -0.013015 0.021673 107 117 103
0.027412 0.004256 0.007498 139 136 133
-0.017360 -0.016654 0.012798 136 129 121
-0.009867 0.012328 -0.005027 117 117 117
0.015622 -0.004678 0.015448 166 152 144
0.018703 -0.015712 0.007998 147 139 125
0.027651 0.012518 -0.007927 126 135 128
0.026709 0.001151 0.012373 138 135 132
0.002017 0.000327 0.016048 135 131 124
0.000251 0.020484 -0.017677 106 109 112
-0.030426 -0.011396 0.018273 122 120 110
0.009387 -0.020211 0.005623 149 143 130
-0.022109 -0.000827 0.018423 50 47 42
-0.000373 0.000894 0.015573 137 132 130
0.002649 0.003035 -0.068077 146 160 151
0.034303 -0.018868 0.003523 90 93 77
0.009046 0.004174 0.017623 24 19 17
-0.022097 -0.024625 0.007498 129 129 109
-0.036247 0.010545 -0.002427 22 24 15
-0.003398 -0.019045 0.008723 144 137 129
0.003113 0.019341 -0.016377 114 114 118
0.011741 0.004235 0.017548 25 22 19
-0.049347 0.003473 0.028498 29 34 24
0.045881 0.004748 0.002698 136 145 127
-0.004150 0.006754 0.006448 118 118 114
0.037682 -0.023787 -0.000877 125 133 118
-0.017067 0.015322 -0.008452 93 99 97
-0.024370 0.007876 0.022173 50 46 35
0.019788 0.001001 0.013698 137 132 130
-0.006795 -0.024095 0.005748 136 138 122
0.002637 0.003034 -0.068077 125 139 141
-0.023233 -0.017484 0.012798 125 127 111
-0.023639 0.020835 -0.015777 95 107 109
0.006780 0.018730 0.018873 18 17 17
-0.014682 -0.021917 0.008548 134 132 120
-0.005190 -0.010220 0.015248 144 135 128
0.038524 -0.010841 -0.003102 63 63 39
0.002536 0.003000 -0.068077 29 37 26
0.002630 0.003033 -0.068077 128 139 139
0.004879 0.019932 0.021873 13 10 7
0.013148 0.012914 0.019323 17 17 11
0.014928 0.020313 -0.018902 120 128 129
-0.022462 -0.024495 0.007598 124 130 113
-0.020861 0.015702 -0.008927 74 89 88
0.028770 0.011046 -0.006002 125 131 129
-0.019079 0.020008 -0.015002 98 107 100
0.002550 0.002992 -0.068077 8 15 9
0.032950 -0.017293 -0.004102 98 99 86
-0.029870 0.017802 -0.010877 74 87 86
0.002528 0.003008 -0.068077 66 78 54
-0.021687 0.021992 -0.017602 97 108 108
0.005114 -0.021438 0.005573 148 142 129
0.031356 0.012390 -0.009552 156 163 155
0.038005 0.015716 -0.015677 153 163 151
0.038650 -0.013513 0.005648 121 124 106
-0.052307 -0.017898 0.017923 103 111 100
-0.007500 0.019231 -0.015252 110 113 112
0.014242 -0.023718 0.002598 140 139 124
-0.041935 0.013898 -0.003677 53 66 61
-0.007832 0.007295 0.005423 124 124 120
-0.002758 0.017179 -0.012977 118 118 122
-0.032229 0.021802 -0.016077 93 102 93
0.002554 0.003000 -0.068077 26 27 23
0.015651 0.016608 -0.014277 120 126 124
0.030496 -0.020903 0.002398 133 141 130
0.015007 -0.017407 0.007248 146 139 129
-0.018362 -0.013056 0.015373 134 130 119
0.042919 0.009406 -0.005102 143 156 141
0.002647 0.003034 -0.068077 117 135 129
0.001011 -0.019123 0.008023 149 141 129
0.017711 0.004453 0.012223 20 21 12
-0.025498 0.003234 0.018898 28 33 23
0.002300 -0.020666 0.006723 147 139 127
0.030631 0.002352 0.009823 132 133 129
0.010132 -0.008389 0.014373 150 143 133
0.002660 0.003034 -0.068077 144 159 143
-0.035256 0.016955 -0.008952 73 86 85
-0.011800 0.021893 -0.018352 98 109 109
0.002640 0.003033 -0.068077 126 141 138
-0.014008 0.011677 -0.003677 98 97 99
0.031418 0.017586 -0.018227 146 160 149
0.002627 0.003032 -0.068077 123 133 136
0.035560 0.012706 -0.010977 144 161 147
0.017441 0.014742 -0.012452 96 97 93
-0.009299 0.014642 -0.008127 117 118 114
-0.049418 -0.007050 0.024948 111 119 104
0.048802 -0.010781 0.006673 121 134 117
0.029023 -0.018967 0.004023 138 139 128
-0.025485 0.004997 0.020673 30 32 21
0.024546 0.017753 -0.016752 129 140 138
-0.026081 0.008462 0.000448 37 23 15
0.023834 -0.023599 0.001073 143 145 129
0.020203 0.014187 -0.010902 127 133 133
-0.023599 0.009442 -0.002377 21 21 17
0.032963 0.005476 0.001298 145 151 132
-0.028041 0.000556 0.018873 37 38 29
0.029567 0.008361 -0.000827 133 141 138
0.041641 0.008271 -0.003152 140 158 137
-0.051952 -0.023110 0.013698 105 114 94
0.033483 0.011980 -0.009427 151 159 146
0.008632 -0.006874 0.015373 160 147 134
0.011450 -0.000755 0.015398 142 137 133
0.012957 0.011835 0.018798 22 19 16
0.027102 -0.023311 0.000848 132 140 129
0.031217 0.001018 0.010648 124 124 118
0.003055 -0.023514 0.004598 146 139 129
0.004221 0.018962 -0.016127 111 110 110
0.016725 -0.014010 0.009398 147 139 127
0.044838 0.002176 0.005123 63 53 23
-0.012409 -0.017363 0.011398 139 135 124
0.030954 -0.003092 0.013898 150 146 137
0.036007 0.014059 -0.012602 150 163 150
0.021521 0.015585 -0.013402 131 136 141
0.041197 0.006781 -0.000852 145 158 145
-0.010290 -0.010983 0.015423 142 133 124
0.016160 0.022636 0.021873 17 18 12
-0.003344 0.019812 -0.016327 111 111 113
0.037537 -0.012134 -0.003077 56 38 16
-0.026855 -0.026390 0.007473 116 122 105
0.011879 -0.024615 0.002373 147 144 130
-0.020574 0.019759 -0.014427 88 101 100
0.005642 -0.003223 0.017348 169 154 142
0.026557 -0.023282 0.001173 136 137 126
0.029656 0.005161 0.006198 130 133 134
-0.025117 -0.010895 0.017523 127 123 112
0.002618 0.003033 -0.068077 110 121 119
0.002544 0.003010 -0.068077 23 27 22
0.009132 0.021934 0.022298 20 17 14
-0.028432 0.006011 0.011373 28 28 24
0.043721 -0.019957 0.000648 75 80 66
0.004432 0.003700 0.013698 20 19 19
0.003748 -0.006865 0.016348 161 147 141
0.002559 0.003007 -0.068077 87 82 64
0.034283 -0.016406 -0.003777 109 120 101
-0.016906 0.020924 -0.016627 95 106 104
0.002656 0.002989 -0.068077 110 113 95
0.028221 -0.023964 0.000323 131 141 127
0.020565 0.008433 0.017398 20 20 16
-0.014348 -0.025887 0.005623 134 132 120
-0.017814 0.012601 -0.007402 0 0 0
0.039839 0.001111 0.004798 74 59 29
-0.006380 0.015963 -0.011027 116 119 118
-0.010957 -0.016522 0.011773 145 136 127
0.002569 0.003008 -0.068077 4 5 1
-0.041589 -0.002282 0.017323 58 63 49
-0.001973 0.016188 -0.011677 115 115 109
0.029092 -0.012557 0.008673 139 135 124
0.027624 -0.004829 0.013823 157 149 137
-0.020316 -0.005928 0.020573 146 143 129
-0.035598 0.019469 -0.012202 85 100 95
0.036334 -0.010293 -0.001302 50 42 18
0.047189 -0.006875 0.009598 131 139 128
0.012148 -0.015372 0.009148 149 140 131
0.019939 0.016437 -0.014327 128 136 133
-0.006664 -0.000015 0.016998 134 129 127
-0.001428 -0.004130 0.018473 167 152 142
0.021063 0.019344 0.019773 17 20 19
0.020554 0.014146 0.017948 21 18 15
-0.021461 -0.017194 0.012823 132 134 123
-0.004597 -0.022363 0.006548 142 141 126
0.029644 0.018201 -0.018727 149 164 150
-0.023886 -0.012509 0.016398 128 126 118
-0.003495 0.021397 -0.018802 105 108 111
0.000658 -0.017981 0.008748 146 140 127
0.037154 0.010578 -0.007202 145 162 136
-0.052404 -0.016866 0.018373 106 116 104
0.034707 0.005010 0.000998 143 141 129
0.016587 0.003040 0.013223 37 31 35
0.003505 0.020265 -0.017777 109 112 111
-0.020200 0.000015 0.017923 42 39 34
0.007199 0.017360 0.017173 17 17 13
-0.004900 0.011825 0.021273 18 17 17
0.037282 -0.001861 0.011448 77 54 24
0.010795 0.008542 0.014348 16 15 15
0.035575 0.015997 -0.015627 144 160 149
0.039207 0.011764 -0.009427 148 155 147
0.047024 0.007023 -0.001727 131 146 132
-0.028518 0.020257 -0.014102 85 103 101
0.017382 0.007328 0.017848 26 23 20
-0.055672 -0.009993 0.024048 108 116 103
0.034242 -0.009479 0.009848 109 111 93
-0.018199 0.020644 -0.016227 99 108 101
0.002665 0.002958 -0.068077 125 135 121
0.010529 -0.008773 0.014098 152 141 132
-0.004701 -0.010282 0.015248 148 137 128
0.043911 -0.019473 -0.002952 47 40 11
0.002659 0.003032 -0.068077 143 159 148
-0.018505 0.007002 0.018998 19 15 18
0.042676 -0.017040 0.003373 82 97 72
0.029237 0.006533 0.004173 131 135 130
-0.013685 -0.004403 0.020223 163 148 136
0.000454 0.015474 0.022073 16 16 12
0.025406 0.002345 0.010723 136 136 130
-0.004685 0.003340 0.013698 131 131 127
0.021360 0.001138 0.012973 135 132 129
0.036531 0.015241 -0.014727 144 157 140
0.028889 0.004513 0.006498 133 134 130
-0.064819 -0.007522 0.026748 98 106 91
0.007742 -0.017015 0.008498 149 143 130
-0.046529 -0.024061 0.011898 104 112 99
-0.004327 0.004372 0.010973 132 127 123
0.029743 0.006770 0.000748 129 133 128
0.001969 0.021151 -0.018977 103 109 109
0.002626 0.003033 -0.068077 123 136 135
-0.028066 -0.008137 0.020048 129 127 115
-0.041513 0.008190 0.005123 28 31 30
0.002625 0.003032 -0.068077 124 132 133
-0.030856 0.021135 -0.015352 94 105 101
-0.036134 0.019640 -0.012727 84 103 103
-0.024321 0.016583 -0.009802 75 83 84
-0.048056 0.001933 0.026873 37 45 34
-0.018757 -0.011051 0.016948 138 131 123
-0.013498 0.016663 -0.010727 98 106 105
-0.059871 -0.009536 0.025173 106 113 105
0.003011 -0.002733 0.017523 168 154 146
0.002538 0.003002 -0.068077 25 29 24
0.017285 0.018551 -0.016977 129 135 135
-0.007418 -0.008321 0.017048 153 143 131
0.020996 -0.022575 0.002448 145 146 133
0.008010 -0.003708 0.017148 170 157 146
-0.006727 0.004656 0.010673 127 128 119
-0.013105 0.020961 -0.016952 95 106 104
0.025536 -0.007644 0.012398 153 146 138
0.025465 -0.007041 0.012773 157 151 138
-0.047592 -0.000581 0.020173 76 87 68
0.010134 -0.021140 0.004998 144 138 125
-0.012653 -0.000179 0.018048 125 124 124
-0.014028 0.012151 -0.004327 94 94 98
0.035842 0.016656 -0.017052 146 159 146
-0.023883 0.012029 -0.010752 10 13 12
-0.021233 -0.005866 0.020598 146 140 127
0.018980 -0.019800 0.004998 148 145 131
0.004579 0.001399 0.014823 133 130 127
-0.009785 0.018311 -0.013552 108 112 107
0.053021 -0.011259 0.006023 94 102 91
0.030206 -0.019393 0.003523 132 142 126
-0.000145 0.017216 0.022223 20 20 14
0.035257 -0.014480 0.006548 106 102 93
0.026969 0.013857 -0.009977 126 132 130
-0.025218 -0.002399 0.019223 62 60 50
-0.044035 0.003115 0.025098 15 21 19
0.034913 0.017218 -0.017452 150 160 146
-0.012625 -0.014898 0.013173 139 131 119
-0.044514 -0.013100 0.019623 110 115 103
-0.036732 -0.013195 0.018073 109 114 104
-0.024367 0.004537 0.020423 35 32 29
0.052176 -0.011344 0.005898 95 97 84
0.002828 0.006765 0.019423 22 19 14
0.018261 -0.012705 0.009973 148 141 131
-0.009460 -0.011968 0.014773 142 135 125
0.002549 0.002992 -0.068077 15 16 10
0.023737 0.012070 -0.007377 133 136 135
0.001330 -0.000124 0.016548 136 131 127
0.033667 -0.011294 0.008848 119 124 114
-0.042585 -0.008673 0.022198 103 113 99
0.006378 0.022687 0.023023 16 13 8
0.027700 -0.004250 0.014073 163 156 146
-0.034203 0.006804 -0.002977 19 27 16
0.025421 0.010864 0.016573 26 22 23
-0.050433 -0.012060 0.021473 106 115 97
0.023424 0.009554 0.017298 27 24 21
0.002692 -0.011501 0.013173 149 139 127
-0.008828 0.013948 -0.007827 119 118 120
0.004143 0.019023 -0.016177 112 112 114
-0.020874 0.016490 -0.009652 82 95 94
0.049114 -0.015841 0.003198 118 132 121
-0.019513 -0.009296 0.018198 136 136 116
0.005894 -0.025429 0.002598 139 140 127
-0.026120 0.017916 -0.011402 78 92 94
-0.044113 -0.019293 0.015123 109 119 107
-0.001140 0.020043 0.023898 12 11 11
-0.008553 -0.020949 0.008148 140 137 123
-0.032965 -0.025278 0.008823 113 123 111
-0.029955 0.013224 -0.009202 8 11 10
0.019102 -0.008058 0.013273 155 144 135
0.000283 0.015239 -0.013152 20 20 16
0.004268 -0.003616 0.017573 171 155 148
-0.046466 -0.017456 0.016873 106 113 105
-0.063147 -0.009076 0.025848 101 115 95
-0.009576 -0.011486 0.015148 141 134 124
-0.004113 0.014095 0.022148 16 16 12
0.042663 -0.000845 0.009773 69 51 31
-0.000224 -0.009906 0.014798 151 140 133
-0.037481 0.015005 -0.006252 55 75 70
-0.040354 0.015341 -0.005702 73 86 81
-0.002215 -0.015999 0.010573 147 136 127
0.011148 -0.017980 0.007323 149 141 129
-0.021332 0.004123 0.018598 40 35 31
0.037372 -0.015223 0.005348 95 92 78
0.026797 -0.022867 0.001423 138 138 132
-0.004968 0.022004 -0.019102 98 104 106
0.032124 0.016681 -0.016677 144 166 146
0.006634 0.015295 0.019848 18 18 18
0.024853 -0.016952 0.006173 146 145 130
0.002662 0.003029 -0.068077 145 158 145
0.016763 -0.015580 0.008373 146 143 129
-0.040587 -0.008207 0.022173 111 111 105
-0.016485 0.008036 -0.005477 15 16 12
0.001803 -0.020265 0.007023 148 142 129
-0.020877 0.020062 -0.015077 94 105 105
0.024120 -0.004242 0.014673 159 147 145
-0.034458 -0.019475 0.013348 114 119 107
0.025275 -0.019451 0.004048 138 139 128
-0.003334 0.008624 0.020398 16 17 13
-0.008271 0.013103 -0.005952 119 118 118
-0.014076 -0.016037 0.012698 139 134 116
-0.002873 -0.025578 0.004023 138 136 124
0.046602 -0.023672 -0.001777 121 133 125
-0.052657 -0.021245 0.015123 103 117 106
0.036873 0.017425 -0.018277 149 156 148
0.010797 0.017470 -0.015027 110 109 113
0.045532 -0.005124 0.010848 135 141 124
-0.002929 -0.011166 0.014348 143 136 128
0.010870 0.006447 0.016348 19 16 13
0.040461 0.011646 -0.009352 131 140 131
-0.007037 -0.016121 0.011323 139 132 126
0.042298 -0.021847 0.000023 96 99 81
-0.014784 -0.019061 0.010798 136 138 122
0.026561 -0.000769 0.013073 159 152 142
-0.040055 -0.016602 0.016148 107 117 103
-0.050611 -0.021597 0.015073 113 114 103
0.016786 0.018615 0.020023 12 11 11
0.000831 -0.024723 0.003998 143 136 126
0.026422 -0.005249 0.013823 160 151 144
-0.040850 0.007589 0.002473 29 36 28
-0.050765 -0.021429 0.015123 104 114 102
0.016788 -0.005950 0.014748 161 151 139
0.038004 -0.014186 0.006223 107 110 94
0.026389 -0.020985 0.002948 136 138 125
-0.001251 0.021028 0.021748 10 10 6
-0.007820 0.017859 -0.013152 112 115 114
-0.031558 -0.020556 0.012148 114 119 105
-0.040875 0.013324 -0.003427 27 47 30
0.024406 0.004703 0.007648 133 133 129
0.034050 -0.017223 -0.003577 102 107 95
0.027475 0.016125 -0.015577 155 163 152
0.002665 0.002992 -0.068077 84 90 73
0.024351 -0.011402 0.010048 149 142 134
0.007304 -0.014383 0.010573 151 137 129
-0.004656 0.020520 -0.017252 108 108 110
0.019091 -0.010021 0.011773 153 142 133
-0.001716 0.003803 0.012023 129 124 122
-0.053189 -0.026503 0.011523 112 114 105
-0.039134 0.016217 -0.007152 73 87 78
0.012546 -0.010980 0.011898 147 138 129
0.018241 0.004330 0.011923 19 18 18
-0.041643 0.013446 -0.003552 45 61 50
0.022630 0.009537 -0.001902 71 72 68
0.002658 0.002959 -0.068077 124 139 125
-0.020819 0.015934 -0.009252 75 88 83
-0.062659 -0.000914 0.023423 114 122 107
0.037587 0.009153 -0.004377 151 159 146
0.019981 -0.002456 0.015198 168 158 146
-0.031977 0.018706 -0.011552 85 98 97
-0.024549 -0.020713 0.011098 125 128 112
0.029837 -0.024075 0.000098 130 140 126
-0.016967 -0.006660 0.019548 151 143 131
-0.036186 -0.022953 0.011023 116 117 104
-0.011009 0.005207 0.009723 120 119 119
-0.009052 -0.010734 0.015773 145 134 125
-0.043419 -0.027318 0.009423 109 114 104
0.043031 -0.019569 0.000848 35 38 13
-0.019145 0.014549 -0.008152 8 8 8
0.047759 -0.016448 0.003123 127 134 126
0.037710 -0.014557 0.005948 92 98 79
0.004590 0.018242 -0.015452 110 111 107
-0.024485 0.004540 0.020598 36 33 28
0.051651 -0.008758 0.007773 96 101 91
-0.005406 -0.025693 0.004448 140 136 125
0.032453 -0.003379 0.013723 134 129 125
0.037803 0.005434 0.000123 140 143 127
-0.024530 0.012290 -0.010177 10 10 10
-0.024091 0.021757 -0.016827 96 107 103
-0.041259 -0.019085 0.014573 110 115 105
0.038115 -0.011900 0.007623 111 121 98
0.002534 0.003006 -0.068077 26 33 27
0.011234 0.017972 -0.015452 115 118 119
0.009877 -0.024612 0.002498 141 139 131
0.001405 0.020528 -0.017977 106 109 108
-0.024740 0.010086 -0.003102 26 27 21
-0.009021 0.021149 -0.017577 98 109 105
-0.044677 -0.005054 0.024748 116 121 107
-0.046958 -0.022411 0.013573 106 116 104
-0.033308 0.015702 -0.007477 4 5 1
0.001237 0.020051 -0.017202 114 114 114
0.014822 -0.004222 0.015848 154 138 133
0.030472 0.016280 -0.016027 149 157 144
-0.001619 -0.003940 0.018473 171 152 146
-0.060085 -0.012383 0.022998 101 116 100
0.001086 0.008529 0.019923 17 17 13
0.002767 0.016558 0.021373 13 13 9
0.030493 0.006142 0.003723 130 134 129
0.019765 0.016351 0.018748 20 20 20
0.043435 -0.022322 -0.000577 127 142 126
0.030442 0.003983 0.007748 133 140 132
-0.047470 -0.019903 0.015123 101 115 104
-0.022465 0.021816 -0.017377 95 108 105
-0.005665 0.010885 -0.002002 115 112 109
0.001345 0.007624 0.019898 20 17 12
0.051811 -0.012965 0.004873 107 120 107
-0.009890 0.011115 -0.001702 122 118 119
0.008559 -0.016329 0.008898 147 138 131
-0.031410 0.020494 -0.014102 83 100 101
0.006699 -0.000716 0.015898 136 135 135
-0.018090 -0.015644 0.013573 134 132 122
-0.035401 -0.009439 0.020573 117 119 110
-0.009925 -0.015024 0.012673 141 138 124
0.002665 0.003028 -0.068077 144 158 149
-0.015370 0.008559 0.001023 5 6 0
0.032920 -0.000326 0.011023 53 36 20
0.029587 0.014186 -0.012577 154 162 151
0.013554 -0.020901 0.004923 145 147 131
0.031736 0.015839 -0.015327 148 161 146
-0.032381 0.021126 -0.015152 96 102 100
0.037027 -0.023065 0.000073 113 123 109
-0.009526 0.005412 0.008998 124 123 123
-0.055215 -0.013996 0.020948 106 116 102
-0.019385 0.020025 -0.014827 91 106 101
-0.015703 -0.009724 0.017248 142 138 127
0.023838 0.006534 0.016948 24 24 18
0.002595 0.003034 -0.068077 103 106 109
0.021566 0.019037 -0.018152 132 138 140
-0.016227 0.020013 -0.015352 96 104 101
-0.001244 -0.023374 0.005248 144 138 125
0.030469 -0.018165 -0.004727 112 113 100
0.006696 0.019628 -0.017127 109 112 113
0.000229 0.018907 -0.015552 112 116 111
-0.035636 -0.001339 0.021123 36 41 31
0.017117 0.008418 0.018148 25 22 19
-0.060099 -0.005944 0.026973 118 128 114
0.029088 0.007553 0.001148 126 133 127
0.020541 -0.016416 0.007048 146 139 131
-0.002045 0.000887 0.015848 135 126 129
0.002665 0.002977 -0.068077 92 100 89
0.002615 0.003033 -0.068077 114 117 118
0.024395 -0.021937 0.002398 140 141 128
0.032908 -0.005677 0.012223 119 114 110
0.002603 0.003034 -0.068077 105 108 111
-0.030021 -0.022201 0.010848 114 125 106
-0.047109 -0.020889 0.014523 105 115 103
0.002644 0.003032 -0.068077 127 142 139
0.033743 -0.003769 0.011948 62 38 22
-0.062013 -0.011048 0.024323 103 111 96
0.025703 0.015672 -0.014227 128 139 137
0.004735 -0.010531 0.013798 149 138 129
-0.039272 -0.023184 0.011373 106 114 103
0.024620 0.011278 -0.005627 131 134 133
-0.007367 -0.024571 0.005573 141 137 126
-0.051740 -0.021622 0.014748 101 115 95
-0.044777 -0.024880 0.011223 104 117 100
0.002901 0.018404 0.022198 13 13 9
-0.010100 -0.025895 0.004823 137 139 121
-0.014483 -0.014434 0.013798 139 130 121
0.037329 0.002930 0.003373 62 49 27
-0.035668 0.014580 -0.006102 18 26 23
0.032304 0.009882 -0.004977 153 157 150
-0.050643 0.008147 0.007648 89 102 85
0.002542 0.003011 -0.068077 23 26 25
-0.031204 -0.018479 0.013423 112 120 109
0.038774 0.005829 -0.000027 141 149 138
-0.033086 0.016005 -0.007927 25 50 41
0.042820 -0.010358 0.007698 70 53 28
0.024505 -0.004350 0.014523 168 157 148
0.002550 0.003008 -0.068077 14 15 6
-0.018992 -0.017404 0.012248 132 131 114
0.003567 0.020524 0.022548 15 12 9
0.002097 0.019840 -0.017277 112 112 108
-0.006762 0.006585 0.006348 126 125 125
0.035531 -0.013633 0.006923 100 99 82
0.029852 -0.019290 0.003698 131 139 126
-0.004597 -0.014533 0.012048 145 136 127
0.013412 -0.020674 0.005048 148 146 136
-0.031606 -0.022101 0.010898 114 119 109
0.046611 0.005300 0.002123 133 144 125
0.030501 0.007595 -0.000477 154 154 148
0.037568 0.004290 0.000448 57 50 29
-0.041129 -0.026588 0.009598 106 114 103
-0.025036 0.000774 -0.009002 3 4 0
0.028156 0.009038 -0.002052 130 134 129
-0.014473 0.013549 -0.006277 99 102 103
0.048465 -0.015572 0.003573 123 136 119
0.026746 0.015067 -0.013202 132 143 141
-0.004054 0.003736 0.011173 129 129 123
0.016694 -0.022272 0.003198 145 146 133
-0.040868 -0.020118 0.013723 119 124 112
-0.002528 -0.012079 0.013723 145 136 127
-0.022179 0.007943 0.007073 33 30 25
-0.039939 0.003486 0.018298 2 6 1
-0.050617 0.009248 0.008898 69 72 49
-0.013419 0.020394 -0.016177 100 103 104
-0.017959 0.021117 -0.016827 91 99 98
-0.056049 -0.024892 0.013473 108 116 103
-0.004555 -0.018742 0.009048 143 137 124
-0.017417 -0.006789 0.019548 149 143 128
-0.031821 0.021585 -0.015827 94 100 102
-0.021509 -0.023569 0.008448 129 130 121
0.028625 0.009837 -0.003652 135 144 137
0.024804 0.013529 0.017548 25 22 19
-0.011483 -0.023368 0.007073 133 135 124
-0.040561 -0.015299 0.017273 105 117 107
-0.005028 -0.021753 0.007023 138 136 124
0.009926 0.017439 -0.014852 105 106 102
-0.035388 -0.022537 0.011173 115 120 108
-0.005756 -0.008267 0.016648 152 142 130
-0.000850 0.013896 0.021598 19 16 13
-0.033077 0.016436 -0.008752 66 79 78
0.016375 0.018332 -0.016452 126 132 130
-0.006080 0.012911 -0.006302 119 119 115
0.015909 -0.001161 0.014948 168 158 146
-0.024444 -0.021264 0.010623 125 128 112
0.020000 0.018371 -0.016827 133 142 135
0.022954 0.012910 -0.008752 131 137 139
0.024801 0.012700 -0.008702 125 131 129
0.028173 -0.022255 0.001423 136 138 127
0.025026 0.018222 -0.017202 128 143 142
-0.024943 -0.007143 0.020398 137 133 122
0.010430 0.008505 0.015623 23 19 20
0.037758 0.011374 -0.008527 144 159 143
0.005357 0.013540 0.020273 17 16 16
-0.051954 -0.019200 0.016398 104 114 102
-0.046667 -0.010778 0.021673 105 114 96
-0.016357 0.020711 -0.016477 99 107 106
0.033534 -0.021964 0.001323 49 40 21
-0.023836 0.018955 -0.013127 85 98 97
-0.005985 -0.001613 0.017698 157 150 142
-0.005364 0.018577 0.022823 21 21 17
-0.029744 0.017369 -0.010427 75 87 91
-0.002141 0.014637 -0.010127 39 39 39
-0.047048 -0.011037 0.021648 116 126 112
0.007517 0.022163 0.023073 13 14 10
-0.033954 0.006995 -0.003752 16 23 17
-0.023404 0.019164 -0.013102 86 99 96
0.034850 0.015208 -0.014527 145 158 145
0.042867 0.009139 -0.004527 143 158 142
-0.000504 -0.012818 0.012598 145 138 128
-0.056499 -0.018705 0.017873 99 115 94
0.011223 0.011568 0.017398 27 29 20
0.020627 0.021413 0.018298 21 21 17
0.002589 0.003016 -0.068077 25 26 22
0.027685 0.015576 -0.014802 150 158 145
0.022956 -0.022503 0.002248 141 142 133
0.037867 0.006308 -0.000427 147 155 142
0.035658 -0.021186 0.001723 79 62 33
0.033938 -0.006831 0.011548 111 109 97
-0.041093 0.006167 0.006798 26 33 27
0.002662 0.003030 -0.068077 145 155 141
-0.046383 -0.010233 0.021998 115 116 105
-0.049569 0.002766 0.028123 32 36 29
0.001064 0.013389 0.021198 16 16 12
0.030743 0.011152 -0.007252 158 163 151
0.047224 -0.018672 0.001873 129 137 122
0.024172 -0.020755 0.003198 136 141 131
0.002612 0.003021 -0.068077 25 24 24
0.035969 0.002828 0.002273 68 48 26
-0.063219 -0.004060 0.026948 111 121 105
0.051382 -0.001115 0.010573 112 117 105
0.026834 0.017119 -0.016452 129 136 130
0.044169 -0.001007 0.009598 69 58 33
-0.051309 0.001175 0.016748 111 124 111
-0.021799 -0.007271 0.019823 139 132 124
-0.022766 0.019909 -0.014702 88 103 102
-0.007920 0.016255 -0.010852 112 116 111
0.004879 -0.002321 0.016948 173 153 145
0.002547 0.002998 -0.068077 4 5 1
-0.060302 -0.010600 0.024498 105 113 100
0.022508 0.012618 -0.008127 131 134 133
0.016903 -0.019508 0.005623 145 138 128
0.045504 0.004543 0.002848 126 138 128
0.001907 -0.019307 0.007698 149 140 131
0.025660 0.008704 -0.000852 131 134 133
-0.012062 0.020297 -0.016127 89 95 95
0.031131 0.005014 0.002948 147 149 138
0.031880 0.006859 0.000548 157 153 142
-0.030124 -0.007592 0.020898 130 132 123
0.002561 0.003006 -0.068077 90 85 65
-0.008552 0.019316 -0.015227 110 114 109
0.020589 0.015871 -0.013552 131 137 135
0.028489 0.017198 -0.016852 147 160 147
0.024321 -0.010321 0.010773 151 147 138
0.047536 0.005630 0.001323 137 142 130
-0.056725 -0.004156 0.026373 118 128 112
-0.034306 0.020895 -0.014327 94 105 101
-0.047821 -0.020356 0.014998 104 117 102
0.002645 0.003032 -0.068077 129 144 139
0.024194 -0.018582 0.005048 147 146 131
0.011717 0.020199 -0.018502 113 116 119
0.046242 -0.004355 0.011298 132 142 128
-0.029262 -0.000472 0.019073 39 41 32
0.003236 0.018808 -0.015627 116 115 115
-0.019539 -0.003999 0.020848 153 146 138
-0.004440 -0.015135 0.011598 146 135 126
0.005590 -0.011867 0.012573 148 137 128
-0.059184 0.009594 0.023048 22 37 32
0.038449 -0.014009 -0.002277 47 38 17
0.002633 0.003031 -0.068077 129 140 138
-0.031727 0.007875 0.002873 24 25 16
0.006230 -0.023341 0.004123 141 142 133
0.036311 -0.015406 -0.005102 53 36 20
0.014282 0.016277 -0.013852 105 106 100
-0.060510 0.001290 0.020498 84 93 84
0.007947 -0.025164 0.002323 137 138 129
0.049825 -0.017434 0.001848 124 132 121
-0.029242 0.022124 -0.016952 96 109 108
-0.052464 -0.008693 0.024448 115 120 108
-0.027260 0.020395 -0.014652 93 106 105
0.012093 -0.018254 0.006923 147 143 134
-0.021482 0.021212 -0.016452 96 109 106
0.016913 -0.020074 0.004848 151 144 134
0.035022 -0.023041 0.000273 100 105 91
0.000929 -0.004093 0.018023 173 156 142
-0.027640 0.016180 -0.009502 0 4 0
0.005267 0.017404 -0.014252 96 100 95
0.007922 -0.024629 0.002673 144 140 129
-0.020376 -0.017724 0.012348 134 132 122
-0.005916 -0.002404 0.018273 164 150 142
-0.006956 0.014355 -0.008477 116 115 115
-0.023617 0.022086 -0.017452 93 108 103
-0.006009 0.014991 -0.009852 120 120 116
0.011512 0.012363 0.018373 20 20 16
0.047712 -0.003950 0.011323 136 138 120
-0.055709 -0.022039 0.015123 108 113 99
-0.025295 -0.010415 0.018073 130 126 119
-0.010185 -0.001717 0.018448 156 146 132
0.002564 0.003002 -0.068077 36 34 26
0.027930 0.006362 0.003923 133 136 135
-0.020831 -0.003819 0.021048 156 146 134
0.032288 0.011585 -0.008277 149 159 145
-0.026884 0.016969 -0.009977 73 86 85
0.031634 0.005713 0.002148 157 153 142
0.052881 -0.010767 0.006298 91 104 91
0.013531 0.015940 -0.013427 26 20 22
0.009113 0.020618 -0.018652 109 112 111
-0.007022 0.011793 0.020298 33 27 29
0.034216 -0.019377 0.002973 92 94 78
0.002535 0.003002 -0.068077 29 38 31
-0.015825 0.012069 -0.004902 9 9 9
0.043955 -0.006157 0.010273 117 125 114
-0.011547 0.020805 -0.016752 96 99 98
-0.013692 -0.022227 0.008123 135 137 126
0.016605 -0.009694 0.012298 157 143 135
-0.032865 0.014311 -0.007777 17 18 14
-0.018097 0.012617 -0.006152 2 1 1
0.036538 -0.014922 -0.004852 50 38 11
0.016469 -0.012865 0.010198 148 137 128
0.002149 0.001831 0.014373 135 126 129
-0.045886 -0.011934 0.020723 108 113 103
0.013751 0.017346 -0.015052 120 119 119
-0.038002 -0.022501 0.011973 108 113 101
0.027706 0.018169 -0.018477 151 155 148
-0.051299 -0.007454 0.024898 113 123 109
0.035974 -0.000610 0.009623 76 54 28
-0.015176 0.010304 0.000273 9 9 11
0.012978 0.019449 -0.017677 120 126 124
-0.011158 0.009285 0.001773 118 114 117
-0.018148 0.017902 -0.011927 93 99 97
0.028660 0.011346 -0.006477 121 130 123
0.003920 -0.018209 0.008348 146 137 130
0.002629 0.003032 -0.068077 123 135 137
0.037882 -0.007230 0.010573 113 107 92
0.021985 -0.023388 0.001723 143 145 134
-0.021010 0.013008 -0.009952 14 13 13
0.034732 0.007952 -0.001677 151 157 140
-0.036746 0.017709 -0.009577 73 83 86
-0.017905 -0.003716 0.020548 158 148 136
0.002544 0.003005 -0.068077 18 23 11
0.021189 0.014967 -0.012352 134 137 138
-0.007435 -0.001237 0.017723 136 129 123
0.026010 0.005717 0.005023 134 138 133
0.003072 -0.005153 0.017223 164 149 139
-0.036589 0.015741 -0.007077 61 78 79
-0.020618 0.013154 -0.009102 11 15 10
-0.023402 0.019193 -0.013277 89 100 96
0.032209 0.014065 -0.012777 146 159 146
-0.024693 0.003298 0.018773 28 32 27
0.010327 0.010226 0.018598 22 17 15
-0.031736 0.003904 0.022048 29 26 21
0.043691 -0.020344 0.000598 126 137 118
0.037789 0.013415 -0.011902 146 159 144
-0.042816 0.014995 -0.004627 69 87 85
-0.034146 -0.024371 0.009773 113 118 108
0.004875 -0.005735 0.016798 158 147 140
-0.000342 0.016112 -0.012002 103 102 104
-0.041077 -0.023090 0.011798 111 121 107
0.028765 0.013723 -0.011802 150 158 145
0.042481 -0.016441 0.003873 61 50 41
-0.051755 -0.011872 0.021923 106 116 104
-0.005018 0.020468 -0.017077 108 111 114
-0.025870 0.001562 -0.007502 2 2 2
-0.018631 -0.005773 0.020323 150 142 130
-0.032534 0.007928 -0.000677 19 25 23
-0.046410 -0.016322 0.017648 103 112 105
0.036576 -0.005909 0.003223 104 106 88
-0.037485 -0.020850 0.012948 112 120 109
-0.001557 -0.018127 0.009073 146 139 133
-0.033486 0.012645 -0.007402 50 53 37
-0.018125 0.015003 -0.008302 86 92 92
-0.014416 0.012227 -0.004452 97 96 98
0.012644 0.018117 -0.015752 116 119 120
0.018194 0.018143 -0.016452 129 135 135
-0.047790 0.000138 0.026373 39 46 38
-0.022444 -0.026468 0.006548 122 127 115
-0.019484 0.015429 -0.008777 79 87 84
-0.010857 0.006842 0.006048 117 116 116
0.002654 0.003030 -0.068077 151 163 153
0.012305 -0.017146 0.007723 151 140 131
-0.031825 0.014056 -0.008202 17 20 19
-0.029335 -0.024399 0.009048 112 120 107
-0.030822 0.003242 0.021723 22 26 21
-0.022266 -0.025914 0.006673 127 132 122
0.013189 -0.010406 0.012323 152 141 134
-0.004767 -0.018926 0.008898 141 135 122
-0.003760 0.002196 0.014148 134 131 126
-0.030164 0.010013 -0.005052 15 15 15
-0.030845 0.011156 -0.005852 19 26 20
-0.001218 0.020543 -0.017827 103 109 107
0.027013 -0.010640 0.009948 150 143 133
-0.023620 -0.022356 0.009548 132 131 116
-0.024181 0.008031 0.023798 93 83 71
0.025361 -0.011331 0.009973 146 147 134
-0.006010 -0.014362 0.012623 143 136 126
0.002648 0.003031 -0.068077 146 160 149
0.016596 -0.005494 0.015048 162 149 138
0.033023 0.007438 -0.000602 152 153 142
-0.032413 0.019336 -0.012377 89 102 99
-0.008182 -0.009079 0.016673 148 137 128
-0.026421 -0.026178 0.007498 117 122 108
-0.011426 0.004152 0.011773 124 120 123
0.021671 0.017461 0.018148 17 18 14
0.041785 -0.017852 -0.006877 51 40 15
0.044589 -0.011878 0.006398 135 140 128
0.008428 0.017969 -0.015327 113 112 112
-0.032770 -0.026739 0.007798 112 123 104
-0.027286 0.019777 -0.013602 94 105 105
-0.021453 0.015389 -0.009177 16 16 18
0.048127 -0.018643 0.001448 122 134 124
-0.047763 0.000070 0.026323 38 47 38
0.047945 -0.003775 0.011323 131 139 124
-0.003295 0.021017 -0.018352 107 110 109
-0.037081 -0.003870 0.017598 15 17 8
-0.001639 -0.019149 0.008498 144 138 123
-0.051623 0.001411 0.029023 45 49 42
0.046891 -0.004608 0.010898 130 136 119
-0.021434 -0.012239 0.016273 127 128 115
0.014209 0.001344 0.014548 134 131 126
0.034659 0.010274 -0.005977 153 161 146
0.028422 -0.019223 0.003823 136 141 131
0.030538 -0.015368 0.006373 129 131 118
-0.035605 -0.021824 0.011873 108 116 105
0.030490 0.006667 0.000723 155 153 145
0.051939 -0.000196 0.009273 115 123 108
-0.026205 -0.024447 0.008548 118 126 115
0.032195 0.016032 -0.015952 146 161 145
0.020398 0.009171 0.017198 23 23 17
-0.000374 0.011483 0.021123 17 16 16
-0.050053 -0.020638 0.015348 103 112 103
0.022160 -0.014989 0.007773 145 139 126
0.035829 -0.013396 0.007098 102 98 89
-0.034805 -0.001868 0.015598 10 10 10
-0.028091 0.000125 0.001473 30 31 27
-0.041831 0.014307 -0.004302 70 81 77
0.026156 0.006946 0.002098 134 137 136
-0.026329 -0.001149 0.018523 50 47 44
-0.055244 -0.019255 0.017323 105 115 99
0.033632 0.015829 -0.015527 144 161 145
-0.014043 0.011718 -0.003727 93 97 92
0.016506 0.003855 0.011398 24 19 17
0.055298 -0.002678 0.010648 78 86 71
-0.029238 0.018685 -0.011627 78 93 90
-0.016074 -0.012984 0.014998 135 131 122
0.034252 -0.016900 -0.003552 108 113 101
0.011321 0.019114 -0.016977 115 118 117
0.002620 0.003033 -0.068077 115 126 126
-0.003916 0.021648 -0.018902 102 110 109
0.020497 0.014318 -0.011302 129 132 131
0.002537 0.003001 -0.068077 30 37 29
-0.045108 -0.022253 0.012873 104 117 104
0.038753 -0.012994 0.005748 126 128 115
-0.020277 0.015348 -0.008752 67 78 76
0.026348 -0.007578 0.012348 151 145 132
-0.008858 -0.025919 0.004748 136 137 124
0.006494 -0.012759 0.011698 146 138 126
0.001895 0.016259 -0.013102 22 19 16
0.049111 0.002982 0.005598 118 128 114
0.014869 -0.023728 0.002623 146 142 133
0.010898 0.019046 0.020623 15 12 9
-0.013718 0.011440 -0.003327 89 95 93
0.036126 -0.000408 0.008923 69 52 25
0.008116 -0.007740 0.014973 157 149 137
-0.021416 -0.006847 0.020073 145 136 127
0.000273 0.001951 0.014423 137 129 128
-0.028291 -0.012450 0.017098 122 123 110
-0.001421 0.021145 -0.018502 103 109 109
-0.005556 0.013948 -0.007827 119 115 116
-0.042306 -0.010808 0.020598 112 117 103
0.031766 0.004702 0.002973 148 146 136
-0.013372 0.020681 -0.016452 98 104 104
0.038157 -0.005885 0.011448 109 107 88
0.030443 0.012085 -0.009302 151 158 150
0.003133 -0.018516 0.008048 147 138 129
-0.029052 0.002396 0.020273 25 26 22
-0.042485 -0.026007 0.009873 106 116 104
0.015428 -0.016962 0.007448 146 142 131
0.036550 -0.005117 0.011923 54 45 28
-0.011085 0.013770 -0.006827 107 110 113
-0.007211 0.017630 -0.012952 111 111 115
-0.028885 0.016357 -0.009102 10 13 12
0.039257 0.004746 0.000598 126 134 119
0.024979 -0.000973 0.013598 169 158 151
0.038566 -0.005419 0.011448 101 99 87
-0.056311 -0.023744 0.014173 114 116 103
-0.007373 -0.023707 0.006023 140 138 126
-0.028619 0.016490 -0.009277 44 57 54
-0.013407 0.015513 -0.009202 98 104 102
0.021459 -0.000268 0.013923 143 135 134
-0.021070 0.005029 0.019273 55 45 31
