ply
format ascii 1.0
element vertex 1222
property float x
property float y
property float z
property uchar red
property uchar green
property uchar blue
end_header
-0.114179 -0.073126 0.072168 113 121 122
-0.034322 0.036671 -0.012632 112 114 40
0.013649 0.046180 -0.035207 124 116 45
0.048144 0.031684 -0.041457 89 89 29
-0.068066 0.002645 0.074343 97 94 19
0.039790 0.023249 -0.029682 95 95 23
-0.126037 -0.007405 0.065918 67 75 5
0.011102 0.044716 -0.029907 124 120 41
0.046420 0.029089 -0.039457 91 86 23
-0.002375 0.040861 -0.012757 84 79 16
-0.028220 0.039746 -0.020782 116 118 42
0.014015 0.004347 -0.153132 120 115 43
-0.075972 0.014597 0.041643 105 102 27
-0.063403 -0.054303 0.118893 100 100 102
0.062097 0.028417 -0.063182 120 129 43
-0.035541 -0.053962 0.139168 69 72 75
0.014097 0.004384 -0.153132 104 118 30
0.081779 -0.006435 -0.036557 130 142 134
-0.092041 -0.056125 0.097518 109 120 118
0.014009 0.004329 -0.153132 62 68 70
-0.066437 -0.007388 0.100193 75 73 11
0.066721 -0.026671 -0.022607 138 146 143
0.013995 0.004320 -0.153132 87 102 99
0.064039 0.004981 -0.004707 131 135 130
-0.023290 0.031948 -0.001807 120 117 46
-0.095982 0.062947 0.038693 106 121 118
-0.131044 -0.018613 0.062618 72 86 19
0.040167 -0.016188 0.022868 145 143 133
0.082562 -0.035856 -0.049707 134 149 144
-0.001309 0.004708 0.022118 97 93 25
-0.121032 -0.019948 0.069043 75 84 9
0.067470 0.028538 -0.062232 115 123 42
0.014033 0.004335 -0.153132 127 124 119
0.026632 -0.039015 0.034568 111 111 113
-0.007396 -0.005958 0.031393 107 101 34
0.014015 0.004328 -0.153132 108 108 104
-0.098443 0.042830 0.031868 63 71 17
0.086436 -0.007218 -0.044457 124 142 138
0.053680 -0.009908 0.004743 144 139 135
0.053659 -0.022045 0.000618 144 145 134
-0.041707 0.044210 -0.015757 100 102 28
0.036593 0.015062 -0.023607 113 102 39
0.034974 0.048242 -0.026507 57 61 13
0.013964 0.004324 -0.153132 107 125 123
0.014019 0.004321 -0.153132 119 120 114
0.005610 0.042847 -0.024682 121 119 39
-0.109601 -0.023457 0.073768 75 86 15
0.049437 -0.015066 0.009168 145 142 137
0.070422 -0.043064 -0.033632 136 149 144
-0.034770 0.038710 -0.016007 110 112 36
0.073825 0.017415 -0.016882 116 117 111
0.014067 0.004367 -0.153132 111 115 94
0.072895 -0.015177 -0.027607 134 144 132
-0.044862 0.007572 0.069193 79 73 19
0.036106 0.024469 -0.024782 99 95 29
0.007903 -0.007692 0.026993 124 120 43
0.075302 -0.013528 -0.030707 132 144 134
-0.018436 0.039529 -0.017882 117 119 43
0.046788 -0.035198 0.004993 146 153 145
-0.101702 0.069053 0.027843 116 125 116
0.080473 -0.036031 -0.046232 126 145 145
-0.090498 -0.062222 0.095593 106 119 116
-0.053416 -0.064466 0.122068 104 110 112
-0.012821 0.023710 0.030568 112 109 38
0.053512 0.001959 0.008318 131 130 130
0.040131 -0.040949 0.012018 150 148 140
-0.089403 0.058503 0.047768 2 14 6
-0.131404 -0.074063 0.062918 105 119 121
0.014014 0.004344 -0.153132 84 85 74
0.013078 -0.061527 0.049668 136 137 131
0.018041 -0.015741 0.052643 126 127 118
0.014009 0.004319 -0.153132 91 99 98
-0.020893 0.039408 -0.017582 119 116 41
0.046153 0.005727 0.021043 119 120 111
-0.020776 0.040857 -0.019557 117 117 41
0.064034 -0.045705 -0.025557 137 151 142
0.013981 0.004374 -0.153132 105 113 32
-0.107224 0.045558 0.027768 67 77 13
-0.045971 -0.084991 0.075918 104 112 111
0.004643 0.013784 0.014468 94 88 23
0.032603 0.013587 -0.018807 112 107 37
0.013972 0.004326 -0.153132 109 122 121
-0.093968 0.048079 0.037618 58 57 13
0.006205 0.047559 -0.038882 123 122 53
-0.089335 -0.041302 0.104043 101 102 35
0.083070 -0.011660 -0.041257 127 141 130
0.032926 -0.044025 0.025143 147 149 138
0.086320 -0.005360 -0.042932 128 140 130
-0.012894 0.045238 -0.032107 121 123 51
-0.119178 -0.001497 0.073368 72 79 14
0.032612 -0.016663 0.035218 143 141 133
-0.093909 0.060342 0.043368 63 70 64
0.026955 0.021618 -0.012757 101 95 28
0.043035 0.039815 -0.035957 82 82 22
0.065603 -0.044869 -0.026982 135 150 145
-0.068355 -0.026579 0.099243 82 84 19
-0.033657 -0.067095 0.134268 73 72 72
-0.106777 -0.080164 0.076943 108 122 124
0.054172 0.030231 -0.068882 120 126 37
0.019061 -0.018592 0.051168 129 126 121
0.084293 -0.022236 -0.046857 123 138 133
0.082576 -0.006701 -0.038232 128 143 129
-0.110214 -0.007936 0.075818 78 84 24
-0.026862 -0.069476 0.128093 102 102 96
0.022140 0.025418 -0.004832 98 94 26
0.010860 -0.014961 0.069743 112 109 104
-0.083294 -0.083316 0.089893 105 119 121
0.014096 0.004328 -0.153132 135 148 143
-0.024785 0.038456 -0.015407 119 119 43
0.041608 -0.004975 0.025518 133 132 132
-0.048470 -0.079415 0.070443 91 99 96
0.035283 0.042409 -0.025207 82 82 22
-0.028832 0.042768 -0.025882 113 110 35
0.064316 -0.030581 -0.020107 142 149 143
0.014009 0.004342 -0.153132 102 98 48
0.061353 -0.003202 -0.004257 137 139 130
-0.034039 -0.014823 0.057468 94 89 26
-0.094282 0.048203 0.036943 54 62 8
-0.115531 -0.022929 0.070793 78 86 16
0.069323 -0.042643 -0.032007 132 148 139
0.013393 -0.072553 0.044018 129 136 130
-0.087189 -0.055851 0.101018 106 119 118
-0.085178 0.069432 0.022768 121 128 122
0.041060 -0.056153 0.006768 141 148 142
-0.099858 0.061729 0.041718 83 99 90
0.014098 0.004335 -0.153132 127 144 147
-0.042619 0.047524 -0.013507 88 90 25
0.013991 0.004330 -0.153132 104 112 109
0.065331 0.025554 -0.053707 110 124 34
0.087387 -0.002408 -0.043632 131 139 138
0.077692 0.000672 -0.028307 132 141 132
0.068358 0.032358 -0.070982 90 98 17
-0.102056 0.018239 0.029443 101 102 33
0.064425 -0.031788 -0.020332 140 147 141
0.013990 0.004358 -0.153132 98 99 30
0.014027 0.004327 -0.153132 136 136 130
-0.126711 -0.001788 0.065968 75 81 10
0.021488 -0.064085 0.029868 141 138 133
-0.014632 0.028728 0.010868 121 119 41
-0.129870 -0.059132 0.071143 103 121 119
0.013974 0.004329 -0.153132 107 122 121
0.010671 0.040084 -0.011757 123 121 41
-0.106283 -0.003001 0.078918 71 76 12
0.020477 0.038188 -0.005557 86 84 20
-0.106234 -0.053122 0.088743 113 119 117
-0.001959 0.013318 0.022193 87 81 16
0.029801 -0.012221 0.041418 136 132 133
0.011108 0.039301 -0.007682 123 116 40
-0.029378 -0.017051 0.053643 77 73 23
-0.116284 -0.012897 0.072668 77 84 17
-0.004413 0.017494 0.024793 87 81 16
-0.000792 0.033059 0.005568 126 121 47
-0.041678 -0.024891 0.069493 105 102 27
-0.118054 -0.062859 0.074868 106 120 122
-0.077508 0.065533 0.035393 75 80 70
0.032865 0.007856 -0.011657 146 140 59
-0.064614 -0.087566 0.102718 102 105 106
-0.025577 0.034347 -0.006882 120 117 42
0.083466 -0.000524 -0.036882 125 140 126
0.045002 0.037343 -0.039157 82 83 16
-0.133331 -0.000584 0.062493 75 80 18
-0.126294 -0.012232 0.066068 71 82 14
0.084940 -0.001403 -0.039707 123 143 128
0.012882 -0.038941 0.058418 138 138 132
0.038346 0.034749 -0.029657 90 88 26
-0.006340 0.017599 0.028018 88 83 22
0.014000 0.004340 -0.153132 81 78 23
0.013794 0.042263 -0.019432 124 117 39
0.075730 -0.030345 -0.037482 134 149 148
0.063231 -0.044429 -0.023732 140 149 142
-0.108458 0.071043 0.019593 120 121 112
-0.067821 -0.002292 0.097043 74 76 11
0.014097 0.004385 -0.153132 110 122 44
-0.027676 0.032502 -0.003582 119 117 39
-0.070690 -0.079760 0.105818 91 97 95
-0.098768 0.049193 0.034668 68 73 18
-0.127718 -0.039747 0.078093 106 118 120
0.052816 -0.034829 -0.003082 143 150 144
0.048891 -0.016067 0.010518 147 144 139
0.071398 -0.038868 -0.033607 130 150 143
0.021471 -0.053739 0.032818 137 138 127
0.083297 -0.003280 -0.037732 129 141 131
0.072428 0.017020 -0.013532 112 119 113
-0.023568 -0.004619 0.050093 85 78 16
0.025420 0.018619 -0.008732 102 96 31
-0.073017 -0.089541 0.094093 96 104 103
0.065594 -0.027601 -0.020332 140 149 140
-0.078874 -0.027898 0.093768 85 88 18
-0.104038 0.025282 0.020168 59 71 16
0.081614 0.016593 -0.028332 119 128 121
0.074383 -0.004820 -0.024432 131 143 133
0.006347 0.045872 -0.034607 118 120 44
0.013754 0.018214 0.003443 94 83 18
-0.117363 -0.033182 0.084818 86 94 22
0.040313 0.006897 -0.007157 142 136 69
-0.025224 -0.015430 0.054118 97 87 26
-0.135201 0.000081 0.060868 73 78 12
0.070390 -0.032631 -0.030457 134 148 139
0.049671 -0.042206 -0.000532 145 145 145
0.048888 -0.046688 -0.001507 144 148 141
0.044817 -0.051873 0.002068 144 148 143
-0.047640 0.049949 -0.005657 82 92 24
0.065374 0.008206 -0.006182 126 132 130
0.063324 -0.039452 -0.022732 139 148 141
0.068830 -0.026255 -0.025932 137 146 139
0.042886 -0.049951 0.007143 145 146 140
0.021684 0.039925 -0.007307 82 81 14
0.011066 0.017273 0.005993 91 85 20
0.076537 0.012342 -0.021482 121 128 122
0.088325 0.012444 -0.039107 123 137 126
0.042839 0.032056 -0.035707 84 83 16
0.056206 -0.031597 -0.007707 147 148 144
-0.110939 0.069155 0.022368 121 129 114
0.031188 0.037169 -0.020607 87 82 23
0.031229 -0.054634 0.022493 149 146 143
-0.017981 0.041466 -0.020182 113 114 35
-0.081570 0.019520 0.032018 84 96 20
-0.129684 -0.045951 0.073968 104 117 116
0.084709 -0.024904 -0.047632 132 145 144
0.059499 -0.041174 -0.016707 140 149 142
0.087861 0.016701 -0.037607 114 129 126
0.083102 -0.001047 -0.036632 128 141 136
0.038467 0.046206 -0.029507 77 78 20
-0.024057 -0.084172 0.116968 113 110 105
-0.042276 -0.095361 0.115118 90 96 96
0.013994 0.004321 -0.153132 90 98 95
-0.021895 0.022843 0.024818 125 117 48
0.009072 0.044065 -0.026507 123 118 46
-0.003171 0.034374 -0.000182 124 119 49
0.043421 0.031012 -0.036132 90 88 28
-0.096320 -0.055108 0.095568 113 126 123
0.017174 0.046731 -0.032657 111 113 39
-0.102280 0.069313 0.027093 112 124 116
-0.108113 -0.081948 0.074093 108 122 124
0.079754 -0.037577 -0.045482 130 148 142
0.014016 0.004324 -0.153132 114 117 116
0.086680 -0.000499 -0.041382 122 137 136
0.084030 -0.008181 -0.041557 128 144 133
0.014096 0.004331 -0.153132 129 144 143
0.030121 0.007158 -0.010232 147 139 55
0.027019 0.036291 -0.014282 95 93 29
0.081470 -0.029079 -0.044882 138 146 145
0.060502 -0.011175 -0.006257 138 143 133
-0.102789 0.031484 0.022493 62 70 16
0.034774 0.033504 -0.075782 62 68 8
-0.104855 -0.068214 0.082493 109 122 119
0.014008 0.004328 -0.153132 37 43 43
0.065834 0.033577 -0.072932 78 97 15
0.062166 0.020661 -0.042357 126 126 34
0.074779 0.018327 -0.016757 112 119 113
-0.107455 0.044486 0.027718 64 70 1
0.051234 0.033232 -0.076357 113 122 47
0.043847 0.021739 -0.034432 98 93 21
-0.015019 0.016504 0.037943 81 74 14
0.014018 0.004327 -0.153132 80 76 79
0.059094 0.028807 -0.059407 78 86 16
-0.037808 0.040937 -0.020332 110 110 34
0.090153 0.016372 -0.041457 113 129 120
-0.094873 -0.048995 0.098543 113 126 123
-0.046396 0.032133 -0.002007 114 117 47
-0.065600 -0.010273 0.098718 82 78 10
-0.004924 0.034150 0.000393 126 120 39
0.014017 0.004325 -0.153132 119 122 121
-0.018575 0.033956 -0.005082 123 120 38
0.013992 0.004329 -0.153132 95 106 102
-0.031872 0.019188 0.034693 117 113 36
0.014025 0.004349 -0.153132 104 105 96
0.043338 -0.007086 0.021768 140 136 137
-0.015764 0.028648 0.011143 126 124 44
-0.040478 0.041983 -0.019032 104 106 30
0.082372 0.007079 -0.032332 127 137 125
-0.105019 0.044779 0.027843 67 77 16
0.055715 0.031426 -0.071432 114 125 36
0.057264 -0.001383 0.002643 134 138 133
-0.054701 0.006586 0.068343 101 97 29
0.009016 -0.005346 0.020443 127 123 46
0.054845 0.031704 -0.072207 117 127 43
0.084352 0.006498 -0.035107 121 137 128
0.002581 0.005952 0.017743 95 90 20
-0.000349 0.042632 -0.024457 121 122 43
0.025700 0.048636 -0.034882 114 116 53
-0.100887 -0.086314 0.076293 104 123 125
0.009130 0.031659 0.008293 85 83 21
0.026881 0.011191 -0.011307 110 99 34
0.039532 0.013500 -0.025532 145 136 59
-0.107079 -0.004478 0.077518 65 75 7
0.044874 -0.027286 0.010843 148 146 138
0.063806 0.012153 -0.002782 119 119 115
0.047013 -0.050641 -0.000407 144 148 143
0.070023 0.028064 -0.060432 106 128 31
0.052199 0.028131 -0.046382 87 87 23
-0.069497 -0.051914 0.116043 91 91 91
0.040387 0.034901 -0.031932 88 88 24
0.013984 0.004380 -0.153132 86 92 21
-0.015307 -0.004308 0.039843 97 96 27
0.052388 0.031704 -0.072382 115 121 36
-0.027873 0.028507 0.005468 121 114 36
-0.117701 -0.071105 0.072543 106 123 128
0.055095 0.005866 0.008493 125 125 121
0.039186 -0.023454 0.022318 145 146 137
0.030113 0.026423 -0.017382 98 92 25
0.077332 0.027769 -0.057182 108 121 41
0.054802 -0.050938 -0.013257 137 149 141
0.074041 -0.011833 -0.027132 135 144 135
0.015725 -0.054000 0.046293 139 136 131
0.002675 0.034051 0.005893 128 121 45
0.077804 -0.017194 -0.034732 101 112 108
0.035920 0.031832 -0.026407 98 94 26
0.079895 -0.027150 -0.042457 131 149 147
0.015460 0.015002 0.001793 89 81 12
0.062612 -0.044760 -0.023357 141 150 143
0.016494 0.040780 -0.010657 117 114 32
0.076416 0.019493 -0.018832 111 119 118
0.074802 0.028107 -0.059457 110 119 40
-0.038249 -0.041391 0.142368 72 75 74
-0.001054 0.035849 -0.001182 123 119 40
-0.068097 -0.024888 0.099018 80 79 12
-0.082557 0.063641 0.039118 70 78 63
0.061120 -0.016853 -0.008657 140 142 133
-0.133422 -0.033506 0.078268 93 107 98
0.053956 -0.044283 -0.009282 142 148 146
-0.111196 -0.022706 0.073043 82 86 11
0.075394 -0.028592 -0.036182 131 149 145
-0.022483 0.001219 0.048218 88 82 17
0.035701 0.048305 -0.026057 62 58 6
0.014090 0.004379 -0.153132 113 121 49
0.090024 0.017969 -0.040432 117 130 127
-0.102721 0.033984 0.025143 63 68 15
0.089149 0.014940 -0.040132 113 132 122
0.057422 0.029818 -0.053282 82 84 21
-0.134802 -0.045547 0.072893 104 115 115
0.080507 0.002907 -0.031532 129 136 128
0.024195 0.047642 -0.031082 119 119 45
0.013962 0.004327 -0.153132 108 121 116
-0.076190 -0.069440 0.100993 91 99 96
0.014015 0.004328 -0.153132 106 106 102
-0.120404 -0.025107 0.069893 83 89 18
0.044392 0.024626 -0.035357 93 86 26
0.087893 0.021280 -0.035807 106 122 113
-0.018886 0.036783 -0.010782 126 122 43
-0.053423 -0.029030 0.083818 94 90 22
0.080152 0.007418 -0.029357 127 134 128
-0.124056 0.002688 0.068668 71 73 10
0.019571 -0.041328 0.042718 141 142 133
0.030072 -0.046622 0.028343 151 146 142
-0.125173 -0.023062 0.065318 71 76 12
0.030294 0.020633 -0.017532 100 91 25
-0.071121 -0.016959 0.099218 79 74 13
0.064074 0.000378 -0.007457 136 141 129
-0.027588 -0.015775 0.054543 71 64 6
0.018885 0.030087 0.002368 39 34 5
0.058533 0.028325 -0.062782 122 131 45
0.011088 0.046746 -0.036507 120 121 42
0.074003 0.012946 -0.018057 122 133 129
0.065803 0.030238 -0.067007 110 121 32
0.016158 0.038082 0.002968 40 34 8
-0.109242 -0.042961 0.091193 108 123 122
-0.137940 -0.034659 0.074118 104 112 111
-0.061979 0.009245 0.057043 98 95 20
0.014013 0.004327 -0.153132 108 109 103
0.013992 0.004367 -0.153132 116 117 36
0.064612 -0.030158 -0.020607 141 150 143
-0.039836 0.032175 -0.002382 117 117 43
-0.118611 0.004643 0.071843 81 87 16
-0.102601 0.031322 0.023968 60 71 5
-0.134406 -0.062130 0.062218 102 120 116
0.084635 0.009774 -0.035357 123 137 126
-0.047595 0.023316 0.016218 118 116 38
0.079642 -0.025701 -0.041507 133 148 143
0.054527 0.031110 -0.070182 116 125 35
0.031402 -0.056655 0.021643 143 147 140
0.030785 -0.056437 0.023243 146 146 140
-0.071785 -0.065923 0.107993 97 103 103
0.044393 0.036852 -0.037332 88 82 26
-0.105454 0.035968 0.024543 56 65 6
0.070131 0.028383 -0.061807 105 123 32
0.060956 0.030241 -0.067207 111 124 44
-0.055254 0.014967 0.048668 100 95 25
0.051406 0.033086 -0.075532 111 120 45
0.071486 -0.037466 -0.033607 136 150 141
0.069897 0.023097 -0.047407 121 126 44
0.078812 -0.020625 -0.037732 133 145 137
-0.027730 0.023199 0.020868 124 119 45
-0.061835 -0.075524 0.109993 168 177 170
0.049793 -0.025820 0.004443 143 144 135
-0.083217 -0.018279 0.091493 85 87 22
0.014064 0.004390 -0.153132 77 82 20
-0.100205 -0.062368 0.089493 109 122 117
0.073035 -0.030016 -0.033307 139 151 143
0.014016 0.004340 -0.153132 107 101 103
-0.004334 0.026947 0.025293 78 73 12
-0.102658 0.028417 0.021718 63 68 15
-0.007259 0.031083 0.010568 128 120 47
-0.130382 -0.043575 0.074543 104 117 114
-0.100796 -0.055307 0.091893 110 122 124
-0.027892 0.013905 0.054543 84 79 20
0.038241 -0.018490 0.026768 148 144 137
-0.114078 0.016554 0.032318 90 98 28
0.068961 -0.002189 -0.016307 138 140 131
0.053231 0.033925 -0.077182 104 116 45
-0.098307 -0.080223 0.080368 110 130 125
0.067269 0.029033 -0.063582 113 124 37
0.013969 0.004386 -0.153132 0 2 0
0.047558 0.024903 -0.039557 97 96 29
0.045410 0.032638 -0.038582 87 87 25
-0.001815 0.034803 -0.000282 127 124 53
-0.104955 0.019615 0.026743 94 96 20
0.054481 -0.016201 0.000743 143 147 142
0.015896 0.043464 -0.023257 123 118 44
0.034989 0.048430 -0.028082 59 57 7
0.051381 0.032843 -0.075107 112 121 44
-0.012600 0.028739 0.010943 124 119 47
0.069065 0.029063 -0.064182 112 115 36
0.069630 0.027694 -0.058907 118 128 46
0.069070 0.003613 -0.013482 135 137 128
0.014865 -0.040587 0.050418 139 140 129
0.014018 0.004344 -0.153132 98 98 98
-0.081923 0.065815 0.034568 80 88 75
0.014028 0.004323 -0.153132 137 138 129
-0.071027 -0.060820 0.109793 89 93 88
-0.057419 0.021979 0.021418 120 118 40
-0.012979 -0.093083 0.090268 119 126 120
0.013755 0.024316 0.002693 91 84 22
0.000878 0.018053 0.018718 88 82 15
0.040853 0.034990 -0.032632 86 89 21
-0.089427 0.025403 0.030068 57 55 5
-0.091775 0.032681 0.031118 61 69 15
-0.023567 0.043924 -0.026957 101 105 32
-0.129479 -0.064423 0.066518 106 118 122
0.029288 0.048893 -0.033257 116 113 40
-0.106867 0.069407 0.021318 118 128 116
-0.016182 0.044742 -0.031732 118 119 50
0.066965 -0.042708 -0.028782 139 152 147
0.047055 0.023617 -0.039282 94 89 19
0.013959 0.004323 -0.153132 104 122 120
0.049878 -0.016100 0.007943 145 145 139
-0.083346 -0.086380 0.090468 108 118 121
0.058903 0.004895 0.001993 131 127 130
0.066000 -0.037681 -0.025782 142 150 147
0.031130 0.011647 -0.016407 115 110 36
-0.057436 -0.086873 0.106618 88 98 103
-0.078828 -0.072478 0.100568 92 98 98
0.064494 0.027482 -0.059207 121 131 36
0.059229 0.023677 -0.050507 127 133 48
-0.053085 0.018622 0.030943 118 115 40
-0.104177 0.068090 0.027368 119 126 118
0.059942 -0.029339 -0.013532 147 151 144
0.058965 -0.003262 -0.000882 139 139 133
0.014024 0.004328 -0.153132 125 126 120
0.043151 0.042667 -0.037207 74 72 10
-0.099429 -0.022618 0.080918 87 89 24
0.050833 0.015599 -0.031182 137 133 54
-0.137857 0.008248 0.061518 88 90 25
0.065934 -0.021002 -0.019707 140 147 139
0.059323 0.008344 0.003443 125 121 122
0.046593 -0.013329 0.014118 146 143 138
0.077286 -0.027643 -0.038657 135 150 145
0.062246 -0.022158 -0.013082 144 145 139
-0.128418 -0.079078 0.063193 104 116 120
0.081010 0.010030 -0.029782 124 136 128
0.079215 -0.001056 -0.030607 128 142 133
0.054593 -0.046109 -0.010382 143 155 147
-0.031190 0.022337 0.022418 122 117 45
0.083382 -0.009706 -0.040482 128 142 131
0.089481 0.017855 -0.040007 105 125 120
-0.022331 -0.041041 0.128118 101 100 100
-0.045738 0.056501 -0.006082 95 100 34
0.081372 0.005408 -0.030932 131 140 131
0.045239 0.037078 -0.039207 84 83 16
-0.023656 0.032802 -0.004307 123 123 51
-0.091390 0.055326 0.053393 33 38 8
0.066308 -0.030288 -0.022682 141 148 142
-0.128447 -0.075422 0.060618 110 122 124
-0.136001 -0.078529 0.057368 112 120 121
0.065686 -0.044033 -0.027232 134 148 137
0.046005 0.031596 -0.071282 120 130 48
0.013991 0.004394 -0.153132 84 91 26
-0.079317 0.017110 0.036543 93 100 22
0.071435 0.006656 -0.015182 127 134 128
0.013981 0.004377 -0.153132 89 91 30
0.077809 -0.020745 -0.036782 132 146 137
0.069415 0.035984 -0.070482 50 50 0
0.013982 0.004324 -0.153132 114 128 130
0.060528 0.032147 -0.073657 106 114 33
0.044110 -0.020326 0.016718 148 144 135
0.086107 0.028977 -0.034782 94 99 87
-0.103355 0.068762 0.028143 117 126 117
0.082902 0.017518 -0.029957 116 127 123
-0.004482 0.047557 -0.040632 115 122 46
0.046852 0.031546 -0.039982 89 87 25
-0.081792 0.023035 0.033243 103 112 37
-0.125024 -0.075870 0.063093 107 124 127
-0.100608 -0.056244 0.088468 111 121 124
-0.002134 0.040907 -0.015682 123 121 41
-0.107710 0.067095 0.029093 119 126 120
0.044450 0.014606 -0.029132 144 136 63
-0.106029 0.068211 0.029993 117 125 114
0.038063 -0.045576 0.016218 148 148 142
0.060037 -0.043384 -0.018932 141 149 148
0.043698 0.032587 -0.074382 118 124 37
0.040871 -0.051599 0.009893 144 148 141
0.038414 0.038573 -0.030232 82 84 21
0.058534 -0.026965 -0.010832 105 109 104
0.041562 0.018027 -0.031057 114 105 39
0.077622 -0.026300 -0.038657 131 149 147
-0.050973 0.020591 0.025868 118 115 42
0.089128 0.013444 -0.039157 121 134 129
-0.010959 -0.003117 0.034793 99 95 27
0.007093 -0.006717 0.024068 129 124 50
-0.136083 -0.011297 0.059893 74 76 15
0.076923 -0.000004 -0.027282 131 141 129
-0.087591 -0.054751 0.101093 107 118 116
-0.099954 0.063156 0.036643 113 126 121
0.051652 0.026832 -0.045482 89 87 23
0.083676 -0.026473 -0.047557 129 144 141
0.085541 0.016908 -0.034857 116 125 118
-0.090059 0.063480 0.038143 81 92 73
0.014054 0.004396 -0.153132 68 72 15
0.004073 0.037804 -0.002907 123 120 47
-0.111604 -0.071088 0.078068 107 122 121
-0.105102 -0.001990 0.079268 73 75 12
-0.111283 -0.063919 0.079043 105 122 125
0.056135 0.033035 -0.075207 109 116 38
0.078348 0.001686 -0.028632 132 141 134
-0.101055 -0.085978 0.076293 104 126 125
-0.088841 0.054284 0.042768 34 42 0
-0.082277 0.011880 0.049193 98 100 26
-0.116080 -0.032124 0.082493 86 94 24
0.030806 -0.005096 0.041493 122 121 121
-0.119589 -0.065121 0.074068 107 120 115
0.053358 -0.013043 0.004843 143 144 135
0.014096 0.004339 -0.153132 123 143 136
-0.030166 0.046035 -0.029207 99 99 27
0.004043 0.020516 0.014218 88 84 18
-0.137310 0.004471 0.059643 63 69 0
0.063528 0.002691 -0.004282 130 134 129
0.031008 -0.041181 0.028393 145 146 137
0.054673 0.030797 -0.069632 115 125 32
0.041747 -0.017991 0.019843 146 144 134
0.023805 0.046909 -0.030357 120 117 42
-0.014004 0.044067 -0.029957 119 120 41
0.016843 0.039558 0.002918 29 27 4
0.044861 -0.054119 0.002293 144 148 141
-0.019115 0.043622 -0.029082 114 114 38
-0.034869 0.039113 -0.017957 115 114 31
-0.003532 0.042534 -0.022532 123 123 49
-0.099149 0.031943 0.026318 62 67 14
0.080992 0.009209 -0.029982 127 137 125
-0.041842 -0.026632 0.071468 112 104 33
-0.121333 0.006587 0.068468 74 98 14
-0.068765 0.022298 0.020793 111 113 37
0.013964 0.004387 -0.153132 20 24 3
0.077643 -0.024486 -0.037857 128 146 142
0.081815 -0.007322 -0.037082 121 140 128
0.059025 0.028934 -0.055057 85 88 18
0.038938 -0.020506 0.024218 147 145 137
0.046585 -0.050716 0.000743 144 148 143
-0.068633 0.011732 0.049193 100 100 26
-0.025783 0.031804 -0.000757 122 120 42
-0.060742 -0.088960 0.105543 99 107 106
-0.087524 0.067920 0.029543 104 118 107
0.088000 0.018157 -0.038182 110 129 117
0.076397 -0.013873 -0.032582 130 141 139
0.068596 -0.022731 -0.024057 117 120 119
0.038636 -0.018094 0.026768 143 143 137
-0.072318 -0.030674 0.096793 83 83 19
0.013969 0.004334 -0.153132 103 114 112
0.063169 -0.004525 -0.007607 139 141 132
0.007714 0.047800 -0.038907 122 119 44
-0.004993 0.016880 0.025343 88 82 17
-0.107169 -0.033495 0.085693 95 99 22
-0.046648 0.039348 -0.010532 109 109 45
-0.085640 -0.058980 0.100868 102 113 111
0.020910 0.045556 -0.029007 122 116 35
-0.134178 -0.041790 0.073968 102 122 117
0.014001 0.004328 -0.153132 171 179 176
-0.083841 -0.065275 0.100068 100 105 110
0.030033 -0.015261 0.039068 140 140 136
-0.088353 -0.042879 0.104418 97 106 54
0.039395 -0.052969 0.010393 146 147 141
0.053670 0.031475 -0.072182 117 124 30
0.040012 0.029548 -0.031607 94 89 28
-0.031046 0.052689 -0.027257 93 99 39
0.014270 -0.044837 0.051968 140 140 134
0.067111 0.009747 -0.008207 128 128 128
0.014013 0.004342 -0.153132 74 75 71
0.081957 -0.009728 -0.038282 119 138 128
-0.099820 0.017099 0.032343 94 96 22
0.066216 -0.023189 -0.020482 105 111 109
-0.010211 0.034953 -0.004457 124 119 47
-0.001557 -0.024578 0.090193 110 108 98
-0.002035 -0.072972 0.076618 129 129 123
0.031967 0.015590 -0.018407 101 97 29
-0.095631 0.021123 0.025943 81 92 19
-0.039806 -0.028079 0.074693 115 111 34
-0.088748 0.038742 0.036243 37 48 2
0.069440 0.011834 -0.010957 124 130 128
-0.011158 0.044265 -0.030182 118 122 47
0.024701 0.044222 -0.019107 120 116 39
0.085367 -0.015919 -0.046882 128 146 142
-0.105375 -0.013671 0.076193 76 83 18
0.081804 -0.026114 -0.044982 130 148 142
0.016589 0.005007 0.001368 108 103 33
-0.095767 0.036984 0.031018 56 70 3
0.069661 -0.040463 -0.031657 140 152 142
-0.050288 0.011079 0.056593 101 96 24
0.000024 0.041797 -0.021757 122 120 42
0.067454 -0.031805 -0.025432 132 147 144
0.051765 -0.053288 -0.008382 140 150 138
-0.125427 -0.045999 0.078793 103 115 117
0.036814 -0.055162 0.015243 146 147 141
0.050177 0.029675 -0.044457 90 85 24
0.088020 -0.001191 -0.043882 127 140 139
0.060147 0.028956 -0.063382 117 129 49
0.010693 -0.076252 0.050068 131 133 124
-0.084847 0.013195 0.045418 92 99 25
0.019499 0.032799 0.000393 87 82 21
-0.082461 -0.017195 0.091393 82 80 18
-0.100722 0.048838 0.032043 62 67 12
0.054463 0.012757 -0.011207 137 132 71
-0.036593 -0.020020 0.061093 101 95 28
-0.088384 0.050892 0.042993 37 41 0
0.041367 -0.018878 0.019843 145 143 133
-0.089041 -0.046342 0.102843 111 117 115
-0.052277 0.021750 0.021693 117 119 43
0.046289 0.019152 -0.036307 118 115 42
-0.011317 -0.061431 0.096743 123 124 118
-0.132957 -0.024003 0.060343 76 83 16
-0.019330 -0.058706 0.115568 117 116 116
0.035997 -0.039582 0.020493 106 103 100
-0.048186 -0.087017 0.116018 104 110 110
-0.142878 -0.035665 0.068618 97 115 113
0.013979 0.004364 -0.153132 97 99 25
0.014021 0.004347 -0.153132 109 103 88
0.046480 0.033493 -0.039832 86 86 22
0.024687 -0.026128 0.039193 101 101 97
0.057135 -0.033119 -0.009232 143 147 140
0.067961 0.010666 -0.009057 128 129 125
-0.127853 -0.000027 0.066243 77 82 16
-0.045654 0.022894 0.019218 122 121 38
-0.012868 0.041492 -0.017957 113 109 30
0.045543 0.033363 -0.038707 84 82 20
0.025295 -0.056610 0.026418 130 130 126
0.007097 0.039643 -0.003982 84 75 25
-0.088200 0.066770 0.033718 91 101 89
0.024675 -0.038065 0.034018 116 117 113
-0.077426 -0.082515 0.095243 77 95 89
0.064183 0.031096 -0.068882 105 120 28
-0.077264 -0.036737 0.095793 96 97 30
0.080390 0.000522 -0.032232 128 142 133
0.063564 -0.020860 -0.015132 144 145 139
0.030693 -0.017831 0.036943 142 140 130
0.051880 0.004447 0.013643 126 127 123
-0.056754 0.011526 0.056168 101 96 24
0.055320 -0.030866 -0.006307 140 141 135
0.013959 0.004331 -0.153132 107 115 112
-0.047531 0.057997 -0.002482 91 98 31
0.061477 -0.026885 -0.014432 123 132 123
0.035313 -0.030050 0.026543 146 148 139
-0.067247 -0.009132 0.101568 77 72 13
0.014097 0.004321 -0.153132 124 146 145
0.038573 0.049242 -0.029882 65 64 9
-0.108032 -0.066372 0.080968 103 121 119
-0.014455 0.019443 0.037918 78 77 10
0.014006 0.004342 -0.153132 113 109 43
-0.088547 -0.088110 0.083918 111 126 123
0.014002 0.004364 -0.153132 121 116 42
-0.013661 0.044967 -0.031857 122 124 52
-0.059752 -0.034806 0.093968 98 97 28
-0.077509 -0.035172 0.093993 93 93 17
0.072528 0.024531 -0.049207 104 118 28
0.045293 0.023060 -0.036507 97 94 21
0.084943 -0.015429 -0.046582 127 142 139
0.014022 0.004348 -0.153132 113 110 80
-0.121484 -0.007342 0.070868 69 78 17
0.043930 0.042131 -0.037807 75 80 14
0.013960 0.004319 -0.153132 117 125 126
-0.106672 -0.081101 0.076743 109 119 122
0.045889 0.025144 -0.037757 95 94 27
-0.098098 0.006901 0.067493 86 93 19
0.017972 0.033493 0.002293 38 34 7
-0.111562 0.064083 0.028868 97 117 102
0.079533 -0.009084 -0.035057 131 146 128
0.032302 0.046576 -0.023057 69 65 13
-0.106790 0.071354 0.019743 122 130 119
0.045247 -0.017216 0.014793 146 143 138
0.040448 -0.024943 0.020468 145 143 135
0.035202 -0.020396 0.030143 145 143 131
0.014022 0.004331 -0.153132 126 127 118
-0.049652 0.006597 0.069418 84 85 18
-0.106559 -0.004659 0.077818 67 75 5
0.051700 0.035725 -0.046907 85 87 22
0.074705 0.015504 -0.018257 119 131 123
-0.044999 0.035355 -0.008682 110 112 38
0.006708 0.042563 -0.022432 121 116 42
0.047413 -0.053864 -0.003632 139 148 139
0.067147 0.033750 -0.072457 81 81 19
0.059908 0.022805 -0.049482 131 133 47
-0.065460 0.012452 0.048668 100 100 28
-0.038437 -0.065325 0.133918 85 82 79
0.085078 0.010027 -0.035482 120 136 125
-0.104348 0.071081 0.019693 121 129 118
0.010327 0.038908 -0.001932 80 72 17
0.014097 0.004340 -0.153132 136 147 147
0.084629 0.018175 -0.032107 113 126 125
0.043261 0.014991 -0.029932 145 138 62
-0.100206 0.022135 0.021693 89 101 21
0.032478 -0.058517 0.019718 144 145 139
-0.073682 -0.077516 0.102368 86 93 87
0.072205 -0.006814 -0.023182 134 141 133
0.065987 0.006562 -0.008082 131 132 126
-0.051553 0.033955 -0.002882 112 112 36
0.062465 0.009342 -0.001107 126 126 122
-0.082102 -0.031351 0.091393 87 89 15
0.014023 0.004350 -0.153132 133 123 55
0.043262 -0.051661 0.005993 147 147 143
0.026188 0.022938 -0.012107 101 94 32
0.039526 0.026165 -0.030082 99 98 29
-0.030772 0.021825 0.026418 120 120 48
0.083522 0.008695 -0.034157 125 141 130
0.083176 -0.028521 -0.048432 130 148 142
0.004817 0.043878 -0.027982 121 122 41
-0.093442 -0.006727 0.085918 75 77 12
0.026418 0.045656 -0.024732 118 116 36
0.051502 -0.045869 -0.005232 145 149 144
0.071549 -0.031356 -0.031432 138 151 146
0.063349 -0.002109 -0.006757 139 140 134
0.052835 -0.034629 -0.003007 144 148 141
-0.045998 -0.085310 0.118618 82 89 93
-0.082009 -0.050742 0.107693 100 100 104
0.048272 0.018095 -0.036557 137 131 48
-0.011682 -0.074055 0.094968 125 126 122
-0.020641 0.010545 0.044443 89 80 16
0.074748 -0.029701 -0.035607 137 151 142
-0.137876 -0.054508 0.063793 107 121 110
0.059755 -0.015975 -0.006582 144 145 136
-0.083891 -0.016223 0.090493 83 87 28
-0.000105 0.045766 -0.035157 120 120 48
-0.015861 0.042542 -0.020507 109 109 37
-0.013213 -0.002929 0.037068 96 90 23
0.014010 0.004331 -0.153132 93 96 97
-0.083966 -0.027023 0.089793 91 86 23
0.014056 0.004393 -0.153132 67 66 9
0.067531 -0.043402 -0.029582 133 152 140
-0.074960 -0.067799 0.104443 94 100 100
0.084740 0.005711 -0.035757 129 144 128
-0.033697 -0.005523 0.056643 85 75 16
0.048255 0.022748 -0.040007 95 99 24
-0.130703 0.009708 0.057068 94 103 26
-0.090746 0.070250 0.021518 118 134 125
0.042759 0.031373 -0.035682 88 86 24
0.071812 -0.017683 -0.026957 131 143 135
0.034705 0.040742 -0.024132 83 81 21
-0.048089 -0.063674 0.085343 16 21 11
-0.018225 -0.045452 0.119543 111 112 108
0.077479 -0.031251 -0.040257 129 144 139
-0.069242 -0.031845 0.098568 88 88 24
-0.124568 -0.039684 0.081368 107 118 118
0.085987 0.027523 -0.031007 97 108 106
0.022392 0.048860 -0.037457 113 111 47
-0.076482 -0.067586 0.102343 84 93 84
-0.093049 -0.075761 0.088593 110 123 122
0.070245 -0.017978 -0.024182 138 143 131
0.079409 0.012856 -0.026757 118 130 122
-0.118751 0.011952 0.047168 89 101 21
0.071391 -0.008508 -0.022432 138 146 135
0.050850 -0.003048 0.011768 136 136 132
0.046961 0.042111 -0.041857 76 75 18
0.014442 0.045318 -0.030807 116 116 40
0.032800 -0.035058 0.028993 149 147 139
0.055187 0.020456 -0.043207 126 125 42
-0.029810 0.032902 -0.003782 114 116 40
0.012514 0.041709 -0.018957 124 120 43
0.036567 -0.024211 0.027093 147 145 137
0.068931 -0.004491 -0.016382 138 142 135
0.014014 0.004331 -0.153132 98 98 98
0.033011 -0.029456 0.029743 147 147 141
-0.098728 -0.063438 0.090143 111 124 121
-0.095610 -0.041850 0.099818 102 109 85
0.076541 0.010443 -0.022882 123 134 130
-0.020521 0.032242 -0.000807 124 117 41
0.034580 0.019531 -0.021907 102 97 27
-0.057033 -0.006082 0.087218 78 76 12
0.070314 -0.035355 -0.031207 138 152 143
0.005584 0.014789 0.012868 89 87 25
0.054343 -0.011310 0.003718 145 142 137
0.088685 0.012175 -0.040582 122 136 125
0.013960 0.004341 -0.153132 92 112 95
-0.076032 -0.036575 0.095918 100 97 26
0.081358 0.011476 -0.029807 124 133 124
0.065877 -0.007074 -0.012982 137 141 136
-0.069997 -0.051917 0.115118 93 97 92
-0.082788 0.044989 0.041568 86 86 22
0.073988 -0.036816 -0.037407 133 149 140
-0.072259 -0.075296 0.104268 89 101 93
0.075057 -0.008138 -0.027132 137 147 135
0.047595 0.017117 -0.035332 137 135 55
0.008324 -0.015589 0.073168 105 106 100
-0.021050 0.034726 -0.006082 123 119 51
0.025587 -0.029260 0.037768 93 87 93
0.078358 -0.003408 -0.030357 130 142 134
-0.099776 0.014356 0.037043 91 102 29
-0.134648 -0.044837 0.070418 108 119 117
0.072979 -0.033127 -0.034307 136 151 146
0.018374 -0.011178 0.054143 113 110 105
0.014016 0.004332 -0.153132 105 105 101
0.070986 -0.017203 -0.024857 137 142 132
-0.050231 -0.086813 0.073768 130 140 128
-0.051912 -0.054371 0.126818 101 107 107
-0.006448 -0.000452 0.027793 104 100 32
-0.052387 -0.060189 0.125368 104 110 110
0.029963 -0.043769 0.028618 113 109 110
-0.032140 0.027148 0.008193 118 109 43
0.078240 0.021799 -0.020757 110 119 112
0.063136 0.027289 -0.059432 113 119 34
0.060523 0.028661 -0.056432 84 90 19
-0.009776 0.013413 0.032018 87 83 15
-0.028475 -0.102947 0.119918 101 108 102
0.013999 0.004319 -0.153132 101 116 115
0.072656 -0.038945 -0.035307 134 152 148
-0.080773 -0.044400 0.109568 93 93 40
0.014010 0.004344 -0.153132 114 111 40
0.069728 -0.027421 -0.026857 139 148 139
0.008142 -0.039676 0.067543 135 130 128
0.045748 -0.046698 0.003293 145 148 147
-0.058070 0.021916 0.022068 119 116 43
0.049338 0.020391 -0.040257 119 121 33
0.049632 0.025277 -0.042432 98 95 24
-0.092230 -0.063767 0.093268 111 123 127
0.051477 0.030554 -0.045757 82 84 21
0.080985 -0.018930 -0.040207 135 148 143
0.037769 -0.055387 0.014143 142 146 139
0.016569 0.017248 0.000143 91 84 24
0.080216 0.003792 -0.030082 129 141 131
0.045840 0.039071 -0.040332 82 80 18
0.051433 0.030847 -0.070432 122 125 44
0.043624 -0.029725 0.013968 149 144 140
-0.025209 0.034286 -0.006657 120 118 40
0.058629 0.025518 -0.053532 109 109 17
0.076352 -0.028570 -0.038057 137 150 145
0.064078 -0.042165 -0.024482 140 148 145
-0.111389 -0.025072 0.073393 78 89 16
0.066403 -0.029236 -0.022682 139 148 141
-0.125542 -0.077136 0.062668 110 120 125
0.058186 -0.041088 -0.013907 142 149 141
-0.101538 -0.006704 0.081718 70 80 14
-0.080535 0.069494 0.020868 115 126 122
0.056272 0.030989 -0.070932 116 123 31
0.033491 0.037211 -0.022757 93 86 24
0.029566 0.040045 -0.017807 87 86 31
0.013994 0.004329 -0.153132 89 97 96
0.014035 0.004333 -0.153132 123 127 122
-0.031316 0.034914 -0.009757 121 118 43
-0.057084 0.012026 0.053118 98 96 32
-0.108182 -0.022085 0.074843 77 87 19
0.062163 -0.012610 -0.008707 139 141 132
0.009737 -0.074117 0.053068 131 132 126
-0.018573 0.041291 -0.019757 117 117 41
-0.054747 -0.027668 0.086618 84 86 12
-0.097021 -0.025407 0.081268 83 85 20
-0.001875 0.029414 0.017168 103 101 39
-0.096430 -0.080873 0.080743 111 128 129
-0.045722 0.017320 0.037593 119 119 45
0.059272 0.029407 -0.055457 81 83 18
0.051630 0.019272 -0.040582 131 133 47
0.055225 0.022580 -0.047257 125 127 51
-0.094045 0.020879 0.026143 89 98 19
-0.010033 0.027963 0.015718 125 117 44
-0.096174 0.013838 0.046693 94 104 22
0.040179 0.025567 -0.030407 98 93 32
-0.085752 0.060968 0.044043 73 77 70
0.014025 0.004332 -0.153132 132 133 124
-0.072730 -0.012290 0.098518 76 76 14
0.089696 0.026120 -0.036607 98 111 98
0.057360 0.009601 0.006793 118 119 115
0.072681 -0.012005 -0.025057 135 143 132
0.069908 -0.028534 -0.027907 142 151 144
0.011448 -0.071485 0.049268 133 138 128
-0.070722 -0.086316 0.100793 89 95 93
0.038560 -0.027243 0.023368 148 143 139
0.011750 -0.003231 0.015843 134 125 36
0.080887 -0.037030 -0.047682 134 148 150
0.026178 0.036902 -0.013407 92 86 19
0.025801 0.041322 -0.011782 86 81 20
0.005349 0.036286 -0.000157 124 124 50
0.010933 0.013590 0.006843 92 86 19
0.083434 0.006773 -0.034307 128 139 137
-0.096818 -0.074084 0.085643 109 124 123
0.041837 -0.056995 0.006518 142 146 141
0.088241 0.013448 -0.039107 121 132 128
0.089884 0.015680 -0.041007 112 130 124
-0.133789 -0.056892 0.068393 104 122 120
0.065088 0.028244 -0.062082 120 126 37
0.013960 0.004319 -0.153132 105 120 117
-0.020167 0.010249 0.044218 89 82 20
-0.024414 0.009227 0.049843 89 82 24
0.027519 -0.042538 0.031643 141 141 135
0.031392 0.045645 -0.020532 68 68 6
-0.102747 0.027150 0.022818 58 65 2
-0.037692 -0.023191 0.065068 115 110 36
0.046643 0.021711 -0.038082 102 102 30
-0.034015 0.039499 -0.019507 108 111 30
0.014064 0.004390 -0.153132 72 82 16
-0.063873 -0.080988 0.108418 123 136 135
0.002986 0.011694 0.017293 93 86 26
0.001234 0.035815 -0.001882 131 122 47
0.087262 0.001013 -0.042607 125 139 130
-0.050506 -0.086567 0.073568 126 139 126
0.031384 -0.054674 0.021468 147 148 142
-0.096710 -0.038252 0.099368 89 93 20
0.039039 0.007578 -0.010157 143 136 58
-0.074770 -0.020988 0.096993 84 84 22
-0.075004 0.068863 0.025118 87 90 74
0.054479 0.032310 -0.073857 112 125 40
-0.107190 0.015734 0.034493 95 104 16
-0.052855 -0.057796 0.125618 105 108 111
-0.125131 -0.045469 0.080293 105 120 119
0.060778 -0.041763 -0.018782 145 152 146
0.054313 0.028903 -0.049407 86 88 25
0.030262 0.003536 0.001068 111 99 27
0.026352 -0.019864 0.043268 122 123 119
0.032587 0.021855 -0.020332 99 94 22
0.043375 -0.054915 0.004718 143 144 138
0.041962 0.027199 -0.033182 96 89 27
-0.123265 -0.073505 0.063568 112 122 127
0.013984 0.004380 -0.153132 86 92 21
0.014031 0.004329 -0.153132 140 137 132
0.048159 -0.015480 0.011618 146 144 136
-0.077852 -0.002781 0.094918 88 89 20
0.068392 0.030841 -0.067507 104 116 22
0.058190 -0.029815 -0.010257 146 147 141
0.031340 0.024228 -0.019432 98 97 30
0.079750 0.000045 -0.031282 130 142 132
0.041490 -0.027149 0.015918 147 145 137
0.076234 -0.021122 -0.033407 132 152 137
0.040628 -0.006967 0.025968 138 134 135
0.042207 -0.050459 0.008643 144 147 146
-0.085414 0.026708 0.033118 55 59 13
0.082273 -0.037157 -0.049107 133 148 143
0.056657 -0.027110 -0.007257 144 145 136
0.014007 0.004326 -0.153132 103 111 112
0.074739 -0.007126 -0.026057 133 140 132
-0.001311 -0.008439 0.028218 127 123 46
0.010816 0.012417 0.006843 95 90 29
-0.014960 0.044411 -0.029732 114 114 38
-0.038870 -0.000905 0.062693 87 82 23
-0.089417 0.030676 0.032218 39 50 4
0.047593 -0.054781 -0.003807 142 149 143
0.062135 0.027912 -0.057457 86 94 24
0.080557 -0.023825 -0.041482 131 149 147
0.014105 -0.005059 0.019843 131 122 56
0.027102 0.011867 -0.012282 105 93 25
0.019577 -0.041236 0.042943 145 143 135
-0.135647 -0.035847 0.075193 105 116 114
-0.007851 0.038749 -0.011282 121 120 35
-0.100458 0.026020 0.023068 63 72 13
-0.014368 0.036304 -0.007732 122 119 44
-0.052669 0.032283 -0.000582 113 118 38
0.085896 0.019841 -0.032957 107 123 114
0.052880 -0.032372 -0.003682 144 148 143
0.071065 -0.035922 -0.032457 131 149 143
-0.044040 0.012091 0.059043 109 101 32
0.011857 0.039679 -0.007882 126 121 47
0.015462 0.007396 0.001943 91 90 21
0.056686 0.030868 -0.069407 115 124 34
0.059932 0.029215 -0.056482 81 86 20
0.059421 -0.009835 -0.004507 141 141 135
0.044856 -0.049867 0.002843 147 149 140
-0.033261 0.037125 -0.013332 112 114 28
0.065090 -0.038262 -0.024307 139 150 146
-0.116351 -0.071177 0.070793 107 121 127
0.083881 -0.018243 -0.045082 127 147 142
0.072878 -0.034190 -0.033982 134 147 142
0.020417 0.018078 -0.001857 50 43 12
0.041246 0.035514 -0.034007 91 89 29
-0.006194 -0.064203 0.085968 127 128 119
-0.093503 0.065393 0.035818 112 127 122
-0.119747 -0.078025 0.069343 105 122 125
0.085624 -0.010479 -0.045082 123 138 133
-0.014138 0.024158 0.026093 122 112 40
-0.047882 -0.065057 0.085893 20 21 12
-0.117092 -0.013444 0.071218 79 82 14
-0.056382 -0.051874 0.126643 84 91 95
-0.089040 -0.078541 0.087918 113 126 125
-0.033779 0.040807 -0.021507 112 114 42
0.062071 -0.033813 -0.017632 141 144 143
0.009023 0.028057 0.007943 93 83 22
0.010903 -0.021949 0.066718 125 120 116
-0.086961 -0.043500 0.104718 104 109 79
-0.005103 0.031957 0.006593 129 121 48
-0.034101 -0.079825 0.128243 74 74 76
-0.064453 0.070123 0.020843 82 83 79
0.014096 0.004332 -0.153132 131 149 147
0.083963 -0.020059 -0.045807 130 147 150
-0.107511 0.071149 0.019868 128 133 123
0.064721 0.033260 -0.072832 93 102 12
0.014033 0.004330 -0.153132 91 91 85
-0.077862 0.067885 0.027918 80 88 75
-0.033015 0.041877 -0.024132 113 113 41
-0.021093 0.044787 -0.031057 118 115 44
-0.097197 0.044929 0.033418 60 68 12
-0.044330 0.018491 0.030993 116 117 38
-0.033332 -0.062262 0.136143 86 87 83
0.074056 0.029354 -0.062657 116 118 53
-0.034567 -0.098709 0.119293 73 79 77
-0.036083 0.024224 0.015493 121 119 39
0.047057 -0.037156 0.004068 146 147 143
0.050543 -0.043094 -0.003382 145 149 144
0.077475 0.008752 -0.024857 122 136 127
0.080382 -0.009112 -0.037057 133 145 135
0.053185 -0.034208 -0.002932 144 148 143
0.051963 0.019103 -0.039332 133 135 49
0.090783 0.024470 -0.039182 106 121 120
0.084882 0.017342 -0.032432 115 128 125
0.027911 -0.008447 0.047068 127 124 119
0.051680 -0.043977 -0.005382 145 149 142
0.027293 -0.030868 0.038143 147 144 141
0.067285 -0.007110 -0.016232 134 141 133
0.013961 0.004339 -0.153132 95 113 107
0.006088 -0.050659 0.066193 133 135 126
-0.088110 0.029128 0.031818 51 55 7
0.066236 -0.036299 -0.025432 135 149 140
0.002085 0.025262 0.015893 87 82 21
-0.027166 0.044946 -0.029757 95 95 21
0.056168 0.028592 -0.051357 84 84 20
-0.066376 -0.030857 0.099418 87 87 23
0.013962 0.004333 -0.153132 102 117 116
-0.028796 0.033779 -0.006507 119 119 43
-0.073474 -0.003270 0.099068 94 89 26
-0.087010 0.070228 0.022143 130 144 135
-0.004080 -0.002531 0.026668 105 100 37
0.074227 -0.027093 -0.033732 135 149 140
0.050467 0.037584 -0.048657 77 84 19
-0.119099 -0.040330 0.085743 104 119 116
0.013966 0.004388 -0.153132 99 118 108
-0.031538 0.034464 -0.008382 116 118 44
0.055356 0.027010 -0.050407 86 87 20
-0.017819 0.033625 -0.004557 122 119 37
0.088534 0.016505 -0.038657 116 129 126
0.006432 0.040677 -0.013857 124 119 45
-0.094557 0.034077 0.030568 64 70 12
-0.133347 -0.032173 0.078418 79 88 52
-0.048882 -0.081004 0.070743 99 108 101
0.066393 0.019706 -0.029057 126 127 58
0.035829 0.028229 -0.025307 95 90 29
-0.071461 -0.053996 0.112943 89 92 91
0.003562 0.043227 -0.024982 122 117 45
0.001610 0.044321 -0.028032 121 119 39
-0.123851 -0.075355 0.067818 106 121 120
0.089731 0.028516 -0.035757 93 108 105
-0.049033 0.038235 -0.007682 111 114 33
-0.112897 0.056346 0.028868 65 64 7
0.007774 0.046771 -0.036907 121 122 43
0.023650 0.048333 -0.036607 115 115 51
-0.103961 0.017439 0.029493 94 102 30
0.040730 -0.055201 0.008318 143 147 140
-0.114829 -0.030288 0.077168 90 97 32
0.044979 0.010687 -0.017657 139 131 58
-0.123429 -0.019172 0.066368 46 59 0
-0.107268 -0.066842 0.080818 111 122 118
-0.136839 -0.013370 0.058543 73 84 11
-0.047493 0.033378 -0.004707 111 113 29
-0.118470 -0.060295 0.077043 106 119 116
0.053433 -0.034249 -0.005307 143 147 142
0.013994 0.004358 -0.153132 100 97 24
0.037613 0.020966 -0.027782 97 95 33
-0.058402 0.024510 0.014793 114 114 38
-0.101934 0.062688 0.037843 97 120 112
-0.032476 0.037761 -0.015357 115 114 31
-0.123907 0.011448 0.049568 100 106 35
-0.005776 0.041750 -0.022257 122 118 50
0.025440 -0.050326 0.028718 115 115 119
0.077043 0.015065 -0.021232 122 126 119
-0.025231 0.037988 -0.015257 118 115 40
-0.124431 -0.043708 0.081718 104 114 117
0.056218 0.026492 -0.051057 86 93 17
0.014782 0.036030 0.002443 66 65 21
-0.087864 -0.031157 0.087643 90 90 26
0.014000 0.004335 -0.153132 96 102 102
-0.120516 -0.053123 0.077368 103 120 121
0.003948 0.040084 -0.013382 121 121 45
-0.010800 0.045915 -0.034482 121 122 43
0.078068 0.002856 -0.027207 130 142 134
0.073578 0.004135 -0.019457 129 137 126
-0.092238 0.065086 0.035293 106 115 106
0.089413 0.014588 -0.040357 109 130 119
0.077250 -0.002248 -0.028457 131 143 135
0.082297 0.013320 -0.030557 122 134 124
0.034714 -0.025779 0.029393 147 145 137
-0.003891 0.028361 0.022243 90 88 28
0.012002 -0.051213 0.053318 138 135 130
0.037889 -0.006828 0.030143 137 132 128
-0.090317 0.061054 0.042843 68 75 67
0.032659 0.041761 -0.021882 82 81 14
0.065051 -0.021986 -0.018682 141 141 137
0.076171 0.006998 -0.023257 126 134 131
0.065766 0.030656 -0.068107 104 118 28
0.013979 0.004394 -0.153132 85 92 84
-0.017983 0.035541 -0.006307 120 120 44
-0.078837 -0.090622 0.090818 104 111 115
-0.049722 -0.096406 0.110143 96 104 105
-0.101591 -0.017267 0.078718 75 86 22
0.052343 0.017607 -0.034807 135 132 59
-0.081978 0.068240 0.029693 83 94 75
-0.077289 0.019690 0.034093 98 107 30
-0.053407 0.028987 0.004818 115 119 35
-0.007884 0.015853 0.029818 86 81 18
-0.079472 0.068890 0.025918 82 91 84
-0.088182 0.034331 0.034693 51 56 3
0.001777 0.000676 0.018468 102 93 27
0.054363 -0.039222 -0.008582 143 147 140
-0.058264 -0.050460 0.123643 86 93 97
-0.113044 -0.055542 0.083593 104 117 116
-0.030939 0.045350 -0.029082 96 100 23
0.083259 -0.017517 -0.043557 130 143 138
0.025558 -0.007414 0.046968 89 89 91
-0.075587 0.017252 0.036593 93 95 21
-0.094961 0.034223 0.028993 59 63 4
-0.121844 -0.061501 0.074218 104 117 116
0.026397 0.041244 -0.013257 86 81 22
0.036599 0.031735 -0.027282 94 90 22
0.055899 -0.024301 -0.004632 144 146 137
-0.120885 -0.077272 0.069068 104 127 123
0.048126 -0.040586 0.001593 146 148 139
-0.012331 -0.001217 0.035743 98 93 21
0.008255 0.043049 -0.022732 121 117 40
-0.096712 0.036001 0.030793 57 72 16
0.051025 0.037306 -0.046832 78 77 10
0.063355 -0.016664 -0.013432 140 142 133
0.088058 0.008692 -0.041032 125 140 135
0.066518 0.032454 -0.071407 94 103 26
-0.050747 0.028054 0.007118 113 114 35
0.054681 -0.045020 -0.010807 144 153 146
-0.113198 0.052254 0.025543 57 57 0
-0.083778 -0.083271 0.089768 105 119 121
-0.000075 -0.075117 0.072193 131 133 124
0.014002 0.004321 -0.153132 85 93 94
-0.002969 0.032103 0.007443 129 122 44
-0.050768 -0.056914 0.127193 90 96 94
-0.122707 -0.010183 0.069118 61 60 16
0.014095 0.004355 -0.153132 128 143 138
0.071156 0.030021 -0.066457 98 109 36
0.023252 0.006399 -0.004432 105 97 26
0.083782 0.019840 -0.030157 107 122 117
-0.137480 -0.067619 0.057493 104 124 119
0.051186 0.023329 -0.043832 95 95 31
-0.050272 0.022679 0.018393 118 119 40
0.054130 -0.028722 -0.004332 141 142 131
0.037842 0.033446 -0.076682 121 123 51
-0.028934 0.044137 -0.028032 104 109 29
-0.011301 0.015583 0.034268 90 86 20
0.072794 0.027689 -0.059482 109 122 39
0.047326 0.001914 0.019843 127 123 126
0.032440 0.047094 -0.026057 93 93 40
0.049134 0.004951 0.018143 119 119 115
-0.067711 0.039293 0.020993 87 94 27
0.069441 -0.042871 -0.032332 133 149 138
0.029220 0.037795 -0.016457 91 81 22
0.081798 -0.013628 -0.040232 121 140 128
0.064474 0.003899 -0.006607 132 131 131
-0.001137 -0.067989 0.075768 124 128 121
0.026222 -0.012598 0.045843 117 116 120
-0.125256 -0.039512 0.081368 104 119 114
0.086018 0.006952 -0.037982 125 139 130
0.014003 0.004337 -0.153132 85 93 92
0.089911 0.023566 -0.037582 105 121 112
0.014668 0.009346 0.002493 93 87 20
0.031773 -0.049578 0.024068 150 150 146
-0.143373 -0.030003 0.073068 92 98 27
0.033307 0.029287 -0.022707 96 89 29
-0.094342 -0.064996 0.093143 109 122 121
0.037737 0.033343 -0.076657 121 124 54
0.013968 0.004318 -0.153132 104 122 116
0.029241 -0.009365 0.043393 129 129 125
0.046634 0.024889 -0.038707 97 95 35
0.014018 0.004322 -0.153132 120 124 119
0.014014 0.004342 -0.153132 83 78 76
-0.114807 -0.057593 0.079568 109 121 123
-0.099901 0.037216 0.028568 61 66 4
-0.081048 0.027041 0.034743 104 105 36
-0.072010 0.067213 0.027893 81 83 72
0.052363 -0.023664 0.000843 148 143 139
-0.124422 -0.076206 0.063143 110 123 118
0.045978 -0.011487 0.016718 146 141 137
0.026352 -0.033508 0.036618 115 109 111
0.052397 -0.009535 0.007118 143 140 135
-0.070286 0.068239 0.027043 84 92 81
-0.071990 0.011319 0.050118 99 98 29
-0.053860 -0.045101 0.128943 102 100 107
-0.088163 0.043729 0.039593 37 52 0
-0.012789 0.032898 0.000318 122 119 37
0.047337 -0.041058 0.003218 145 150 140
0.062536 0.029911 -0.066182 115 124 38
-0.005129 0.047736 -0.039732 119 120 51
-0.006580 0.023550 0.027793 85 78 18
0.013992 0.004338 -0.153132 102 105 106
0.036451 0.009444 -0.016357 145 139 58
-0.096973 0.056800 0.040918 20 23 2
-0.024911 0.031451 -0.000232 115 117 43
0.069144 -0.020778 -0.023882 134 143 136
0.014004 0.004340 -0.153132 101 99 49
0.067835 -0.019930 -0.021282 140 144 137
-0.096438 -0.058484 0.093793 112 120 119
-0.098657 0.016698 0.032443 92 96 21
0.052539 0.034456 -0.047807 80 81 14
-0.083608 -0.062459 0.099943 102 110 111
0.075824 -0.038249 -0.041007 131 149 143
0.074278 -0.026332 -0.033282 140 149 142
-0.011242 0.042604 -0.024232 118 122 49
-0.031423 0.013393 0.056793 85 80 17
0.057688 0.031847 -0.072657 111 121 39
0.026252 0.048071 -0.032857 117 117 45
0.084013 0.024861 -0.028132 103 117 108
-0.080419 0.042528 0.041393 84 92 22
0.021127 -0.049261 0.038243 139 141 132
0.001015 0.025718 0.018568 90 80 19
-0.007518 -0.087308 0.083193 122 127 117
-0.028489 0.026934 0.010068 124 119 47
-0.058370 -0.004730 0.088743 72 71 14
-0.011625 0.046629 -0.035882 119 121 45
-0.074498 0.070610 0.021793 82 93 72
-0.118696 -0.026599 0.070043 87 91 32
