ply
format ascii 1.0
element vertex 1232
property float x
property float y
property float z
property uchar blue
property uchar green
property uchar red
end_header
0.019700 -0.003076 0.001023 48 146 161
0.032986 0.012579 0.009423 68 65 48
-0.051517 0.002748 -0.004277 55 70 57
0.023136 -0.009010 -0.001277 87 135 131
0.015054 -0.007302 0.005373 8 58 62
-0.006331 0.004034 0.015373 101 95 74
-0.007982 -0.005837 -0.006952 0 1 79
0.007563 -0.022205 0.011873 57 37 5
-0.013363 -0.004979 -0.013902 52 89 57
-0.000443 0.004125 0.017998 101 100 78
0.007664 -0.027724 0.009998 122 126 115
-0.011042 -0.026046 -0.004002 90 97 101
0.032506 -0.010517 0.003723 5 46 56
0.026490 -0.008718 -0.000502 37 138 150
0.015884 -0.001380 0.022473 112 109 92
0.001843 -0.005018 -0.006102 178 129 0
0.028551 0.002625 0.028273 107 110 95
-0.014250 0.016964 -0.014827 41 123 206
0.023209 -0.012617 -0.001802 48 136 154
-0.020845 -0.004934 -0.013977 71 97 112
-0.011374 0.008870 -0.009377 12 70 150
0.005411 0.016824 -0.001602 24 15 4
-0.010399 -0.000672 0.012573 96 93 71
-0.017862 0.012739 -0.016077 45 130 204
0.141984 0.005356 0.181123 171 179 144
0.007777 -0.024285 -0.006852 51 49 37
-0.028403 0.017806 -0.016577 30 28 112
0.027406 -0.025597 0.018373 115 121 103
0.029246 -0.027238 0.018023 110 116 98
0.029087 0.001782 0.028048 108 112 89
-0.010191 0.012791 -0.012902 28 27 24
-0.020918 0.000488 -0.015902 63 93 108
-0.017410 -0.006069 -0.017502 26 69 88
-0.017652 0.000252 -0.016452 63 181 183
-0.022704 -0.014406 -0.017202 25 46 53
0.009505 0.011516 -0.004502 38 38 156
-0.004847 0.019717 -0.010502 120 128 116
-0.002040 -0.006138 -0.008927 153 152 123
-0.001400 0.016391 -0.008602 108 79 32
0.003694 0.009731 -0.005577 42 43 166
-0.012965 0.012425 -0.014052 48 95 148
0.000441 0.021752 -0.008327 55 54 161
0.012662 0.019090 -0.003977 152 158 165
-0.008544 0.009483 -0.011527 20 31 151
-0.036908 0.007889 -0.017602 81 110 115
0.028630 -0.008520 0.003448 23 133 141
-0.009523 -0.024514 0.004573 96 98 92
-0.006270 -0.027809 0.004698 101 103 108
0.021047 -0.000524 0.024398 163 157 136
-0.012274 0.018163 -0.013927 196 185 153
0.030839 0.022406 0.007223 54 48 14
0.008230 0.000483 0.019948 119 119 95
-0.008835 0.007309 0.000048 14 17 100
0.029507 -0.024011 0.001548 50 59 45
-0.030641 0.016578 -0.017552 20 17 84
-0.011287 -0.013728 -0.012052 60 87 99
0.012256 0.021035 -0.003952 103 98 177
0.000538 -0.003508 -0.006977 210 153 2
-0.039202 -0.007879 -0.017752 38 59 55
-0.013130 -0.000356 -0.013902 120 158 157
-0.021327 -0.015345 -0.017477 54 89 103
0.034924 -0.004058 0.003948 23 111 123
-0.009382 -0.006379 -0.003827 30 26 14
0.010080 -0.014686 -0.003677 122 113 95
0.030743 0.027053 0.007448 56 48 7
0.000380 -0.009048 -0.008177 80 82 126
-0.018461 0.009897 -0.016477 21 95 167
-0.010116 0.007508 -0.004377 24 30 110
-0.017205 -0.009341 -0.017427 84 116 126
0.019869 -0.010582 -0.002327 40 68 122
-0.016523 0.008200 -0.012902 177 171 150
-0.013310 -0.009374 -0.014102 136 161 165
0.027807 -0.005338 0.002873 22 134 147
-0.010570 -0.000953 -0.009527 86 85 77
0.013153 0.004022 0.023073 113 113 94
0.135937 0.002965 0.191698 165 165 139
-0.012873 -0.003073 -0.013052 117 146 153
-0.028034 0.011117 -0.016477 23 21 105
0.011444 0.001604 0.021423 116 115 93
0.006320 -0.012328 -0.005852 170 126 9
-0.005813 0.011072 -0.010727 43 47 168
-0.015253 -0.012786 -0.015077 97 126 145
0.032781 -0.007881 0.004273 8 15 74
-0.018816 -0.024196 0.001648 105 105 99
0.026282 0.006971 -0.001152 164 165 131
0.023473 -0.019154 -0.004552 174 173 136
0.005243 0.023319 -0.000852 16 9 10
0.007007 -0.027213 0.007298 128 131 123
0.004437 0.024267 0.000398 17 18 5
-0.019465 0.008935 -0.014902 40 85 143
-0.014583 -0.010044 -0.015327 97 128 133
0.001804 -0.008038 -0.006552 145 111 18
-0.016226 0.017534 -0.015477 34 119 200
0.000964 0.011227 -0.007302 247 246 243
0.032801 0.016883 0.009898 77 66 46
-0.002011 -0.023214 0.007923 99 97 83
0.012412 0.021283 -0.003902 90 84 173
0.008282 -0.003793 -0.001777 168 123 0
0.022304 0.018064 0.002248 104 93 121
-0.043027 -0.021829 -0.006827 70 97 101
-0.028546 0.009133 -0.016977 97 128 128
-0.048309 -0.001554 -0.001402 101 104 96
-0.046616 -0.024081 -0.008252 139 142 127
0.022875 -0.024212 -0.000027 51 49 37
0.005339 -0.016354 -0.006202 116 83 1
-0.001683 0.005031 -0.011802 187 181 153
0.011729 -0.003991 0.000373 173 128 0
0.015094 0.009979 -0.004127 111 111 149
-0.037923 -0.021448 -0.009827 66 87 84
-0.036477 0.006869 -0.013902 54 81 85
-0.022864 -0.004503 -0.014577 21 30 41
0.002315 -0.004475 -0.005502 129 81 0
0.005645 0.021589 -0.003427 181 152 78
0.023292 0.022751 0.002623 89 79 50
0.033927 0.018718 0.006023 182 173 134
-0.007880 -0.024487 0.005448 103 100 90
0.017364 0.018721 -0.001977 178 147 107
0.010566 -0.003530 -0.000052 168 121 0
-0.002432 -0.009954 -0.010027 193 184 152
0.032650 0.004928 0.027148 56 54 21
0.002555 0.008373 -0.004727 42 37 150
0.026095 -0.006009 0.000973 31 123 129
0.007350 -0.004367 -0.002602 191 181 145
0.019212 -0.009180 -0.001452 54 57 140
-0.011826 0.012477 -0.013527 52 44 42
-0.013049 0.015799 -0.014527 6 57 111
-0.017230 -0.013540 -0.017027 57 79 99
0.158325 -0.001188 0.182723 88 99 62
0.009111 -0.023243 0.012073 99 102 89
-0.044326 0.004315 0.002023 104 105 92
0.038566 0.025314 0.009048 155 154 119
-0.029036 0.014904 -0.017127 27 25 102
0.023795 0.005210 0.027248 141 143 119
-0.028282 0.015704 -0.016802 29 29 114
0.021096 -0.002452 0.023748 150 151 129
0.030032 -0.025043 0.007648 102 97 87
-0.012352 -0.027971 0.002048 91 96 99
-0.022456 0.017742 -0.016752 209 194 159
0.032581 -0.008721 0.005273 0 5 46
0.037338 -0.024273 0.009223 242 252 204
-0.009191 -0.015388 -0.002627 38 24 0
0.020169 0.000814 0.024373 161 160 138
-0.046408 0.005536 0.001573 116 117 104
-0.020389 -0.005384 -0.016277 72 101 120
-0.047131 -0.000155 -0.000602 101 100 92
-0.048820 -0.002169 -0.001827 101 106 91
-0.030197 0.013497 -0.017577 22 18 108
0.011001 -0.028211 0.010898 88 94 93
-0.002933 0.005741 0.018798 103 98 75
-0.003997 -0.002275 0.014223 95 94 72
-0.046426 0.001670 0.000148 100 102 91
0.010824 -0.018202 -0.009077 185 180 150
-0.011113 -0.006060 -0.011102 120 151 156
0.012609 -0.010470 -0.000827 63 72 158
0.035102 -0.004609 0.003573 53 127 127
0.004246 0.021106 -0.001677 93 44 0
0.000313 0.002799 0.017548 108 105 83
0.024017 0.007983 0.008373 38 33 8
0.017066 0.001464 0.023598 123 122 100
-0.034579 0.007507 -0.015252 75 104 111
0.037572 0.014838 0.006123 208 200 150
-0.012448 0.015408 -0.014302 38 37 29
0.159450 0.013806 0.214448 48 56 49
0.022160 -0.022269 0.014523 194 195 166
-0.006034 0.009462 -0.010977 45 51 179
-0.005448 0.012549 -0.010227 31 30 159
-0.022794 -0.023692 0.000173 98 101 93
0.033237 0.003395 0.026773 113 125 101
-0.019799 0.008865 -0.016077 22 76 141
-0.026697 0.008938 -0.016277 82 111 118
-0.019534 0.006690 -0.005077 7 38 84
0.032110 0.019000 0.010923 12 13 0
0.041578 0.025787 0.010923 149 144 114
-0.001073 0.002974 0.017298 105 100 83
-0.045648 -0.000148 0.000073 96 99 91
-0.027172 0.006759 0.008823 81 81 81
-0.019567 -0.003892 -0.017577 46 67 90
-0.043620 -0.000390 0.000723 78 109 121
0.033350 0.011428 0.009573 173 164 119
-0.001868 0.018997 -0.009227 194 151 66
-0.005796 -0.017097 -0.009827 120 85 0
-0.001219 -0.025098 0.007648 83 83 83
0.023471 0.001590 0.025948 153 152 123
-0.027221 0.007429 -0.012502 63 90 94
-0.043436 0.006704 -0.016327 61 90 95
0.011048 -0.015248 -0.002827 120 124 106
0.032611 -0.014915 0.002698 0 53 68
0.000307 0.019856 -0.008102 155 122 74
-0.016161 -0.011458 -0.015977 90 114 127
-0.009059 -0.012365 -0.003952 20 11 0
0.027750 -0.013448 -0.001452 35 132 144
0.032664 -0.012253 0.004873 12 58 72
-0.033251 0.008012 -0.015177 150 147 125
0.038526 0.007454 0.003823 166 160 126
0.017954 -0.011429 0.000648 6 64 78
0.028760 -0.014799 -0.000277 45 152 167
0.002153 0.005223 -0.008352 80 81 66
-0.014607 -0.015027 -0.015077 69 97 112
-0.015560 0.017985 -0.015377 37 122 204
-0.001629 -0.027743 0.006373 93 97 96
0.137838 0.081902 0.161198 131 132 98
0.032876 -0.014884 0.002298 18 75 85
-0.014916 -0.004655 -0.016102 43 86 144
-0.017745 -0.008975 -0.017877 44 58 68
-0.009841 0.007678 -0.004477 24 26 132
-0.028772 0.006128 -0.007202 28 47 54
-0.024194 0.009976 -0.015027 61 97 108
-0.039404 -0.015901 -0.013602 40 64 77
-0.007629 0.000870 0.013973 106 102 83
-0.028230 0.006286 -0.006977 31 48 62
-0.017037 -0.007399 -0.017577 107 131 144
-0.046987 -0.023065 -0.010602 112 121 107
-0.021596 -0.002906 -0.014252 17 20 28
-0.017817 0.001514 -0.016352 46 168 165
-0.021453 -0.003449 -0.014202 22 24 34
-0.009243 -0.006557 -0.003902 31 28 18
0.006037 0.013676 -0.004652 181 116 0
0.009658 0.007529 0.004023 16 15 110
-0.001677 -0.007572 -0.009377 57 99 125
0.018992 0.003302 0.024673 127 124 107
-0.010685 0.018286 -0.013802 101 111 118
0.023328 0.008955 0.005748 86 81 58
0.021163 0.018948 0.001623 181 167 136
-0.013685 0.010677 -0.014252 44 114 198
0.025645 0.024367 0.003873 207 199 149
-0.020759 0.015124 -0.016777 222 212 169
0.023253 -0.007146 -0.000652 39 123 131
0.014093 0.009333 -0.003852 37 37 141
0.001021 -0.024122 -0.006477 47 41 54
-0.006806 0.008343 -0.008152 41 46 169
0.019345 -0.023232 -0.009327 149 162 160
0.027084 -0.023443 0.018498 120 122 104
-0.002816 0.007780 -0.003377 27 31 145
-0.012787 -0.024050 0.003798 93 95 89
0.001837 0.002706 0.018298 104 103 81
-0.007304 0.003294 0.015048 114 112 88
0.152827 0.012682 0.235523 15 16 24
0.023060 0.018842 0.002673 61 82 139
0.007009 0.014873 -0.004427 94 98 158
0.006995 -0.003844 -0.002702 174 131 0
0.036676 -0.003639 0.003848 64 117 117
-0.017323 -0.000080 -0.016427 86 142 148
-0.027313 0.013505 -0.016002 14 41 113
-0.019025 -0.000965 -0.017202 52 75 99
0.038662 -0.018516 0.005748 98 204 195
-0.013385 -0.012659 -0.013602 79 92 91
0.007828 -0.008662 -0.004777 75 64 128
-0.032718 -0.024488 -0.003977 103 108 95
0.003440 -0.024088 0.009348 95 97 91
0.034106 0.009321 0.005698 71 63 27
0.005094 -0.007774 -0.004977 73 63 143
0.001236 0.016950 -0.007002 222 207 160
0.009615 -0.019622 -0.009527 142 140 114
-0.016112 -0.014528 -0.016352 61 89 104
0.007914 0.015546 -0.004302 125 151 186
-0.003127 0.015404 -0.009527 182 138 116
0.014854 -0.000986 0.021823 109 110 97
-0.043544 -0.021812 -0.007002 116 119 104
-0.020401 -0.025065 0.000573 108 106 100
0.023350 -0.023507 -0.000652 26 33 37
0.021521 0.021949 0.002198 88 77 37
-0.006317 -0.004817 -0.010177 130 143 135
-0.018429 0.011149 -0.016027 27 109 185
-0.037407 0.006932 -0.015552 48 77 84
-0.044584 0.002460 0.001248 90 93 80
0.035917 -0.007651 0.002998 46 146 149
-0.026599 0.007916 -0.012452 83 114 121
-0.029162 0.016856 -0.017177 22 23 104
-0.023195 0.006868 0.010498 74 77 80
0.035754 0.021310 0.006648 38 60 121
-0.030137 -0.019895 -0.012802 88 119 119
0.025120 0.019757 0.004073 50 61 79
0.036630 0.008895 0.010373 50 45 15
-0.008875 0.017748 -0.012052 23 114 184
0.017109 -0.020938 0.012798 74 51 33
-0.023717 0.018301 -0.014402 207 197 163
-0.019382 0.003017 -0.017052 58 108 131
-0.044534 0.002609 0.001248 93 94 86
0.008039 0.022687 -0.003852 57 50 52
-0.023496 0.008599 -0.014652 59 88 107
-0.024641 -0.025582 -0.001202 101 104 96
-0.019324 0.003352 -0.016977 56 105 130
0.017225 -0.000857 0.022798 116 115 98
-0.005233 -0.006610 -0.010127 72 72 171
-0.004095 -0.026692 -0.000202 91 97 104
-0.040614 0.006905 -0.015477 68 98 101
-0.010382 0.012421 -0.013277 7 15 42
-0.023211 0.001685 -0.014277 33 50 57
0.026210 0.008652 0.007998 26 24 0
-0.028244 0.006746 -0.010752 39 64 75
-0.040416 0.002685 0.002773 79 81 70
-0.017219 -0.000783 -0.016627 116 137 139
-0.009716 0.013212 -0.012802 22 28 47
-0.032814 0.000688 0.004998 67 67 67
0.014849 0.021528 -0.003202 69 43 121
-0.024220 0.001970 -0.013977 35 72 89
0.005105 0.022809 -0.000377 15 16 8
-0.001223 -0.028098 0.006173 92 97 100
0.015724 -0.023480 -0.003702 11 19 33
0.005760 0.000220 0.019298 120 120 94
-0.023344 0.000023 -0.014502 35 86 86
0.035999 0.026326 0.007848 117 106 86
-0.038993 0.000638 0.002548 82 83 75
0.005128 -0.007904 -0.005027 111 102 154
-0.002759 0.010595 -0.008527 159 153 159
-0.028702 0.009651 -0.016952 86 118 121
-0.000276 -0.017713 -0.012552 108 104 97
-0.043706 0.004480 0.002198 93 93 87
0.019514 -0.004608 0.000823 29 110 136
-0.016538 0.009166 -0.015677 32 104 177
0.034531 0.014461 0.005348 178 175 140
0.025254 -0.025499 0.017398 121 124 104
-0.002081 -0.024308 0.007223 46 41 36
0.157727 0.000465 0.184298 79 92 64
-0.046953 0.001277 0.000123 100 99 91
0.017266 0.016061 -0.002327 234 219 172
-0.033734 0.005037 0.006023 76 75 72
-0.016908 -0.014800 -0.017227 69 100 112
-0.018533 0.007535 -0.007777 19 67 143
0.153930 -0.004195 0.188723 171 178 153
0.009203 -0.024659 0.011973 100 101 93
-0.002148 -0.026907 -0.000277 39 36 69
0.011603 -0.013241 -0.002277 212 204 154
-0.006503 -0.016114 -0.009752 121 83 0
0.026210 0.024578 0.004173 189 177 139
-0.032128 -0.000316 0.004498 31 41 61
-0.013569 -0.014791 -0.014252 62 91 110
0.024649 -0.027171 0.016823 166 165 143
-0.004176 0.009858 -0.009502 39 45 152
-0.017679 0.017776 -0.016052 40 116 191
0.034946 0.024059 0.006648 152 140 111
0.022691 -0.020028 -0.004827 144 152 117
-0.029970 0.004541 0.007298 70 74 74
-0.014866 0.010983 -0.014777 25 94 170
0.016547 -0.021598 0.013773 147 112 0
0.154321 0.001397 0.185573 73 75 57
-0.019794 -0.001034 -0.017877 51 72 88
0.037668 0.011824 0.006023 172 162 126
0.002735 0.011379 -0.005652 116 116 176
-0.017521 0.015783 -0.015877 226 214 171
-0.005621 0.014805 -0.010327 157 145 150
-0.027986 -0.024977 -0.002302 112 115 107
0.028313 0.025362 0.007598 190 180 130
0.012171 -0.015964 -0.002977 169 125 0
0.016112 -0.024996 -0.000027 11 20 24
-0.023721 -0.025802 -0.001002 102 104 98
-0.009080 0.007208 0.000023 14 16 103
-0.020961 0.007273 0.011123 93 96 83
-0.049339 0.005961 -0.001602 87 91 91
-0.011798 0.015832 -0.014177 212 207 168
0.003714 0.015085 -0.004852 162 101 0
-0.029953 0.010728 -0.017202 42 53 52
0.005917 0.004656 0.020548 127 127 103
0.000099 -0.014335 -0.008577 118 119 97
0.006970 0.015337 -0.004402 116 92 138
-0.008818 -0.017001 -0.002952 41 26 0
-0.010008 -0.013832 -0.000477 20 11 0
-0.019394 0.008090 -0.010052 12 55 126
-0.051770 0.005487 -0.000027 69 73 72
0.009050 0.009293 -0.004952 53 56 151
-0.039899 -0.005263 -0.017202 47 65 63
-0.017360 0.000586 -0.016427 47 113 108
0.014951 -0.006999 0.006173 0 19 16
-0.051828 -0.001323 -0.005752 122 130 107
0.016104 0.001059 0.023248 117 117 93
0.011999 -0.002456 0.020523 104 102 88
0.032124 0.001043 0.025823 90 95 80
-0.017961 0.001068 -0.016377 64 181 179
-0.042933 -0.023467 -0.007152 116 114 95
0.032102 0.011328 0.009648 122 120 80
-0.020771 -0.027423 -0.000452 99 105 104
-0.001357 0.016685 -0.008902 69 60 47
-0.023769 0.002409 -0.013777 40 68 90
-0.024994 0.000371 -0.014377 14 31 45
0.022113 0.019186 0.002273 165 165 134
-0.006567 0.004705 0.015498 69 69 58
-0.017398 0.012838 -0.015702 35 115 198
-0.019586 0.008775 -0.017127 36 100 163
0.016506 -0.017274 0.003848 3 41 45
0.016293 -0.017720 0.003548 3 48 60
-0.011550 0.006058 0.014348 89 85 71
-0.006246 -0.003541 0.012998 92 90 71
0.035480 -0.004161 0.003923 40 102 109
0.032466 -0.013224 0.005623 0 38 48
0.027519 0.005970 -0.000577 144 150 120
0.011720 -0.023383 -0.007027 39 37 61
-0.003010 -0.008794 -0.009977 111 108 167
-0.014498 -0.011817 -0.014627 85 114 131
0.008783 -0.023717 -0.006727 19 29 83
0.012618 0.015318 -0.003577 217 136 0
-0.024249 0.009125 -0.015102 67 99 115
-0.020329 0.008094 -0.008377 6 54 131
0.035444 0.011048 0.005198 142 138 97
0.018163 0.000269 0.023498 121 122 100
-0.014009 -0.010150 -0.014527 131 168 177
0.024664 0.017995 0.004098 170 162 121
0.012733 0.020402 -0.003777 154 160 159
-0.005052 -0.000968 0.014498 103 95 79
0.017312 -0.009361 0.001923 2 7 62
0.029626 0.005134 0.029373 101 101 82
-0.051117 0.001315 -0.004602 63 78 65
0.022483 0.012994 0.002748 24 26 125
-0.014310 0.018007 -0.015002 41 120 206
-0.035782 0.006294 -0.009752 117 124 104
0.003349 0.016069 -0.005077 209 198 153
0.017161 0.003145 0.024148 117 119 95
-0.014099 0.011920 -0.014377 39 115 195
0.031731 0.025197 0.006973 162 152 109
0.006878 0.013054 -0.004577 56 38 129
-0.012415 0.014782 -0.014202 42 38 26
0.020821 -0.023369 -0.009727 208 195 160
0.031759 0.026136 0.007023 66 56 20
0.012150 -0.007814 -0.000302 150 113 16
0.030726 0.024949 0.011673 150 143 118
-0.004612 -0.002742 0.013873 93 94 72
0.013202 -0.015005 -0.001352 154 112 0
-0.018003 0.011365 -0.015902 35 113 193
0.033164 -0.006491 0.010148 8 35 34
0.024965 -0.023824 0.017598 102 102 83
-0.021140 0.013003 -0.016877 31 105 192
0.038856 0.006846 0.003473 162 161 124
-0.014189 0.007203 -0.015502 180 174 146
-0.004004 0.020859 -0.010327 79 74 64
-0.029012 0.012017 -0.017002 22 37 118
0.025400 -0.018337 -0.003877 196 190 149
-0.041217 0.006391 0.002073 91 89 83
0.018363 -0.008070 -0.001077 37 62 134
-0.004150 -0.004335 -0.009227 206 201 162
0.023640 0.003243 0.026423 146 147 125
-0.009329 -0.004824 -0.001302 85 81 67
0.026890 0.015246 0.006273 195 185 149
0.017756 -0.007775 -0.000677 50 61 133
-0.029446 -0.023359 -0.002327 103 106 98
-0.022091 0.015471 -0.017177 123 147 181
0.022838 -0.005787 -0.000002 38 84 85
0.025482 0.015371 0.004923 200 193 154
0.016629 -0.015626 0.003898 6 32 40
0.017597 0.016547 -0.002102 192 177 135
-0.009583 -0.003503 0.011923 92 88 69
-0.044810 0.003561 0.001298 104 108 90
0.031390 0.002766 0.026473 92 93 80
-0.030617 0.012863 -0.017777 18 21 97
0.025453 0.008201 -0.000252 162 166 128
-0.010840 0.005842 0.014623 89 85 71
-0.010838 0.018474 -0.013927 16 16 16
-0.004450 -0.011292 -0.010677 208 199 160
0.017427 -0.004671 0.000198 41 135 155
-0.040814 -0.000085 0.001523 75 113 117
0.021488 0.009297 0.001898 36 27 14
-0.022583 0.018449 -0.014627 214 199 166
0.008784 -0.027376 0.007448 88 93 96
0.031239 -0.003272 0.024598 79 95 85
-0.005323 0.012756 -0.010227 76 65 182
-0.015747 -0.000820 -0.016002 54 71 65
0.031685 0.021016 0.011198 13 9 0
-0.022499 0.001790 -0.014502 32 55 71
-0.006923 -0.007552 -0.008827 13 15 80
-0.002212 -0.004266 -0.008252 201 208 204
0.006393 0.023479 -0.003227 132 135 127
-0.050910 0.002844 -0.000852 71 76 72
-0.037242 0.006892 -0.014802 51 76 80
-0.003913 -0.006180 -0.009827 195 200 154
0.015558 -0.006120 0.005148 2 28 36
0.022427 -0.014341 -0.002227 60 135 146
0.031727 0.020318 0.006198 77 67 19
0.012671 -0.002523 0.020648 108 106 92
0.038515 0.017516 0.006998 176 168 118
-0.012206 -0.014577 -0.012977 66 93 110
0.018245 -0.008209 -0.001127 21 38 120
-0.021796 0.000598 -0.014552 21 63 64
-0.019117 -0.005130 -0.017477 84 140 107
-0.008026 -0.005616 -0.006977 16 18 90
0.005215 0.018260 -0.002252 27 24 2
-0.010781 0.014845 -0.013052 156 153 118
-0.001371 0.009993 -0.008077 49 47 83
0.019323 -0.009745 -0.001527 146 146 147
0.015233 -0.026299 0.002173 53 55 44
-0.016755 -0.006790 -0.017527 137 165 161
0.007760 0.021746 -0.004027 59 47 30
0.023096 -0.023362 -0.009852 199 199 154
-0.013588 0.005640 -0.015952 180 173 148
0.001657 -0.008074 -0.006627 194 177 135
-0.001223 -0.005384 -0.008252 180 176 143
-0.029766 0.005831 0.007748 81 81 81
0.009482 0.017802 -0.004277 68 85 99
0.031362 0.026023 0.012123 14 17 4
0.005522 0.011931 -0.002152 66 59 98
0.008904 -0.024119 -0.007052 59 58 41
0.030351 0.019516 0.010498 54 38 21
-0.039258 -0.012066 -0.015927 82 106 99
-0.048839 0.002490 -0.000177 111 114 101
-0.019805 -0.026956 -0.000402 176 171 141
-0.005909 -0.027919 0.004573 97 101 101
0.006410 -0.011105 -0.005677 200 192 158
0.018432 -0.023044 -0.004277 72 73 51
0.016842 -0.009557 0.003498 1 4 59
-0.009041 0.009713 -0.012652 39 119 207
0.035460 -0.004613 0.003648 77 139 126
0.025065 0.015485 0.004498 142 134 105
0.022958 -0.022448 -0.009727 133 136 116
-0.018520 0.015481 -0.016352 225 217 181
0.019399 -0.014496 -0.003052 30 131 138
0.001389 0.006500 -0.010102 174 172 160
-0.014767 0.010404 -0.014627 22 47 90
0.018942 -0.022906 -0.005552 67 65 46
-0.015309 0.000466 -0.015252 121 138 139
-0.016200 -0.005263 -0.016802 50 95 161
0.024436 -0.021774 0.017823 33 76 66
-0.037710 0.012212 -0.017652 41 42 123
0.027954 0.013642 0.006573 139 131 97
-0.024095 0.015629 -0.014702 0 5 53
0.038602 0.017799 0.007048 165 163 130
0.151028 0.002178 0.189173 165 176 144
0.038068 -0.007351 0.003073 113 150 133
-0.046175 -0.023757 -0.008202 143 146 126
-0.045073 -0.001565 -0.000452 90 101 93
-0.049637 0.005857 -0.007277 53 66 58
0.031597 -0.000860 0.026323 85 88 73
-0.001155 0.015514 -0.008377 212 135 0
-0.009472 0.006386 0.002023 79 77 78
-0.053745 0.004329 -0.003452 36 40 39
0.016429 0.011168 -0.003677 58 54 151
-0.022947 0.001641 -0.014402 31 46 60
-0.051283 0.003174 -0.004077 79 91 72
-0.036415 0.006945 -0.014177 56 85 92
-0.006857 -0.005120 -0.008327 90 83 51
0.005084 0.007666 0.001348 92 86 202
0.008059 0.016562 -0.004277 207 143 0
-0.030011 0.010444 -0.017327 71 85 80
0.035692 0.018015 0.006198 71 71 107
-0.001465 -0.006225 -0.008452 69 111 153
-0.032147 0.005853 0.006773 76 80 79
-0.048407 0.004768 0.000773 111 113 102
-0.030130 0.003863 0.006898 43 82 99
-0.010346 -0.005503 -0.010427 23 34 32
-0.030104 0.009365 -0.017627 23 43 55
0.018681 -0.022140 0.015873 128 109 40
0.011183 0.015500 -0.004127 110 107 166
0.017105 0.014905 -0.002602 129 72 9
-0.017554 0.016000 -0.015902 224 216 175
-0.005939 -0.025341 0.006098 102 103 95
-0.010368 -0.014343 -0.011677 76 100 100
-0.018440 0.018140 -0.016177 202 196 194
-0.004737 -0.007685 -0.010177 189 187 209
-0.000878 0.014595 -0.007952 213 134 0
-0.001500 0.005816 -0.011652 190 184 156
-0.010512 -0.025354 0.004123 101 100 92
0.032687 -0.004729 0.004823 12 73 83
0.030247 0.006674 0.025723 49 49 30
-0.016572 0.017041 -0.015702 222 212 178
0.011926 -0.023586 0.013073 96 99 86
0.034979 0.012578 0.005473 186 181 164
-0.014618 0.012447 -0.014577 56 136 231
-0.010771 0.015630 -0.013452 175 163 125
0.024176 -0.023215 0.017173 151 150 128
0.003061 0.014500 -0.005377 207 183 147
-0.009861 -0.014142 -0.000627 19 14 0
-0.027558 0.015508 -0.016152 101 127 133
0.014155 -0.025708 0.003948 67 72 59
-0.025992 0.011675 -0.015702 22 23 119
-0.002505 0.009350 -0.008552 35 38 134
0.136785 -0.001573 0.188873 139 148 121
-0.003371 0.012655 -0.009052 227 167 45
0.020826 -0.010806 -0.002102 87 104 132
-0.016483 -0.007531 -0.017402 132 162 157
0.008098 0.014721 -0.004302 87 93 168
-0.025538 0.019165 -0.015352 84 108 121
0.008995 -0.024960 0.011823 98 102 91
0.000386 -0.011243 -0.008652 216 179 104
-0.010411 0.003046 0.013623 94 93 76
0.005257 0.024086 -0.000352 14 13 5
0.004692 0.025459 0.000673 35 26 15
0.015120 0.009368 0.001023 32 34 146
-0.027392 0.014563 -0.016202 93 114 130
0.022816 -0.006806 -0.000652 67 126 117
-0.013232 -0.004811 -0.013552 102 130 126
-0.016029 0.010270 -0.015252 25 105 180
0.033457 0.023686 0.006498 177 169 121
0.031847 -0.003458 0.007473 56 61 57
0.023046 -0.010565 -0.002127 147 146 138
0.022355 0.022777 0.002248 164 156 120
-0.021256 0.015981 -0.016852 67 119 198
-0.016761 0.012119 -0.015427 54 139 226
0.032839 -0.012359 0.004548 2 60 79
-0.046923 0.005947 -0.014127 68 98 108
-0.001995 -0.014241 -0.009877 111 109 90
-0.007460 0.005653 0.016048 114 111 89
0.032853 -0.011183 0.004748 0 40 52
-0.032961 0.006039 0.006448 81 82 79
0.015751 -0.025324 -0.000202 5 15 22
0.025840 -0.012824 -0.002227 41 155 163
0.023159 -0.019126 -0.004802 177 173 132
-0.018525 0.015860 -0.016327 202 194 165
0.002276 0.004044 0.018773 104 103 81
-0.012083 -0.003227 -0.011352 116 144 154
-0.004450 0.013917 -0.009752 148 115 92
0.002483 -0.023111 0.010023 97 91 79
-0.004819 0.012977 -0.009652 182 143 119
0.035181 -0.025351 0.000273 50 57 48
0.006403 0.008251 -0.001652 45 44 173
-0.025839 0.009698 -0.015827 84 109 120
0.032750 0.009819 0.003698 61 60 11
-0.013579 0.016419 -0.014627 37 100 171
-0.048336 0.004772 0.000823 110 113 100
-0.018433 0.009945 -0.016427 26 96 169
0.032219 -0.007868 0.005748 6 16 52
-0.046704 0.004976 0.001473 111 114 106
0.015027 0.011020 -0.003227 57 57 67
-0.014993 0.018074 -0.015027 32 117 198
-0.000847 -0.018203 -0.013127 212 204 163
-0.043390 0.006510 -0.014802 63 96 101
0.015805 -0.006777 0.004798 0 17 24
-0.008007 -0.027296 0.004448 103 101 102
0.021204 0.009521 0.001048 43 34 2
0.002760 0.017971 -0.005527 161 120 62
-0.005356 -0.009151 -0.010102 179 211 209
-0.012507 -0.007160 -0.012527 111 139 149
0.140285 0.007563 0.181923 240 250 215
-0.002307 -0.024677 0.007698 68 63 67
0.005666 0.017290 -0.004302 168 125 6
-0.038323 0.001314 0.003023 84 86 80
0.037981 0.006572 0.003323 167 164 127
0.036563 0.004923 0.002048 71 74 61
0.031955 0.015548 0.005473 65 51 20
-0.000252 -0.003640 -0.006977 204 149 0
-0.001666 0.009829 -0.008027 26 22 46
0.026841 0.016784 0.005323 190 183 144
-0.020107 -0.002748 -0.017252 48 70 88
-0.002814 -0.006986 -0.009727 64 110 124
-0.031285 -0.024229 -0.003177 103 104 96
0.022747 0.009290 0.004348 27 27 3
0.032501 -0.010053 0.007473 3 16 22
0.008629 0.006550 0.022548 101 101 82
-0.014241 -0.006107 -0.015752 66 121 109
0.005294 0.014219 -0.001902 19 7 32
-0.017234 -0.007526 -0.017702 74 92 89
-0.039941 0.017972 -0.014027 61 74 105
-0.000892 -0.014232 -0.009202 176 177 143
0.037842 0.021176 0.007473 78 87 73
0.012693 0.015769 -0.003627 184 117 0
0.014433 -0.023081 0.014223 92 93 85
0.004257 -0.008118 -0.003177 13 9 52
0.155368 0.013040 0.228948 52 61 47
-0.036513 0.007213 -0.015677 73 98 102
-0.020599 0.018388 -0.016502 212 203 164
0.021899 0.025378 0.002698 157 174 149
-0.017435 0.010887 -0.015702 31 106 189
0.009738 -0.006905 -0.002177 166 158 129
0.010365 -0.006904 -0.001677 150 162 138
-0.012089 0.017836 -0.013752 209 205 177
0.024879 0.019551 0.003898 49 57 79
-0.041432 0.003866 0.002873 84 84 84
0.022733 -0.023229 -0.009977 207 202 158
0.032093 -0.010932 0.007523 0 24 37
-0.022648 -0.002001 -0.014977 11 25 35
0.002016 -0.010119 -0.006827 45 50 134
-0.023873 0.018587 -0.014252 207 194 161
-0.002496 0.013856 -0.008827 149 105 9
0.033031 0.016349 0.005498 180 173 129
0.028025 0.006402 -0.000627 167 169 131
0.030899 0.024200 0.011673 71 54 46
-0.015814 0.009115 -0.012877 16 55 118
-0.003123 -0.001986 0.014748 100 96 77
-0.025319 0.011010 -0.015327 21 24 107
0.016971 0.011551 -0.003377 192 191 174
0.030365 0.005822 0.027123 85 88 73
0.004590 0.021771 -0.000277 22 1 0
-0.040684 0.001649 0.002348 90 88 82
0.010551 0.020521 -0.004377 183 196 175
-0.034599 0.005241 0.005898 79 79 79
0.023973 0.011604 0.003848 147 139 110
0.031412 0.003496 0.027473 85 93 81
0.035042 0.019545 0.005923 52 76 132
0.152610 0.000850 0.186948 68 64 52
-0.021254 0.008433 -0.015577 8 49 127
-0.012591 -0.003298 -0.012452 118 147 154
0.008882 0.012195 -0.004752 106 101 160
-0.038662 0.007029 -0.014652 46 72 78
-0.026466 0.008278 -0.013377 84 119 128
0.011971 -0.000339 0.021198 109 110 88
0.000801 0.009799 -0.006727 38 40 159
0.009375 0.020350 -0.004477 98 110 118
-0.038601 0.002455 0.003323 81 84 76
-0.043855 -0.023890 -0.007527 135 135 116
-0.014446 -0.022529 0.003073 93 93 87
0.038907 0.007025 0.003698 165 164 122
0.021192 -0.023428 0.016598 63 72 63
0.032620 -0.025476 0.020373 95 101 94
-0.010352 0.003107 0.013648 90 90 71
0.015046 0.023358 -0.003177 130 74 14
0.013945 0.023003 -0.003502 47 48 144
-0.009558 0.018075 -0.012152 25 106 192
-0.014937 -0.008408 -0.015902 149 170 154
0.032490 -0.012216 0.005298 0 34 48
0.014957 -0.008807 0.004623 30 32 58
0.005129 -0.015032 -0.006152 106 74 16
-0.008753 0.018265 -0.011952 6 40 97
0.034634 -0.022190 0.001023 79 82 74
-0.038792 0.017962 -0.016852 0 3 14
-0.026094 0.008304 -0.012277 77 109 119
-0.017882 0.009961 -0.016177 21 97 177
0.001500 -0.002861 0.016223 106 104 85
0.003326 -0.005615 -0.002927 52 32 0
0.012913 0.006885 -0.006052 185 179 145
-0.048893 0.003283 -0.000002 109 114 99
-0.039897 0.006281 -0.013352 52 72 84
-0.013691 0.012046 -0.014177 39 122 209
-0.031106 -0.026166 -0.003702 109 110 95
0.001202 -0.024211 -0.006702 30 23 24
-0.024813 -0.009478 -0.004802 0 7 10
-0.013012 0.015116 -0.014502 22 65 118
-0.011940 0.000144 -0.011827 54 160 166
-0.027407 0.016248 -0.016052 71 100 99
-0.019025 0.015716 -0.016427 208 197 165
-0.047259 0.005468 -0.014252 123 128 115
0.007427 0.001051 0.019748 125 121 102
-0.022158 -0.006599 -0.014002 9 18 36
-0.021970 0.014080 -0.017077 216 204 166
-0.019116 0.008422 -0.013452 13 55 129
-0.043606 -0.023376 -0.007277 126 129 109
0.007880 0.012377 -0.004752 76 52 140
0.001678 0.016407 -0.006752 174 139 103
0.000334 0.015373 -0.007152 91 88 97
0.021158 -0.022754 -0.009802 208 202 156
0.006792 0.018159 -0.003852 143 134 82
0.034864 -0.022543 0.018898 115 120 95
-0.009761 -0.010467 -0.001502 14 8 1
-0.020518 0.010691 -0.017202 26 93 166
-0.038590 0.009087 -0.017752 83 109 115
0.000522 -0.008757 -0.008102 40 55 148
0.031003 0.021774 0.008748 76 76 50
-0.017279 -0.000303 -0.016477 62 181 172
0.016767 -0.003759 0.003023 111 119 112
-0.004444 -0.000012 0.014673 106 104 80
-0.016857 -0.013729 -0.016577 82 108 123
0.007481 0.020567 -0.004377 92 82 60
-0.030236 0.009072 -0.017827 88 113 110
-0.015581 -0.004333 -0.016452 42 58 95
-0.038917 0.015585 -0.017927 2 5 42
0.021809 0.023698 0.002273 154 158 115
0.030800 0.020430 0.011148 45 32 12
-0.013058 0.014684 -0.014402 36 110 190
-0.015953 -0.012344 -0.015852 72 93 116
0.019922 -0.003567 0.000848 47 148 167
0.008535 0.018322 -0.004377 86 80 66
0.009276 -0.003547 0.018623 111 109 85
0.013009 0.012378 -0.003652 78 66 153
0.006336 0.019830 -0.003827 163 140 97
0.017308 -0.007313 0.003773 0 27 46
0.009060 0.016643 -0.004152 215 146 0
-0.011161 -0.020911 0.002973 83 85 79
0.017674 -0.007365 -0.000402 51 91 145
-0.021925 -0.023169 0.000523 100 105 90
-0.024551 0.013488 -0.014977 64 85 114
-0.015335 -0.011429 -0.015027 65 101 121
-0.024968 0.018519 -0.014852 38 56 73
0.012121 -0.017261 -0.008202 109 111 93
-0.010969 -0.026299 0.003573 102 100 94
-0.037609 -0.006350 -0.017577 78 102 108
-0.008605 -0.009393 -0.004427 19 21 33
-0.009013 -0.012462 -0.003927 25 15 0
0.009249 -0.007730 -0.002877 51 82 87
-0.007421 -0.004296 -0.008477 92 59 0
-0.023801 -0.026208 -0.001077 98 104 97
-0.025597 0.008580 -0.016002 81 113 116
0.011476 0.007093 0.009923 101 104 96
-0.011135 -0.013071 -0.011752 81 108 120
-0.006268 -0.024589 0.005923 100 100 89
0.034754 -0.024971 0.000448 68 73 58
-0.024298 0.019127 -0.014252 19 33 57
0.030676 0.021670 0.007123 55 52 15
0.030448 -0.022778 0.019823 93 110 97
-0.031165 0.017076 -0.017677 23 22 110
-0.043512 0.006107 -0.014377 61 85 91
-0.038989 0.016263 -0.017627 0 2 30
-0.022928 0.000446 -0.014477 23 74 74
0.011192 0.008619 -0.000402 33 31 149
0.005561 -0.001663 0.018173 120 120 101
0.022993 -0.021786 0.017623 9 49 48
-0.019736 0.014581 -0.016752 225 220 176
-0.039145 0.016785 -0.014677 38 25 115
-0.048821 0.004255 0.000548 110 110 104
0.002193 -0.013198 -0.007052 141 99 0
0.004367 -0.013426 -0.003952 55 37 0
0.030489 -0.026668 0.014473 88 99 91
-0.019545 0.011936 -0.016602 48 135 222
-0.021962 0.011117 -0.017402 15 90 159
-0.025742 0.006941 -0.011427 33 53 65
-0.011456 0.019765 -0.014002 44 39 9
-0.016535 0.015127 -0.015702 143 167 175
0.019894 -0.021677 -0.009077 68 62 48
0.016011 0.005442 0.024573 118 116 97
-0.040115 0.019755 -0.014127 66 60 108
0.032470 -0.014305 0.002973 6 59 72
-0.012510 -0.003057 -0.012477 119 147 157
0.005517 -0.012217 -0.006202 160 115 0
0.012738 -0.023926 -0.006527 10 12 22
0.016372 -0.013317 0.004048 0 22 33
-0.003498 -0.009461 -0.010252 211 214 173
-0.014998 -0.013190 -0.014977 97 126 143
-0.031228 0.005794 0.007323 83 84 81
0.006752 0.007945 0.000798 48 50 181
-0.013953 0.015392 -0.014727 34 116 192
0.007571 0.023345 -0.003702 51 39 30
0.004736 0.025252 0.000648 21 15 8
0.021751 0.025118 0.002823 129 163 140
-0.001634 -0.026578 0.007348 98 95 92
-0.025044 -0.000822 -0.014727 26 45 59
-0.010827 -0.011780 -0.011127 101 127 135
-0.011164 0.015402 -0.013427 232 221 176
-0.021407 -0.000783 -0.014577 61 80 103
0.029362 -0.022647 0.013498 85 94 85
-0.044521 0.002359 0.001223 92 92 81
0.023148 0.015676 0.003523 72 57 22
0.033315 0.019854 0.006073 79 68 14
0.030783 0.017311 0.006823 106 107 73
-0.001421 0.016810 -0.009052 81 74 76
-0.002257 -0.025972 0.007648 106 102 95
-0.026346 0.014767 -0.015652 95 126 138
0.020589 -0.002644 0.023423 146 148 130
0.017994 -0.010436 0.000623 19 48 81
0.024005 0.017734 0.003698 186 177 132
-0.009060 -0.014127 -0.004127 30 18 0
-0.006822 -0.014986 -0.009402 88 60 4
0.036406 -0.012281 0.002498 64 141 145
0.001277 0.006191 -0.010252 191 185 164
0.024620 -0.013920 -0.002202 60 96 100
-0.023124 -0.024869 -0.000377 101 103 97
-0.015903 -0.011276 -0.015952 72 92 112
0.004415 0.019879 -0.002227 54 4 0
0.007772 0.021242 -0.004152 70 56 39
-0.010919 0.012337 -0.013777 36 40 45
-0.019322 -0.017187 -0.014852 65 94 111
-0.025573 0.015910 -0.015602 20 38 50
-0.008592 -0.006310 -0.003552 24 21 11
-0.002476 0.018415 -0.009702 129 153 153
-0.043710 0.005693 0.002723 105 105 94
-0.021249 0.006514 0.005823 76 77 69
0.015645 -0.004761 0.005398 8 62 73
0.025902 -0.007043 0.000323 32 127 138
0.027005 -0.023955 0.003198 9 18 36
0.019406 -0.024841 0.002348 32 39 50
-0.003891 -0.024832 0.006998 99 99 88
-0.038717 0.009057 -0.017902 84 110 116
-0.051708 0.004598 -0.003577 68 82 65
0.029651 -0.028417 0.017823 109 114 99
0.021072 -0.022741 -0.009727 197 198 151
0.006685 -0.021249 -0.015852 67 67 48
0.013089 0.009553 -0.004202 41 46 144
-0.004239 -0.005855 -0.009727 186 183 148
-0.013515 0.005419 -0.015927 172 170 144
0.006224 -0.011415 -0.005702 196 190 149
0.033960 -0.013354 0.002248 30 136 140
0.032416 0.014130 0.008498 79 70 4
-0.002331 0.017709 -0.009552 227 162 0
-0.016774 0.013993 -0.015602 45 134 209
0.010699 -0.026911 0.011273 98 101 93
-0.013740 -0.010970 -0.014052 130 160 170
0.014493 -0.023379 0.014223 99 100 87
-0.052141 0.003071 -0.001927 79 92 66
-0.016346 -0.008488 -0.017077 105 138 145
0.020639 0.008956 0.003448 32 24 8
-0.004046 -0.001861 0.014373 98 97 75
0.031184 0.015154 0.010248 33 28 11
0.021944 0.020121 0.002348 73 61 23
-0.006582 -0.001848 0.013423 99 93 72
-0.016264 0.007075 -0.016327 171 167 139
0.019179 -0.007621 -0.000752 29 131 147
-0.039204 0.009555 -0.017927 81 111 114
-0.022776 -0.008861 -0.017477 8 22 32
-0.003860 0.007238 0.000273 43 38 70
0.016558 -0.014215 0.003848 5 26 35
0.031994 -0.026388 -0.000102 69 71 81
-0.025537 0.011240 -0.015477 26 28 106
0.005020 -0.007868 -0.002902 65 53 58
-0.038273 0.007479 -0.017677 54 78 84
0.016270 0.019004 -0.002452 139 77 13
0.016763 0.002263 0.023698 118 119 97
-0.038522 0.011637 -0.017927 35 50 64
0.010445 0.019454 -0.004277 76 80 94
-0.018524 -0.005649 -0.017352 29 72 43
0.005587 0.009665 -0.002077 31 37 146
0.028414 -0.003506 0.025723 105 113 101
0.017569 0.010770 -0.003827 29 35 142
-0.008050 -0.016641 -0.006127 60 41 0
0.011559 -0.024608 0.012573 61 62 59
-0.015697 0.010021 -0.015177 29 98 174
-0.012585 -0.001182 -0.012552 81 111 126
-0.041066 0.006491 -0.015477 51 76 87
0.026810 -0.004324 0.002048 31 136 145
0.013909 0.007856 0.004148 26 23 102
0.023638 0.021727 0.002923 40 52 115
0.033442 0.004657 0.027223 90 81 63
0.033420 -0.023589 0.005798 84 90 83
-0.036824 -0.024444 -0.005527 103 105 94
-0.022607 0.015733 -0.013752 223 210 175
-0.024384 0.014843 -0.015027 7 7 72
0.013453 0.006916 -0.005802 187 180 148
0.011217 -0.009454 -0.001552 75 81 142
0.031506 0.023715 0.010323 44 65 47
0.143971 0.082861 0.166198 61 52 25
-0.009467 -0.001430 0.012598 91 89 70
0.023151 -0.008953 -0.001727 76 124 128
0.034266 0.025874 0.007048 152 173 141
-0.021657 -0.026517 -0.000402 108 109 106
0.031312 -0.026114 0.019498 105 107 96
0.016810 0.010988 -0.003652 42 40 149
0.014298 0.023404 -0.003302 27 28 136
-0.009434 0.008172 -0.008702 13 65 149
-0.012271 -0.027659 0.002548 92 94 99
0.012608 0.007906 0.004998 28 24 80
0.016725 0.021226 -0.002027 137 91 29
0.001777 0.005146 0.019273 103 100 78
0.018842 -0.011894 -0.002402 20 108 126
0.023873 -0.011742 -0.001902 54 137 150
0.036739 0.014188 0.005823 171 164 132
0.039906 0.018839 0.008123 50 70 109
0.000643 0.014347 -0.006877 193 183 167
-0.019847 -0.016186 -0.017102 53 79 94
-0.045131 -0.001177 -0.000252 98 101 88
0.011394 -0.003887 0.000248 171 124 0
0.001549 -0.003763 -0.006252 209 151 0
0.000793 -0.005392 -0.007027 173 166 134
0.011229 0.011544 -0.004127 44 37 156
0.037779 -0.011485 0.002948 59 155 161
0.031758 0.026640 0.006923 53 43 7
0.013797 0.021789 -0.003777 52 45 150
0.016635 -0.015783 0.001998 4 22 34
-0.012843 -0.028053 0.001748 97 99 104
-0.001758 -0.024300 0.007198 47 40 17
0.015818 -0.014055 0.004098 7 43 47
-0.007546 0.010245 -0.011977 45 50 187
-0.040373 0.001856 0.002448 88 87 84
0.020498 -0.011671 -0.002602 35 137 153
0.018163 0.013644 -0.002552 176 108 0
-0.030206 0.011868 -0.017727 26 23 96
-0.034282 0.006071 0.006223 74 79 75
-0.033093 0.001533 0.005048 61 65 70
0.022678 0.001785 0.025623 160 160 136
0.021351 -0.004161 0.000823 58 126 138
0.017405 -0.014983 -0.000102 0 21 22
0.016697 0.015217 -0.002677 179 164 117
-0.027098 -0.023259 -0.001377 115 117 111
-0.043745 -0.000588 0.000773 70 102 118
-0.007821 -0.012989 -0.005902 31 18 0
-0.040104 0.000785 0.002298 82 83 75
-0.008540 0.007217 0.000098 18 17 105
0.033157 -0.005345 0.003773 21 103 113
0.032878 -0.004225 0.004173 22 100 102
0.038331 -0.003046 0.004773 21 91 101
0.014781 0.020540 -0.003502 201 168 127
-0.004470 0.014860 -0.009977 177 160 157
-0.001752 -0.010221 -0.009927 214 206 165
0.007115 0.000665 0.019448 126 123 101
0.032755 -0.025757 0.000173 72 81 65
-0.048279 -0.001793 -0.001452 102 105 92
0.031405 -0.028409 0.018373 101 105 94
-0.012677 -0.018703 -0.017902 164 162 129
-0.045510 -0.023163 -0.007952 137 142 115
0.024077 -0.011889 -0.001877 50 141 157
-0.017640 -0.000414 -0.016527 55 147 147
0.005522 0.017328 -0.004327 184 134 2
0.018750 0.014052 -0.002827 175 111 0
-0.047029 0.004536 0.000973 117 122 109
-0.006994 0.009102 -0.008502 30 36 157
0.023621 0.004859 0.027148 146 144 118
0.009281 -0.009813 -0.003402 49 53 145
-0.032267 0.003697 0.005948 58 79 88
-0.005990 -0.013220 -0.009577 164 120 0
0.033613 -0.002404 0.024798 117 122 107
-0.012671 -0.014420 -0.013127 68 95 112
-0.023248 0.008870 -0.014427 47 81 99
-0.024287 0.000376 -0.014152 29 105 105
-0.027700 -0.023556 -0.001627 115 119 108
-0.003581 0.020099 -0.010252 105 109 109
0.000613 0.021460 -0.008077 56 57 167
0.002282 0.012541 -0.005677 184 113 0
-0.007782 0.016454 -0.007652 180 133 7
0.014710 0.013574 -0.003077 191 123 0
0.006538 -0.025598 -0.000902 32 32 49
-0.022021 -0.002443 -0.014252 26 35 44
-0.001721 -0.008791 -0.009702 81 61 145
-0.015291 -0.013583 -0.015077 85 112 129
-0.013058 -0.015370 -0.013827 55 82 101
-0.013619 -0.008986 -0.014602 133 159 165
-0.039847 0.005391 0.003948 82 80 80
-0.003161 0.014752 -0.009452 115 116 171
0.004635 -0.014711 -0.004802 48 30 0
0.019362 0.013394 -0.002402 62 57 136
-0.010982 0.001932 -0.009877 71 110 132
-0.004365 -0.014361 -0.011102 194 190 157
-0.041422 0.002256 0.002298 89 85 78
0.005218 -0.013206 -0.006152 145 106 0
-0.021173 -0.018591 -0.011302 59 85 93
0.019174 0.010116 0.000723 82 76 48
0.005329 0.000469 0.018998 124 124 100
0.019792 -0.004988 0.000548 25 103 123
-0.024388 0.018389 -0.014477 1 11 45
0.021477 -0.022173 -0.009677 51 71 115
-0.039994 -0.007031 -0.014927 19 40 37
-0.022659 0.001214 -0.014477 31 91 91
0.013880 0.018211 -0.003677 57 40 25
0.012867 0.014680 -0.003527 194 118 0
0.038049 0.022039 0.007798 156 148 112
0.013671 -0.027679 0.009548 79 91 86
-0.022896 -0.004988 -0.014752 13 25 33
-0.026020 0.001908 -0.013677 40 70 80
-0.036269 0.007585 -0.015927 80 104 110
-0.039710 -0.005742 -0.017152 40 59 53
-0.023689 0.019077 -0.014077 82 122 176
0.033190 0.001593 0.026073 123 131 96
-0.007251 -0.004508 -0.008502 92 59 0
-0.020948 0.007262 -0.008502 13 58 124
-0.017196 -0.004971 -0.016777 36 66 135
0.016940 -0.006546 0.003898 0 32 48
0.009038 -0.023738 -0.006902 49 51 77
-0.017483 0.001477 -0.016352 12 114 112
0.022198 0.022303 0.002348 83 87 35
-0.009424 0.006508 -0.000102 23 22 103
-0.001296 0.009082 -0.007852 42 42 168
-0.016028 0.000040 -0.015852 86 103 110
-0.038393 0.000743 0.002698 82 82 76
0.020518 -0.003964 0.000848 90 153 158
0.001916 -0.017833 -0.011777 154 153 131
-0.014878 0.015679 -0.015027 76 134 201
0.031723 0.016895 0.010198 83 81 48
0.028152 0.000522 0.027448 109 113 90
-0.019011 0.002652 -0.016502 46 76 104
0.035643 -0.004412 0.003773 91 139 128
0.006460 -0.014974 -0.005827 161 154 115
-0.020729 0.006988 -0.008302 18 58 118
-0.006613 -0.003934 0.012573 94 89 72
-0.002236 0.016956 -0.009127 213 146 0
-0.013579 -0.008714 -0.014627 52 81 93
-0.003820 0.020385 -0.010152 85 75 53
-0.012017 -0.007233 -0.011902 120 149 156
-0.036320 0.006158 0.003823 79 79 80
0.138629 0.005604 0.183748 223 230 179
0.017402 -0.007201 0.002023 2 57 74
-0.038217 0.007485 -0.015852 73 100 104
0.033772 -0.024247 0.000073 89 89 70
-0.052067 -0.000516 -0.005602 31 31 48
-0.024983 0.018958 -0.014802 20 45 64
0.005100 0.022752 -0.000402 18 19 11
0.032284 0.010434 0.009673 95 86 47
-0.010504 0.010735 -0.013077 40 117 200
-0.050844 0.004690 -0.000177 72 77 80
-0.020140 0.011048 -0.016927 24 90 160
0.009318 0.014635 -0.003902 159 144 158
0.031300 0.026407 0.007173 63 50 10
-0.003789 -0.009544 -0.010252 129 163 161
0.000778 0.011898 -0.006602 91 97 150
0.004633 -0.005173 -0.002527 64 52 112
0.018658 -0.024220 -0.005877 64 71 62
-0.047343 0.005593 -0.012177 34 51 45
0.012025 -0.026160 0.012148 94 102 90
0.009547 -0.009971 -0.003602 59 70 141
0.010269 -0.003718 -0.000227 167 132 4
0.002302 -0.009024 -0.005802 143 120 48
0.015634 -0.027412 0.013123 87 93 86
-0.040133 -0.018311 -0.012302 77 98 107
-0.023784 0.014786 -0.014577 108 113 136
0.011360 0.005068 0.019998 59 60 47
0.005083 0.021946 -0.000477 17 18 10
0.010550 -0.023610 -0.005227 0 11 24
-0.014632 0.002117 -0.014827 71 190 197
-0.007793 -0.010558 -0.004877 22 27 12
0.023511 -0.015518 -0.002052 0 42 54
-0.010295 -0.027959 0.003323 93 97 102
-0.040218 0.006225 -0.013477 53 81 91
-0.020982 0.013062 -0.016927 33 110 193
0.023271 -0.013123 -0.002152 57 121 130
0.014456 0.019146 -0.003502 205 142 0
0.037798 0.008232 0.030073 114 111 81
0.011995 0.008672 -0.000027 30 30 148
-0.034308 -0.000164 0.003998 63 67 66
0.027311 0.018079 0.005623 193 187 141
0.007271 0.014540 -0.004477 178 170 181
0.000713 0.001739 0.017273 104 102 83
0.036343 0.007554 0.025698 115 113 80
0.023897 0.025221 0.002823 97 71 51
-0.005562 -0.013427 -0.011252 173 128 0
-0.012891 0.016580 -0.014602 35 34 31
-0.011649 -0.003488 -0.011002 107 136 148
-0.038770 -0.013848 -0.016827 96 124 112
0.022807 -0.025548 0.005298 82 95 87
-0.015830 -0.007903 -0.016827 134 157 159
0.025560 0.005418 -0.001777 175 168 136
-0.010634 -0.004584 -0.010552 108 134 140
0.002094 -0.016600 -0.007777 121 89 0
-0.012361 0.006547 -0.010702 9 33 94
0.015302 -0.020887 0.010798 149 116 0
-0.038931 0.002663 0.003373 86 84 84
0.140723 0.081630 0.157273 127 129 98
0.024949 -0.016836 -0.003602 78 96 87
-0.025115 0.012471 -0.015377 91 122 134
-0.011874 0.015940 -0.014202 204 203 166
0.036475 -0.012374 0.002448 55 105 114
-0.044548 -0.023153 -0.007752 137 135 121
0.019138 -0.009714 -0.001402 116 122 149
0.029890 0.026750 0.007073 55 42 7
-0.040929 -0.024506 -0.006627 107 108 93
-0.015117 0.017196 -0.014927 38 126 204
0.012236 0.017227 -0.003877 79 75 56
0.011313 0.017528 -0.004427 75 60 27
0.018759 -0.024945 -0.005852 78 80 62
-0.046731 0.003018 0.000523 111 114 94
-0.044439 0.003842 0.001748 100 100 94
-0.013408 0.005951 -0.015852 178 172 144
0.008927 0.014063 -0.003977 193 138 55
0.010720 -0.004785 -0.000352 165 154 134
0.002251 -0.012247 -0.006977 121 92 52
-0.021318 0.007508 -0.008577 13 60 125
-0.011523 0.001589 -0.011077 51 119 131
-0.006271 -0.004531 -0.010102 147 111 0
-0.015724 0.000684 -0.015577 88 187 174
0.023324 -0.014780 -0.001952 39 135 150
-0.040115 -0.009757 -0.014127 39 59 77
-0.026011 0.006642 -0.006577 40 49 74
-0.035432 -0.000581 0.003523 56 77 93
-0.002339 -0.013690 -0.010277 146 127 72
0.031845 -0.003912 0.006598 8 62 73
-0.019614 0.008074 -0.014127 12 58 134
-0.006670 0.009633 -0.011377 45 49 183
0.039452 0.011281 0.005973 128 118 84
0.012296 0.014267 -0.003702 160 112 2
-0.004335 0.010762 -0.009402 37 36 156
0.032803 -0.006337 0.003873 8 80 90
-0.028679 -0.025590 -0.002677 115 117 111
0.009757 -0.027323 0.006998 85 91 91
-0.002172 -0.009841 -0.009952 215 206 161
0.000331 0.010252 -0.006902 99 95 138
0.013081 0.004087 0.023048 113 113 94
0.034994 0.021067 0.006373 58 76 120
-0.005195 -0.022164 0.004248 97 93 79
-0.014106 0.006081 -0.016002 179 173 145
-0.021799 -0.026605 -0.000427 101 104 96
-0.032258 -0.000735 0.004248 53 59 59
-0.017108 -0.000857 -0.016627 125 146 143
0.024288 -0.014109 -0.002202 41 136 140
0.022803 0.005964 0.027173 158 157 135
0.007280 0.004103 0.020973 126 125 103
0.014979 -0.025631 0.000498 7 15 22
0.010753 0.011304 -0.004177 37 38 153
0.014682 0.009377 -0.002402 33 34 144
-0.038542 0.014380 -0.017527 0 2 29
-0.014949 0.015625 -0.015077 62 124 198
-0.012997 0.009616 -0.014152 42 119 210
-0.051107 0.001575 -0.001152 79 80 77
-0.014275 -0.014327 -0.014552 72 102 117
0.012020 0.007098 0.023573 108 104 92
-0.025247 -0.023644 -0.000677 100 101 98
0.034866 0.015817 0.005723 140 124 64
-0.005427 -0.003189 -0.009352 139 100 0
0.027642 -0.025920 0.018198 120 120 101
-0.014555 -0.000745 -0.015227 103 150 157
-0.022007 0.014007 -0.017077 214 204 168
-0.010027 -0.005528 -0.004077 40 29 0
-0.040733 -0.002304 -0.012302 81 119 125
0.003952 -0.006222 -0.002402 53 49 30
-0.010528 -0.021936 0.005248 86 83 80
0.020604 -0.016012 -0.002577 25 132 141
0.006129 -0.003999 -0.003352 180 132 0
-0.001811 -0.017839 -0.013527 127 127 101
0.031149 0.024998 0.011823 35 27 11
-0.011774 -0.009684 -0.011952 81 108 127
-0.028478 0.013371 -0.016477 35 33 117
0.005429 -0.024148 0.010098 153 157 134
0.032074 0.011321 0.007198 158 157 135
-0.012037 -0.001881 -0.011477 119 146 158
-0.002808 -0.007453 -0.009677 51 64 151
0.004181 -0.000665 0.018123 109 106 89
-0.002820 -0.007860 -0.009777 67 58 144
-0.006478 0.007973 -0.004002 20 25 123
-0.024419 0.018495 -0.014502 2 5 42
-0.034640 0.001997 0.004798 74 74 74
-0.016913 -0.003690 -0.016702 62 87 116
-0.039056 0.003971 0.003673 81 81 75
0.016931 -0.016071 0.003323 0 20 29
-0.017214 0.010254 -0.015677 29 102 185
0.021946 -0.008484 -0.001252 49 136 145
-0.001452 -0.013623 -0.009277 183 154 114
-0.008353 0.022591 -0.005677 14 18 17
0.154468 0.008869 0.187523 113 119 81
-0.008924 -0.008719 -0.004327 1 3 29
-0.051490 0.000207 -0.005327 87 89 71
-0.009080 0.011450 -0.012527 42 119 203
-0.041805 -0.023549 -0.007052 103 106 98
0.035987 0.014897 0.005898 187 182 131
-0.019297 0.013166 -0.016552 226 213 178
-0.033372 0.007867 -0.016677 79 105 113
-0.000833 -0.002419 0.015473 98 97 75
-0.021930 0.006882 -0.006427 3 28 79
-0.005841 -0.025883 -0.002527 96 98 108
-0.038100 0.012875 -0.017602 121 138 139
0.033496 -0.025987 -0.000127 30 34 33
0.025195 -0.016982 -0.003577 111 119 96
0.012354 0.020301 -0.003802 144 157 156
0.025738 -0.008626 -0.000452 33 135 145
-0.031174 -0.024397 -0.003227 105 105 99
-0.017506 -0.015141 -0.017802 60 90 105
-0.023783 0.007384 -0.009152 13 61 118
0.019553 -0.006678 -0.000452 34 131 143
0.032563 -0.007200 0.005423 8 45 60
-0.016205 0.013536 -0.015352 35 112 195
0.011516 0.006670 -0.006352 184 176 147
0.005284 -0.003422 -0.003777 178 128 0
-0.009680 0.017032 -0.011777 29 108 185
-0.030476 0.010924 -0.017602 46 65 93
-0.017995 -0.004747 -0.016827 23 51 113
0.034082 -0.004065 0.004098 20 116 124
-0.019531 0.000844 -0.017577 53 85 108
-0.020316 0.002720 -0.017627 57 85 107
-0.001336 -0.002596 0.015273 100 96 77
-0.021556 -0.001630 -0.014427 6 26 38
0.023587 0.021727 0.002923 37 49 112
-0.018619 0.006907 -0.006927 16 42 103
0.007307 0.023066 -0.003827 34 27 17
0.001557 0.019709 -0.007402 221 205 166
0.022134 -0.005758 0.000273 10 77 78
0.014197 -0.028784 0.013023 82 91 89
0.008329 -0.021064 -0.015752 73 63 34
0.007741 0.003189 0.020698 122 120 101
-0.038493 0.014451 -0.017177 67 84 93
-0.021330 0.015541 -0.016852 214 201 166
-0.013951 -0.011231 -0.014302 115 146 153
-0.006960 0.009366 -0.011502 46 53 183
0.025452 0.005607 -0.001802 162 163 134
-0.008590 -0.005949 -0.003427 27 23 11
-0.013562 -0.004365 -0.014352 71 110 93
-0.039218 -0.016470 -0.014952 16 32 35
-0.000629 0.016651 -0.008302 56 54 35
