ply
format ascii 1.0
element vertex 1231
property float x
property float y
property float z
property uchar red
property uchar green
property uchar blue
end_header
-0.009745 -0.001977 -0.044540 112 143 57
-0.009731 -0.002024 -0.044540 25 52 3
-0.009773 -0.001992 -0.044540 102 135 48
-0.000676 0.023405 0.023235 91 145 158
-0.045789 0.020788 0.016360 5 20 62
-0.014960 0.003394 0.009110 29 99 63
-0.009724 -0.001994 -0.044540 0 96 29
-0.008630 0.021127 0.023410 50 83 96
0.014274 -0.002051 0.021010 162 159 143
-0.009778 -0.002019 -0.044540 16 110 27
0.016791 0.012087 0.042810 48 97 72
-0.009648 -0.001994 -0.044540 121 139 135
-0.001369 -0.004949 0.011260 172 173 146
-0.009731 -0.001994 -0.044540 118 149 67
-0.009733 -0.001999 -0.044540 119 150 66
-0.008403 0.018335 0.022260 71 130 155
0.043425 0.003634 0.050460 0 11 44
-0.009746 -0.001979 -0.044540 80 128 51
-0.005383 0.009777 0.033435 2 12 30
-0.009714 -0.002020 -0.044540 85 132 49
-0.009670 -0.001980 -0.044540 41 74 57
-0.009768 -0.001974 -0.044540 93 128 47
-0.009768 -0.002016 -0.044540 72 131 44
-0.017371 -0.030466 0.027310 40 49 31
-0.009777 -0.001957 -0.044540 70 89 93
-0.004727 0.022117 0.021610 102 168 190
0.012174 0.018608 0.028635 51 116 59
-0.009777 -0.001984 -0.044540 90 121 37
-0.014848 -0.001177 0.006435 90 145 55
0.015530 -0.021286 0.014385 187 166 122
-0.001821 -0.013793 0.007460 136 161 140
0.038873 -0.008437 0.038185 126 154 139
-0.009775 -0.002004 -0.044540 98 129 47
0.015315 -0.013650 0.016285 148 155 147
0.023344 -0.012284 0.022835 164 135 73
0.006641 -0.006028 0.013835 168 153 114
-0.025713 0.021200 0.021485 5 74 22
-0.009753 -0.001992 -0.044540 6 108 36
-0.009770 -0.002008 -0.044540 88 125 43
-0.004524 -0.001813 0.019910 72 86 64
-0.020881 0.022331 0.019610 0 64 13
0.060683 0.035891 0.074035 88 78 50
-0.020801 0.003833 0.005435 53 119 41
-0.009734 -0.001984 -0.044540 110 147 65
0.024721 -0.017818 0.021585 205 180 131
-0.007602 -0.000981 0.011035 121 158 65
0.023461 0.014286 0.038035 76 118 89
-0.009757 -0.001987 -0.044540 1 88 19
-0.033783 0.001017 0.008160 71 131 50
-0.009661 -0.002027 -0.044540 91 70 39
-0.009754 -0.001969 -0.044540 48 92 69
0.042821 0.038609 0.059785 110 127 132
-0.009743 -0.002005 -0.044540 15 98 30
-0.009756 -0.002004 -0.044540 6 74 27
-0.009774 -0.001999 -0.044540 13 76 17
-0.009728 -0.001992 -0.044540 6 112 41
-0.009768 -0.001985 -0.044540 94 130 44
-0.009757 -0.001962 -0.044540 65 80 79
-0.009744 -0.001985 -0.044540 86 156 72
0.007186 0.021369 0.027060 85 140 157
-0.029182 0.016898 0.047535 70 97 90
-0.015260 0.022090 0.020485 25 126 61
0.017712 -0.010346 0.019710 209 189 140
0.019036 -0.018492 0.016035 136 121 84
-0.004327 -0.005818 0.018885 38 44 27
-0.009745 -0.001989 -0.044540 92 129 49
-0.009739 -0.002023 -0.044540 17 67 4
0.040612 -0.017263 0.029485 101 125 137
-0.009714 -0.002010 -0.044540 18 106 34
-0.009750 -0.001996 -0.044540 47 128 54
-0.009746 -0.002006 -0.044540 76 115 49
-0.009723 -0.002001 -0.044540 33 118 40
0.001003 -0.023786 0.019310 89 85 58
-0.009736 -0.002027 -0.044540 6 47 9
-0.009761 -0.002019 -0.044540 12 118 33
-0.009740 -0.001981 -0.044540 108 144 60
-0.009746 -0.001966 -0.044540 87 114 109
0.016253 -0.008473 0.017135 148 137 101
-0.009772 -0.001982 -0.044540 52 107 28
-0.007708 0.016359 0.022560 105 142 163
-0.009772 -0.001974 -0.044540 99 134 53
-0.009753 -0.002019 -0.044540 87 132 61
-0.009681 -0.002019 -0.044540 160 163 124
0.043893 0.037417 0.066110 36 26 12
0.002888 0.017797 0.025935 60 107 147
0.053002 -0.039993 0.061610 33 29 20
-0.009682 -0.001972 -0.044540 67 106 82
0.062307 0.036193 0.074710 88 60 59
0.013087 0.020701 0.029510 50 98 60
0.000344 0.015917 0.025860 93 145 170
-0.009746 -0.002006 -0.044540 72 113 48
-0.043526 -0.023125 0.014210 7 50 12
-0.028379 -0.020343 0.008635 50 82 22
0.048619 0.011198 0.047335 97 118 105
0.001034 -0.012640 0.007985 149 122 87
0.040881 -0.011095 0.035410 135 160 151
0.010833 -0.014692 0.012160 128 87 48
0.040913 0.013237 0.043535 94 128 108
-0.009775 -0.002019 -0.044540 16 107 41
-0.009741 -0.001989 -0.044540 84 136 47
-0.005964 -0.013083 0.007710 4 84 33
0.002475 0.022908 0.024760 69 140 172
-0.009736 -0.001968 -0.044540 70 100 92
-0.014867 0.000706 0.007385 114 156 57
0.051849 0.010760 0.046135 85 105 116
0.006926 -0.015860 0.011335 151 120 81
0.036522 0.011328 0.044160 103 149 123
0.055202 0.037713 0.071235 47 27 5
-0.004392 0.009236 0.032860 0 12 39
-0.009770 -0.002014 -0.044540 76 120 36
-0.009642 -0.001994 -0.044540 48 54 52
-0.029053 -0.027277 0.022485 9 36 5
-0.009778 -0.001981 -0.044540 58 108 27
-0.009754 -0.001963 -0.044540 58 79 85
-0.009754 -0.001963 -0.044540 87 101 103
-0.009048 0.010432 0.032885 0 6 25
-0.009756 -0.001972 -0.044540 13 111 40
-0.009743 -0.001968 -0.044540 86 109 101
-0.002830 -0.016269 0.006485 123 155 132
0.028130 -0.024666 0.022035 160 157 125
0.001642 -0.034025 0.037060 49 46 30
0.065561 -0.002520 0.092785 51 66 63
0.070572 0.040339 0.073110 107 113 124
0.029115 0.012261 0.041160 103 147 124
-0.001335 -0.018618 0.008610 137 144 102
-0.009726 -0.001988 -0.044540 74 152 68
0.009233 -0.010899 0.014035 166 156 126
-0.003614 -0.002132 0.014935 156 134 99
0.025077 0.014373 0.037560 55 125 52
-0.009747 -0.001992 -0.044540 111 144 59
-0.001441 0.012323 0.028335 0 14 49
-0.009744 -0.002009 -0.044540 115 139 66
-0.009639 -0.002025 -0.044540 4 3 3
-0.009777 -0.002029 -0.044540 74 99 78
0.003912 -0.002778 0.014260 151 160 126
0.006154 0.001156 0.016935 139 159 154
-0.007433 -0.015691 0.004935 120 152 63
0.023675 0.010561 0.045660 69 107 90
0.003482 -0.000217 0.016260 175 146 105
0.038235 0.003863 0.051935 42 71 68
-0.009736 -0.002019 -0.044540 101 136 55
-0.009735 -0.001970 -0.044540 96 128 109
-0.024697 -0.027908 0.024160 24 48 9
0.012190 -0.017995 0.011060 166 147 102
-0.009775 -0.001971 -0.044540 88 99 51
0.007122 -0.003576 0.015085 161 141 105
-0.010993 -0.002655 0.007935 108 158 65
-0.009736 -0.001979 -0.044540 94 131 61
0.016124 0.025977 0.031910 27 73 36
-0.010797 0.014295 0.028310 40 69 81
-0.024981 0.018652 0.028410 0 43 6
-0.009770 -0.001999 -0.044540 15 60 10
0.020818 -0.014218 0.019010 162 136 96
0.021480 -0.021469 0.016735 152 119 79
0.006185 -0.011452 0.013735 166 145 99
-0.009723 -0.002015 -0.044540 8 112 37
-0.013607 0.013939 0.028885 0 20 57
0.001340 -0.032808 0.037485 46 45 28
0.027632 -0.022851 0.020485 140 131 81
-0.009722 -0.002019 -0.044540 50 114 37
-0.001283 -0.002999 0.012110 92 80 49
0.007241 -0.034957 0.039910 47 48 35
0.033533 0.017430 0.038535 35 65 40
-0.003330 0.002276 0.014335 156 176 161
-0.013730 0.003770 0.010060 135 180 161
0.011067 -0.006704 0.015360 151 159 148
0.022466 -0.020427 0.017160 152 145 112
-0.009767 -0.001980 -0.044540 88 164 81
0.029225 0.010429 0.045185 22 94 37
-0.019841 0.018384 0.030785 0 45 7
0.040018 -0.020083 0.031060 122 142 137
-0.009739 -0.001973 -0.044540 21 78 53
0.013967 -0.001181 0.021360 139 147 136
-0.009747 -0.001972 -0.044540 47 119 48
-0.003045 -0.016515 0.006560 121 150 128
-0.009745 -0.002018 -0.044540 96 133 51
-0.009730 -0.002000 -0.044540 117 150 65
-0.000480 -0.015824 0.004635 184 146 106
-0.011708 -0.002496 0.007485 109 158 63
0.010969 -0.000027 0.019560 132 147 142
-0.004995 -0.032147 0.034185 51 45 30
-0.009756 -0.001967 -0.044540 121 156 146
-0.009721 -0.002021 -0.044540 40 88 41
0.038732 0.008438 0.045610 101 131 125
-0.021601 0.017487 0.030735 0 51 14
0.001592 -0.012435 0.009935 156 150 114
-0.009773 -0.001960 -0.044540 106 126 119
0.023649 -0.019294 0.018985 161 156 127
0.021466 -0.005166 0.022835 143 114 73
-0.009761 -0.001972 -0.044540 94 129 48
-0.013293 -0.005715 0.004610 111 142 56
-0.009766 -0.002007 -0.044540 95 128 43
-0.009776 -0.002017 -0.044540 87 149 70
0.000429 -0.007789 0.011010 164 119 67
-0.007940 -0.006883 0.008260 98 138 49
0.048273 0.018622 0.050185 128 154 139
-0.009755 -0.002005 -0.044540 1 95 32
-0.009738 -0.002015 -0.044540 115 140 62
-0.014580 0.005757 0.006760 120 146 144
0.025693 -0.003722 0.026460 124 142 136
-0.009737 -0.002003 -0.044540 103 162 86
-0.009758 -0.002002 -0.044540 85 123 104
0.012562 0.022497 0.030860 24 82 27
-0.009715 -0.002021 -0.044540 76 133 56
0.022541 -0.009772 0.020035 115 105 105
0.009573 -0.018651 0.011760 147 152 138
0.029431 0.013325 0.039410 33 54 43
-0.027290 0.018647 0.025660 0 47 8
-0.009754 -0.002022 -0.044540 12 57 38
-0.009764 -0.001993 -0.044540 96 131 36
0.005633 -0.019881 0.011860 172 146 106
-0.002083 -0.010560 0.007760 182 147 103
0.046265 -0.008867 0.038985 144 167 163
-0.004870 -0.017552 0.005910 54 124 47
-0.009779 -0.002030 -0.044540 63 96 70
0.001206 0.001153 0.016010 178 189 170
-0.009751 -0.001970 -0.044540 69 113 88
0.039170 -0.011283 0.035010 118 135 119
-0.009742 -0.002006 -0.044540 97 136 56
-0.009660 -0.002025 -0.044540 111 88 58
0.050081 0.004615 0.046685 0 32 79
0.017753 -0.008077 0.018185 159 156 124
-0.009762 -0.002010 -0.044540 95 131 45
0.041391 0.010623 0.045635 48 72 70
-0.009760 -0.001973 -0.044540 27 108 36
-0.009763 -0.001995 -0.044540 50 119 40
-0.013185 0.022400 0.020935 16 122 55
-0.015981 0.019879 0.026485 0 54 11
-0.009682 -0.001991 -0.044540 152 154 122
-0.007211 -0.009227 0.007285 113 147 55
-0.009762 -0.001987 -0.044540 12 97 31
0.003826 0.000114 0.016810 180 184 161
-0.005759 0.014618 0.023910 67 142 168
-0.009735 -0.001970 -0.044540 86 113 104
-0.009715 -0.002011 -0.044540 102 140 51
-0.009798 -0.005818 0.007485 96 141 52
-0.009775 -0.001987 -0.044540 44 88 24
-0.009724 -0.002021 -0.044540 77 141 73
-0.043333 0.020226 0.040610 65 89 89
-0.009705 -0.002016 -0.044540 73 109 48
-0.016508 -0.008316 0.004635 80 128 92
-0.009745 -0.002000 -0.044540 102 144 61
0.037779 0.002926 0.051585 0 18 47
-0.009757 -0.001967 -0.044540 118 156 139
-0.009726 -0.001999 -0.044540 95 143 66
-0.009764 -0.002022 -0.044540 0 69 10
0.037890 0.009115 0.050260 87 112 105
-0.014689 0.001080 0.007910 117 155 59
-0.000874 -0.013697 0.005260 161 140 109
0.040454 0.015816 0.041635 35 95 42
-0.009708 -0.002009 -0.044540 0 79 18
-0.009748 -0.002025 -0.044540 40 64 7
-0.018607 0.005573 0.006535 144 188 177
-0.009726 -0.002017 -0.044540 112 142 65
-0.012120 0.003321 0.010810 139 179 162
-0.043225 0.021316 0.038485 64 83 83
0.011662 -0.001147 0.020235 171 180 162
-0.012950 0.022389 0.021035 16 122 53
-0.048339 0.021068 0.015460 43 65 38
-0.011263 0.000054 0.009285 67 109 39
0.012374 0.025069 0.030785 26 71 23
-0.033619 -0.006182 0.005010 67 112 64
-0.009768 -0.001967 -0.044540 65 137 52
-0.009722 -0.002028 -0.044540 23 43 10
-0.008078 0.004259 0.010135 113 137 135
-0.016722 0.000607 0.006185 7 113 42
0.008777 -0.009524 0.015060 204 135 80
-0.009761 -0.001977 -0.044540 94 133 41
-0.019934 0.004373 0.006235 0 119 49
0.069050 0.033705 0.080710 76 65 73
-0.009759 -0.001963 -0.044540 87 102 101
0.038767 -0.015063 0.033885 104 114 102
-0.009726 -0.002015 -0.044540 112 142 63
-0.009756 -0.001992 -0.044540 0 3 0
-0.009707 -0.002017 -0.044540 91 104 42
-0.009773 -0.002012 -0.044540 94 127 40
-0.009764 -0.001952 -0.044540 44 74 97
0.010927 -0.035907 0.041860 42 52 40
0.039412 -0.014873 0.033085 120 147 138
-0.009718 -0.002006 -0.044540 74 159 52
-0.009766 -0.001973 -0.044540 102 138 52
-0.009937 -0.011731 0.004560 6 80 22
-0.009735 -0.002022 -0.044540 12 98 25
-0.009748 -0.002012 -0.044540 104 112 58
0.023525 0.016044 0.033085 76 132 73
0.017407 -0.017893 0.015285 154 161 116
-0.009760 -0.002017 -0.044540 40 113 39
-0.013313 -0.006273 0.004385 115 152 61
-0.053746 0.022374 0.035360 71 94 90
-0.005936 -0.013280 0.007560 51 86 74
-0.003377 0.013512 0.025260 31 95 129
-0.009776 -0.001991 -0.044540 100 131 45
0.018571 -0.005289 0.020385 132 133 106
-0.009715 -0.001998 -0.044540 111 148 55
-0.009737 -0.002002 -0.044540 111 155 71
-0.009764 -0.002024 -0.044540 46 80 19
0.001521 -0.012486 0.009785 152 137 98
-0.001692 -0.002542 0.012160 160 151 116
-0.009991 -0.004921 0.007835 19 86 32
0.008291 0.019070 0.028560 67 115 137
0.018291 0.012626 0.040360 39 115 47
-0.002209 -0.001749 0.012660 169 149 111
-0.017370 -0.007098 0.006535 78 95 79
-0.009947 -0.006697 0.006660 108 145 52
-0.000934 -0.003775 0.011685 161 159 120
0.009730 -0.014885 0.012835 70 8 0
-0.009758 -0.001994 -0.044540 26 85 37
-0.014428 0.020720 0.022210 0 85 20
-0.009773 -0.001989 -0.044540 73 107 35
0.038282 0.000857 0.053185 3 12 24
0.035692 0.014130 0.040410 85 141 112
-0.009774 -0.002003 -0.044540 74 104 38
0.036811 0.006505 0.052210 36 57 63
-0.009746 -0.002021 -0.044540 61 136 50
-0.009728 -0.002005 -0.044540 0 32 0
-0.009776 -0.001999 -0.044540 0 61 12
-0.023586 0.022227 0.019710 5 90 24
-0.009760 -0.001964 -0.044540 103 132 114
-0.017083 0.020844 0.021860 0 74 15
0.002885 -0.008114 0.013310 192 157 82
0.045101 -0.026989 0.039360 0 29 61
-0.004910 -0.013716 0.009210 57 63 28
-0.009731 -0.001969 -0.044540 65 92 83
-0.033244 -0.000651 0.006485 33 114 40
-0.013072 -0.006178 0.004535 110 147 56
-0.024213 -0.025578 0.019985 19 55 8
-0.000286 -0.009366 0.009710 161 164 125
-0.009759 -0.001963 -0.044540 84 102 98
-0.016460 0.002773 0.007910 89 97 41
0.007143 -0.017735 0.010435 148 137 101
-0.009739 -0.001972 -0.044540 117 150 133
0.000082 0.017980 0.026585 51 88 118
0.023867 0.015987 0.033085 111 149 132
0.073403 0.033206 0.081885 80 70 84
-0.009726 -0.002012 -0.044540 99 135 58
0.000692 -0.003135 0.012685 159 165 128
-0.009760 -0.002015 -0.044540 37 111 40
-0.058353 0.024096 0.029435 78 98 93
-0.009640 -0.001971 -0.044540 114 133 123
-0.019634 0.005610 0.006035 142 181 168
-0.009747 -0.002004 -0.044540 32 105 31
-0.009733 -0.002019 -0.044540 91 134 48
-0.031658 0.021551 0.016835 16 31 59
0.029454 -0.021245 0.022885 135 121 102
0.033783 -0.004982 0.030635 116 129 124
-0.049795 0.023421 0.033710 71 89 85
-0.009733 -0.002014 -0.044540 101 136 57
0.063355 0.034353 0.077335 16 51 80
0.002366 -0.003443 0.013260 159 173 137
0.003810 0.009917 0.031410 0 20 67
-0.009721 -0.002009 -0.044540 32 86 41
0.010001 0.012443 0.038235 73 107 83
0.003420 0.022395 0.025185 79 116 135
-0.009777 -0.001983 -0.044540 78 117 35
-0.009735 -0.001970 -0.044540 92 113 102
-0.009758 -0.002006 -0.044540 15 98 30
0.041708 -0.018727 0.038060 60 74 63
-0.032938 0.021930 0.016885 1 21 57
-0.009732 -0.002016 -0.044540 109 140 56
-0.009712 -0.002012 -0.044540 108 145 54
-0.009712 -0.002002 -0.044540 99 126 48
-0.002657 -0.004014 0.011435 175 150 112
0.018897 -0.023886 0.020585 163 132 91
0.035526 0.007858 0.052960 71 98 91
-0.009745 -0.001992 -0.044540 113 141 56
0.036813 0.006829 0.052660 77 97 94
-0.032532 0.019045 0.025785 0 41 15
-0.009733 -0.001979 -0.044540 120 145 69
0.001290 0.012355 0.026635 81 146 173
0.039480 0.012376 0.046260 96 124 111
0.000611 -0.002214 0.013410 156 161 126
-0.009737 -0.002020 -0.044540 101 149 72
-0.009742 -0.002001 -0.044540 111 151 64
-0.009729 -0.002011 -0.044540 116 144 61
-0.009763 -0.001952 -0.044540 43 65 75
0.021596 -0.004927 0.023010 150 118 82
-0.005566 -0.018326 0.005110 67 130 56
0.021861 -0.007846 0.021285 148 116 80
-0.031509 0.020881 0.017960 0 4 15
-0.009744 -0.001972 -0.044540 13 119 48
-0.020325 0.017335 0.031885 0 43 6
-0.029629 -0.025389 0.017960 17 55 11
0.028712 -0.012165 0.024035 201 182 139
-0.009747 -0.002017 -0.044540 91 133 52
-0.009767 -0.002003 -0.044540 82 122 35
-0.009741 -0.001973 -0.044540 13 116 48
-0.009712 -0.002002 -0.044540 99 126 48
-0.009907 -0.007819 0.005960 73 111 54
-0.009766 -0.001992 -0.044540 98 129 43
-0.009644 -0.001965 -0.044540 111 122 118
-0.009738 -0.002023 -0.044540 62 81 28
-0.009740 -0.001974 -0.044540 20 118 50
-0.009933 0.021737 0.025660 6 39 64
-0.013001 0.005664 0.007410 108 134 134
0.020142 -0.014032 0.019260 166 133 91
0.041090 0.011400 0.042510 96 135 126
-0.009743 -0.001999 -0.044540 106 143 61
0.015819 -0.026425 0.024960 91 86 53
-0.007782 -0.011091 0.007285 107 180 86
0.043482 0.015425 0.044485 111 130 130
-0.009759 -0.001961 -0.044540 60 79 83
0.025737 0.015668 0.034985 67 112 93
-0.006973 -0.008504 0.008210 108 150 67
-0.036098 0.019365 0.042710 58 83 74
-0.036628 0.020544 0.017285 0 10 32
0.016802 -0.035716 0.045235 54 56 40
-0.009771 -0.002000 -0.044540 43 109 31
0.002705 -0.020145 0.011910 145 134 100
-0.009757 -0.001981 -0.044540 30 134 59
-0.011032 0.011901 0.029510 48 91 103
0.038259 -0.023646 0.035635 89 111 110
-0.009768 -0.001992 -0.044540 106 133 45
0.050171 -0.043958 0.061010 34 37 38
-0.009746 -0.002024 -0.044540 58 94 21
-0.022470 -0.028914 0.024935 27 39 4
-0.009758 -0.002012 -0.044540 29 113 42
-0.009714 -0.002006 -0.044540 60 156 61
-0.009741 -0.001989 -0.044540 93 137 53
-0.052793 0.023195 0.034260 91 120 119
-0.009730 -0.002014 -0.044540 111 142 60
-0.017780 -0.004828 0.008235 42 67 46
-0.009768 -0.001980 -0.044540 12 100 1
0.004567 -0.016792 0.008360 123 108 41
-0.009730 -0.001985 -0.044540 98 147 63
0.005058 0.011930 0.027960 57 100 139
-0.060720 0.024492 0.031510 66 90 90
-0.009713 -0.002026 -0.044540 31 57 15
-0.009724 -0.001992 -0.044540 0 100 41
-0.000032 0.019991 0.026510 22 40 67
-0.009754 -0.002014 -0.044540 43 119 47
-0.009777 -0.002001 -0.044540 75 118 41
-0.018850 0.019798 0.020910 0 86 16
-0.015585 0.013457 0.032960 0 8 36
0.032625 0.012814 0.040010 26 21 31
-0.009749 -0.002002 -0.044540 30 83 14
0.009435 -0.009864 0.014660 170 141 102
0.049805 0.005921 0.047085 12 31 74
0.001142 -0.004707 0.012185 168 175 135
-0.009766 -0.001963 -0.044540 124 146 130
-0.009707 -0.002024 -0.044540 49 105 33
0.023452 -0.036243 0.045235 47 51 26
-0.009766 -0.001962 -0.044540 113 140 120
0.035077 0.016743 0.038460 34 76 45
-0.009777 -0.001974 -0.044540 99 128 38
-0.009750 -0.002021 -0.044540 63 116 34
0.039963 -0.011722 0.034785 125 152 145
-0.009768 -0.001964 -0.044540 130 161 145
-0.021598 0.003811 0.004935 108 151 63
-0.009774 -0.002018 -0.044540 37 131 46
-0.014903 0.019319 0.026010 0 16 7
0.046087 -0.040831 0.059885 33 44 42
0.013593 -0.000904 0.020585 141 155 146
-0.019049 0.006101 0.006085 128 166 149
-0.009765 -0.002018 -0.044540 74 140 62
-0.009765 -0.002021 -0.044540 1 74 12
0.007457 0.019303 0.027535 103 152 165
-0.009745 -0.001989 -0.044540 78 125 51
0.045726 -0.025772 0.040510 0 41 82
0.041233 0.043304 0.079835 82 96 87
-0.054093 0.023731 0.034310 100 132 125
0.030507 -0.008520 0.025410 134 139 106
-0.009733 -0.001970 -0.044540 94 119 110
-0.009770 -0.001961 -0.044540 98 126 111
-0.005609 0.015171 0.023910 71 136 161
-0.009764 -0.001963 -0.044540 91 120 100
0.031378 0.008391 0.050635 33 72 46
0.053097 0.040094 0.067185 93 54 21
0.025036 -0.011265 0.021910 198 176 139
-0.009681 -0.002021 -0.044540 176 152 109
-0.025674 0.022246 0.019385 0 90 19
-0.009768 -0.001962 -0.044540 119 147 134
0.006343 -0.006359 0.013685 174 153 111
-0.045759 0.021266 0.015860 0 17 53
0.036502 0.003946 0.050985 72 103 99
-0.009774 -0.002011 -0.044540 107 132 54
-0.004390 -0.012343 0.010510 127 107 67
0.054321 0.034481 0.071485 57 38 13
-0.009740 -0.001969 -0.044540 122 122 124
-0.009766 -0.001992 -0.044540 96 130 40
0.005524 -0.032577 0.040010 67 48 23
-0.009761 -0.002010 -0.044540 93 129 45
-0.032699 -0.023563 0.013760 11 45 10
-0.002935 -0.002917 0.012210 171 151 111
-0.003463 -0.032929 0.034560 53 52 35
-0.009638 -0.002011 -0.044540 77 102 127
-0.009727 -0.002021 -0.044540 54 128 47
-0.009777 -0.001964 -0.044540 35 96 65
-0.000145 0.021011 0.024560 16 52 78
-0.009750 -0.002005 -0.044540 94 103 42
-0.025977 0.019712 0.024460 0 63 14
-0.009754 -0.002025 -0.044540 32 66 15
0.028244 -0.010837 0.023110 152 159 135
0.042285 -0.023698 0.039485 74 96 95
0.015513 -0.010690 0.018110 103 70 12
-0.014220 0.015735 0.031035 42 69 80
0.031509 0.012752 0.040010 116 140 142
-0.004358 0.010839 0.030935 20 48 63
-0.009765 -0.001988 -0.044540 102 134 43
0.020901 0.021123 0.033510 19 67 20
0.009436 0.015896 0.033685 109 146 135
-0.033913 0.018063 0.045785 60 92 85
0.002484 0.008444 0.048010 51 78 71
0.029674 -0.004467 0.028435 113 128 125
-0.009715 -0.001999 -0.044540 109 146 53
-0.009717 -0.002000 -0.044540 56 132 49
-0.014817 0.004278 0.009260 136 175 153
-0.009730 -0.002018 -0.044540 89 131 59
-0.025735 0.020564 0.022185 0 82 19
0.059639 -0.044758 0.066510 15 12 9
-0.009731 -0.002002 -0.044540 102 146 62
0.002550 0.024528 0.024610 44 126 154
-0.008444 0.019697 0.022685 73 134 158
-0.009776 -0.001980 -0.044540 0 68 7
0.028939 -0.018962 0.024260 199 179 130
-0.004093 -0.023246 0.017860 44 113 43
-0.009763 -0.001994 -0.044540 78 127 55
-0.018091 0.019416 0.021360 0 62 11
0.008856 0.000842 0.017985 113 137 135
0.010710 -0.007328 0.014960 112 77 74
0.003596 -0.023436 0.019385 102 107 74
0.040083 -0.017528 0.031585 127 151 149
-0.009723 -0.001994 -0.044540 0 89 29
0.015592 -0.014703 0.015985 148 132 57
-0.006854 0.020486 0.021810 80 148 172
-0.009721 -0.002011 -0.044540 67 103 69
0.028275 0.006617 0.051085 48 70 52
0.001590 -0.008804 0.011310 166 169 144
-0.009539 -0.010054 0.005110 107 159 66
-0.009754 -0.001975 -0.044540 23 81 38
-0.009755 -0.001980 -0.044540 54 117 43
-0.009749 -0.001992 -0.044540 112 140 59
-0.001937 -0.000504 0.013760 169 148 106
0.023024 -0.022440 0.017360 175 146 107
0.039152 -0.009489 0.037735 107 124 110
-0.021347 0.005455 0.005735 104 146 132
-0.009738 -0.001970 -0.044540 117 151 131
-0.009647 -0.001963 -0.044540 101 109 98
0.001822 -0.004552 0.012460 161 173 136
-0.031594 -0.027379 0.020110 14 36 5
-0.027128 0.022246 0.019385 0 70 10
-0.017458 0.018570 0.029660 1 43 14
0.045455 -0.026145 0.040285 0 42 72
-0.009754 -0.001985 -0.044540 3 21 0
0.047577 0.001597 0.081760 46 64 58
-0.009771 -0.001977 -0.044540 84 133 47
-0.009732 -0.001980 -0.044540 115 148 65
-0.009757 -0.002025 -0.044540 17 62 12
0.012407 -0.001286 0.020610 230 245 231
-0.009736 -0.001999 -0.044540 113 149 61
-0.049446 -0.022534 0.011085 46 67 15
-0.009641 -0.002027 -0.044540 9 5 8
0.003434 0.020924 0.025535 100 161 181
-0.009736 -0.001997 -0.044540 115 148 61
0.047065 -0.010605 0.039810 147 184 173
0.021799 0.006706 0.052085 30 72 31
-0.019980 0.015199 0.041710 13 30 44
-0.009760 -0.001988 -0.044540 19 106 37
0.015125 0.023285 0.030085 57 116 81
-0.009639 -0.002024 -0.044540 0 2 1
0.036637 0.004762 0.075485 52 55 56
0.010482 0.019254 0.030735 17 77 22
0.055694 0.002093 0.051910 4 17 71
-0.000858 0.008605 0.034510 0 10 33
-0.009776 -0.001962 -0.044540 140 169 149
0.088505 -0.008496 0.105210 46 64 60
0.047973 0.037951 0.062535 82 54 24
-0.042864 -0.022305 0.012985 19 56 15
0.026871 0.016989 0.034410 30 90 23
-0.009735 -0.001994 -0.044540 103 140 58
0.002754 -0.034089 0.037685 53 47 32
-0.011011 -0.010802 0.005635 50 151 59
0.029897 -0.021118 0.023135 122 114 102
-0.004940 0.014874 0.024135 58 141 167
-0.023434 0.005180 0.004360 27 130 53
-0.001746 -0.019803 0.011485 130 114 80
-0.009733 -0.002008 -0.044540 109 142 55
-0.009777 -0.001998 -0.044540 0 57 6
-0.009721 -0.002022 -0.044540 63 98 71
-0.034840 -0.004406 0.006685 27 37 23
0.007072 -0.008065 0.014910 218 185 143
-0.009763 -0.002007 -0.044540 97 128 46
-0.017474 0.006119 0.005510 149 168 170
-0.009743 -0.001983 -0.044540 108 146 61
-0.009744 -0.002012 -0.044540 118 142 60
0.044955 0.001973 0.052435 0 17 58
-0.009735 -0.001999 -0.044540 120 151 65
-0.011380 -0.010843 0.005660 26 141 42
0.045032 0.039798 0.073285 46 44 32
0.006437 -0.014569 0.012360 142 109 67
-0.009755 -0.001975 -0.044540 8 106 33
-0.027047 0.022265 0.019435 2 74 17
-0.021062 0.019135 0.029735 0 38 16
-0.009776 -0.002005 -0.044540 72 110 37
-0.012428 0.004523 0.009660 241 248 240
0.038990 -0.019103 0.031885 79 104 95
-0.009746 -0.002024 -0.044540 67 94 16
-0.035473 0.019314 0.032760 8 53 21
0.004367 0.000309 0.017210 177 180 159
0.041669 0.009945 0.046010 28 46 55
0.011766 -0.015982 0.011660 157 142 114
-0.009774 -0.001998 -0.044540 8 54 17
0.031375 0.010941 0.046010 62 117 65
-0.009755 -0.001969 -0.044540 47 103 74
-0.009743 -0.002019 -0.044540 96 137 61
0.009476 -0.013545 0.013085 188 145 108
0.001088 0.008924 0.032260 0 15 49
0.023086 -0.020330 0.017910 159 155 117
-0.009771 -0.001963 -0.044540 130 167 146
-0.009742 -0.002000 -0.044540 106 146 59
-0.047423 0.021022 0.015685 3 25 80
0.007711 -0.017090 0.011485 150 131 88
0.020817 -0.038079 0.046210 37 44 38
0.021549 -0.004011 0.023885 150 123 99
0.025425 -0.019743 0.020285 162 152 111
-0.009731 -0.001981 -0.044540 120 155 74
-0.018421 0.016649 0.038310 9 38 50
-0.009771 -0.002003 -0.044540 86 122 36
-0.009735 -0.001989 -0.044540 0 72 15
-0.009771 -0.001968 -0.044540 98 142 60
-0.009767 -0.001996 -0.044540 68 144 49
-0.009719 -0.002011 -0.044540 60 130 57
0.060562 0.036819 0.073685 81 62 47
-0.009718 -0.002000 -0.044540 44 131 53
-0.009767 -0.002003 -0.044540 88 126 41
-0.018660 0.000190 0.004360 83 141 59
-0.033514 -0.025469 0.017685 6 37 7
-0.005912 -0.017200 0.005360 112 142 49
-0.009761 -0.001963 -0.044540 90 106 95
0.024326 0.018313 0.032835 29 98 32
-0.009638 -0.001967 -0.044540 119 121 108
-0.007102 0.016270 0.022960 100 139 159
-0.005029 0.022789 0.021460 101 162 186
-0.009770 -0.001992 -0.044540 88 132 48
-0.009644 -0.001965 -0.044540 115 119 114
-0.009767 -0.002002 -0.044540 86 122 36
-0.013542 0.006613 0.008560 89 118 126
0.017314 -0.012753 0.017810 92 78 63
-0.009767 -0.001975 -0.044540 95 133 46
-0.009725 -0.001997 -0.044540 15 119 44
0.010503 -0.015251 0.011360 150 112 74
-0.009777 -0.001994 -0.044540 87 131 49
-0.009770 -0.002004 -0.044540 96 127 45
0.022946 -0.015473 0.019435 153 145 105
-0.009743 -0.001968 -0.044540 95 131 115
0.055015 0.034332 0.075785 87 102 97
0.009805 -0.019015 0.010660 147 155 144
-0.004286 -0.010073 0.011585 87 111 81
-0.003499 0.002678 0.013960 144 159 143
-0.005309 -0.007103 0.010635 9 99 31
0.007055 -0.004977 0.014235 166 141 105
-0.000640 -0.008652 0.009735 154 148 124
-0.008462 0.024309 0.024435 27 64 67
0.043131 0.002825 0.080010 53 67 58
-0.009736 -0.002015 -0.044540 111 139 56
-0.051922 0.023053 0.034360 75 98 94
-0.016075 0.005646 0.007285 157 191 186
0.014502 -0.008584 0.016485 193 172 130
-0.009722 -0.002020 -0.044540 21 109 37
-0.009738 -0.002021 -0.044540 47 119 34
0.019437 0.010493 0.044235 22 64 21
0.013143 -0.015061 0.015385 197 165 120
0.036866 0.019132 0.040735 44 102 33
-0.009759 -0.002017 -0.044540 26 106 28
0.009749 -0.003673 0.017035 140 120 82
-0.009727 -0.002003 -0.044540 80 148 72
0.015037 0.013087 0.039460 30 101 39
-0.007482 -0.011926 0.008085 0 94 16
-0.009757 -0.002011 -0.044540 24 105 33
-0.009756 -0.001994 -0.044540 4 8 3
0.008073 -0.034990 0.040635 52 54 38
0.028565 -0.038842 0.050410 53 52 37
0.031980 0.011202 0.044185 93 136 116
0.036059 0.015064 0.038585 32 92 29
0.052874 0.015681 0.049685 114 131 117
-0.009773 -0.002003 -0.044540 89 128 46
0.013701 0.023814 0.029560 49 116 51
0.036222 0.044304 0.077660 94 105 105
-0.009769 -0.001992 -0.044540 93 133 44
0.010072 -0.015659 0.011185 174 126 91
-0.009744 -0.001987 -0.044540 19 97 31
-0.009681 -0.001965 -0.044540 80 129 84
-0.009764 -0.001960 -0.044540 71 93 92
-0.051571 0.023061 0.035685 72 89 90
-0.009769 -0.002012 -0.044540 97 125 40
-0.009708 -0.002017 -0.044540 113 96 39
-0.015885 0.001828 0.007610 113 153 66
0.010688 -0.019605 0.010860 155 118 84
-0.007885 -0.013603 0.005485 108 144 56
-0.009769 -0.001998 -0.044540 13 83 24
-0.009771 -0.001959 -0.044540 77 103 101
-0.002354 -0.000681 0.013510 171 147 106
0.013508 -0.017971 0.011985 140 138 88
-0.011191 -0.003739 0.008110 1 117 40
-0.001455 0.020289 0.024210 94 132 155
-0.009738 -0.001974 -0.044540 28 127 49
0.037892 0.009264 0.054010 32 33 27
0.023598 -0.001743 0.026435 103 121 117
0.000320 -0.015522 0.005385 170 144 102
-0.009762 -0.001998 -0.044540 47 153 68
-0.019906 0.003777 0.005910 12 102 43
-0.001580 -0.009830 0.008535 175 154 110
0.015833 -0.002487 0.021435 148 145 129
-0.017229 -0.024246 0.016335 29 54 8
0.046326 -0.008867 0.038985 140 163 159
-0.009736 -0.001984 -0.044540 110 148 63
-0.009727 -0.002005 -0.044540 0 46 11
0.010522 -0.002597 0.017885 150 127 95
-0.009731 -0.002002 -0.044540 100 148 60
-0.009771 -0.001969 -0.044540 108 140 60
-0.009747 -0.001979 -0.044540 75 125 46
-0.008686 -0.010027 0.005860 96 151 61
-0.009772 -0.002020 -0.044540 6 96 26
-0.024515 -0.019641 0.004610 45 71 20
-0.009726 -0.002015 -0.044540 108 144 60
-0.007298 -0.005378 0.009610 0 88 26
-0.039167 -0.025401 0.016435 28 46 11
-0.009729 -0.002022 -0.044540 0 74 13
-0.009735 -0.001976 -0.044540 87 145 61
0.011839 0.015145 0.033660 88 130 116
-0.009738 -0.001987 -0.044540 0 79 5
-0.039622 0.021043 0.017285 29 44 0
-0.009720 -0.002016 -0.044540 69 111 82
0.037599 0.007033 0.048860 88 114 101
-0.015393 0.020463 0.023210 0 72 13
0.039950 -0.025334 0.036185 2 51 97
-0.001946 -0.032080 0.035860 52 45 24
-0.010446 -0.031967 0.030685 44 48 27
-0.001497 -0.031619 0.036210 59 59 28
-0.009723 -0.002009 -0.044540 29 82 71
-0.009760 -0.001976 -0.044540 89 127 38
-0.009722 -0.002020 -0.044540 14 112 41
-0.009768 -0.001965 -0.044540 129 168 155
0.034633 0.010326 0.048385 24 42 19
0.016074 -0.003335 0.020335 139 130 95
-0.009736 -0.001968 -0.044540 92 115 109
-0.009735 -0.001978 -0.044540 102 139 59
-0.009763 -0.002009 -0.044540 94 130 46
0.008580 0.010311 0.046260 37 65 52
-0.027237 0.021990 0.019960 0 80 19
0.036180 -0.022305 0.034085 138 118 78
0.036277 0.007937 0.053035 75 98 92
0.037884 0.012992 0.042485 61 131 72
-0.009749 -0.002002 -0.044540 0 40 2
-0.017187 0.001904 0.007610 14 113 40
0.003717 -0.010156 0.012160 136 118 41
-0.008594 -0.030325 0.032835 45 48 23
0.038615 0.007525 0.048310 92 112 107
-0.009645 -0.001953 -0.044540 87 51 14
-0.009721 -0.001964 -0.044540 0 54 13
-0.009725 -0.001997 -0.044540 7 114 40
0.026172 -0.008224 0.022760 135 151 119
-0.010710 0.004594 0.009260 139 173 168
-0.009742 -0.002020 -0.044540 93 136 59
-0.009775 -0.001970 -0.044540 107 133 48
-0.009642 -0.001980 -0.044540 56 87 85
-0.009760 -0.002019 -0.044540 17 121 37
0.007630 -0.009861 0.015635 186 114 58
-0.009725 -0.002015 -0.044540 77 119 47
-0.009746 -0.001993 -0.044540 114 143 53
0.044689 0.006915 0.041735 19 59 90
-0.001633 0.003957 0.014735 93 110 111
-0.000007 0.016291 0.026310 82 128 148
-0.003609 0.000861 0.014560 202 155 113
0.060493 -0.001934 0.059785 2 8 39
-0.009681 -0.001977 -0.044540 48 84 52
0.034267 -0.009226 0.031185 137 142 109
0.011073 0.001063 0.019735 111 128 129
-0.009771 -0.001984 -0.044540 89 126 35
0.005411 0.018947 0.026860 114 101 132
0.057445 0.035415 0.073085 69 42 9
-0.009739 -0.001982 -0.044540 110 143 58
0.005078 0.014122 0.027535 36 136 172
0.018838 0.018178 0.030635 48 115 46
-0.009736 -0.001976 -0.044540 103 150 67
-0.064857 0.025585 0.036010 79 103 101
0.020984 0.005400 0.053560 47 80 63
-0.009732 -0.001993 -0.044540 111 147 59
0.022222 -0.010391 0.020060 186 147 114
0.043178 -0.018992 0.041235 59 75 64
0.010599 0.018984 0.030760 17 78 20
0.049646 0.016021 0.047885 128 153 148
0.001211 0.021263 0.025785 86 129 150
0.000440 0.019634 0.026535 35 64 92
-0.022050 0.021640 0.020560 0 84 21
0.054022 0.034395 0.075410 97 106 99
-0.009731 -0.002016 -0.044540 115 141 56
-0.009768 -0.001961 -0.044540 104 121 105
-0.016794 -0.021027 0.009585 10 37 6
-0.011786 0.006743 0.011660 108 137 138
0.024135 -0.020262 0.019110 164 164 133
-0.009763 -0.001992 -0.044540 101 137 53
-0.016708 0.018753 0.034735 3 11 10
-0.009720 -0.002026 -0.044540 17 55 9
-0.009729 -0.002000 -0.044540 119 153 63
-0.009774 -0.002012 -0.044540 100 129 39
-0.009763 -0.001965 -0.044540 120 159 137
-0.009711 -0.002015 -0.044540 118 144 59
-0.009762 -0.001963 -0.044540 96 112 89
-0.001172 -0.031957 0.036485 57 52 23
0.057516 0.038084 0.070835 82 51 12
-0.009742 -0.001971 -0.044540 101 146 125
-0.009756 -0.002016 -0.044540 44 102 33
-0.009742 -0.002004 -0.044540 0 84 24
0.006794 -0.002400 0.015810 120 98 70
0.010079 -0.018427 0.010185 150 158 147
-0.009758 -0.001963 -0.044540 77 102 95
0.010607 -0.017096 0.010310 152 128 101
-0.006491 0.013743 0.030260 1 20 40
-0.003373 0.021536 0.022585 85 150 177
-0.013345 0.006686 0.008535 95 125 130
-0.009760 -0.001984 -0.044540 59 92 94
-0.029237 0.018146 0.035560 0 42 13
-0.005176 -0.016386 0.006635 36 122 51
-0.037502 -0.025350 0.017010 21 46 0
-0.009758 -0.001972 -0.044540 20 77 52
-0.009747 -0.001975 -0.044540 109 142 59
-0.009744 -0.001975 -0.044540 108 141 56
-0.049102 0.023394 0.034160 61 86 81
0.002573 0.023000 0.024735 51 132 165
-0.009726 -0.002016 -0.044540 113 143 64
-0.000890 0.000305 0.014760 179 148 107
-0.000153 -0.009376 0.009785 161 163 129
-0.009741 -0.001991 -0.044540 113 144 62
-0.009768 -0.002017 -0.044540 77 151 70
-0.014549 -0.030164 0.029285 17 33 10
-0.009752 -0.001971 -0.044540 28 53 34
-0.009758 -0.001972 -0.044540 71 106 96
0.041306 -0.017375 0.031660 125 154 151
-0.009770 -0.001994 -0.044540 79 124 37
0.022080 -0.001390 0.025160 109 124 121
-0.009777 -0.001996 -0.044540 88 155 70
0.000339 0.001980 0.015085 136 144 133
0.015813 -0.007772 0.017385 161 158 124
0.004029 0.013710 0.027585 55 126 158
0.029707 -0.020878 0.022810 141 132 95
-0.009760 -0.001955 -0.044540 64 90 88
-0.009733 -0.001979 -0.044540 117 143 62
-0.009763 -0.002017 -0.044540 63 132 53
0.002002 0.012447 0.026835 100 158 176
-0.009754 -0.002006 -0.044540 0 61 12
-0.039374 -0.023178 0.013760 14 56 13
-0.009742 -0.001969 -0.044540 120 142 126
0.005415 -0.012843 0.012285 177 153 108
0.053008 0.035215 0.069560 67 39 11
-0.015923 0.005048 0.007935 166 209 201
-0.009767 -0.001971 -0.044540 101 137 51
-0.009743 -0.001969 -0.044540 119 151 132
-0.009759 -0.001982 -0.044540 29 138 52
-0.031184 -0.027731 0.020160 33 49 26
-0.009768 -0.001986 -0.044540 99 133 57
-0.008541 -0.004875 0.009110 0 73 20
-0.016783 -0.002597 0.006360 40 126 41
-0.004843 -0.016257 0.006985 33 121 47
-0.013102 0.020792 0.022135 11 112 45
0.048018 0.037105 0.075360 92 105 104
0.038644 0.007449 0.048235 91 111 106
-0.042390 0.020479 0.016860 30 50 65
-0.007268 0.002487 0.013160 143 183 166
0.003230 -0.010977 0.011310 130 132 119
0.047703 -0.042517 0.060885 33 39 39
0.007277 -0.021669 0.014110 112 94 62
-0.009754 -0.002019 -0.044540 86 133 59
0.038279 0.004101 0.078110 44 57 52
-0.009759 -0.001961 -0.044540 61 81 78
0.056219 0.002018 0.053535 0 24 68
-0.031155 0.020787 0.021835 0 50 16
-0.003115 -0.003487 0.011735 175 146 107
-0.009731 -0.001995 -0.044540 123 155 66
0.038126 0.010311 0.047760 56 80 66
-0.009765 -0.001987 -0.044540 106 135 47
-0.009757 -0.001995 -0.044540 4 8 3
-0.009707 -0.002014 -0.044540 114 145 59
0.065804 0.036798 0.073885 106 127 133
-0.009738 -0.002006 -0.044540 87 133 57
-0.009759 -0.001976 -0.044540 84 121 39
-0.021830 0.020097 0.025360 0 55 9
-0.004151 -0.017270 0.007085 83 85 42
-0.013544 0.006344 0.008585 95 123 129
-0.009773 -0.001999 -0.044540 19 86 28
-0.009714 -0.002002 -0.044540 84 117 34
0.006364 0.025468 0.025985 75 120 149
0.000043 -0.007557 0.011135 160 96 42
-0.006070 -0.001087 0.012035 13 123 46
0.020051 0.016350 0.032935 88 127 101
-0.026837 0.020331 0.020785 0 76 14
-0.009726 -0.001998 -0.044540 62 119 42
-0.009706 -0.002021 -0.044540 106 139 56
-0.009734 -0.002013 -0.044540 54 92 33
0.007004 -0.013152 0.013460 154 152 129
0.025728 -0.012834 0.023810 140 129 52
-0.009695 -0.001977 -0.044540 1 16 33
-0.009740 -0.001982 -0.044540 104 136 56
0.008713 -0.019731 0.011910 177 139 103
-0.007060 -0.014676 0.005810 122 152 55
-0.002611 -0.001496 0.012810 165 145 107
-0.009772 -0.001967 -0.044540 83 143 51
0.013608 0.015833 0.031935 79 127 119
-0.000801 0.002737 0.013635 122 142 137
-0.009723 -0.002009 -0.044540 49 84 76
-0.009757 -0.001966 -0.044540 126 159 144
-0.009731 -0.002020 -0.044540 93 131 54
-0.005831 -0.013520 0.007435 112 139 132
-0.009766 -0.002006 -0.044540 93 129 41
-0.009726 -0.001988 -0.044540 73 150 73
0.014080 -0.035146 0.044410 54 53 25
0.011102 -0.017839 0.010235 165 148 121
-0.007815 0.020590 0.022260 104 143 159
-0.009656 -0.002023 -0.044540 146 108 70
-0.009733 -0.002009 -0.044540 112 143 59
-0.009754 -0.002013 -0.044540 17 93 23
0.062564 0.039809 0.068410 105 99 75
0.012615 -0.020393 0.012035 194 163 120
0.015322 -0.003644 0.019385 140 134 108
0.043638 -0.012561 0.035410 124 114 46
-0.011606 -0.000117 0.008910 75 103 38
-0.009729 -0.001972 -0.044540 104 128 114
-0.009749 -0.001999 -0.044540 92 148 62
0.057927 -0.043599 0.064535 2 3 0
-0.009775 -0.002025 -0.044540 20 57 16
0.010963 0.010002 0.047985 43 68 47
-0.009777 -0.002021 -0.044540 79 115 29
-0.009748 -0.001981 -0.044540 53 125 54
0.046393 -0.040448 0.059885 48 49 43
-0.009773 -0.001989 -0.044540 81 112 41
-0.009703 -0.002019 -0.044540 123 147 63
0.004036 -0.001252 0.015560 162 147 110
-0.009744 -0.002015 -0.044540 91 107 44
-0.009733 -0.001991 -0.044540 103 145 62
0.004526 0.000403 0.017310 182 183 170
0.012396 0.018722 0.028660 57 119 63
-0.005788 -0.008081 0.009610 2 118 41
0.010244 -0.018339 0.009760 159 137 113
-0.004074 -0.033109 0.034135 46 48 30
0.010861 -0.018434 0.009810 167 134 94
-0.027671 0.018036 0.032860 0 43 13
-0.009757 -0.001979 -0.044540 35 116 46
-0.009777 -0.001999 -0.044540 21 80 22
0.029498 0.018293 0.036860 65 109 94
0.018409 0.026876 0.033585 86 110 96
-0.009755 -0.001969 -0.044540 27 97 54
-0.009726 -0.002019 -0.044540 74 128 54
-0.009742 -0.002018 -0.044540 96 131 50
0.050243 0.004745 0.056685 9 43 79
0.013276 -0.011477 0.016085 153 150 79
0.047362 0.036653 0.067185 73 39 15
-0.009760 -0.001984 -0.044540 26 64 60
0.020116 -0.015485 0.018610 167 143 102
-0.008794 0.014224 0.026135 0 20 51
-0.009745 -0.001965 -0.044540 65 80 79
-0.009769 -0.002007 -0.044540 94 130 46
-0.009733 -0.001998 -0.044540 119 152 69
0.014973 -0.004411 0.018610 132 142 115
0.020475 0.015447 0.032710 21 29 26
0.006005 -0.011735 0.013385 150 141 91
-0.013962 0.005987 0.007035 98 125 134
-0.009724 -0.001993 -0.044540 3 108 46
-0.009725 -0.002001 -0.044540 50 131 57
-0.012242 0.012434 0.028360 49 86 103
-0.020994 0.022141 0.019985 0 46 6
-0.009778 -0.001995 -0.044540 93 149 61
-0.013068 -0.003026 0.007260 85 173 86
-0.009749 -0.001998 -0.044540 82 141 65
0.038814 0.005186 0.075210 40 52 42
0.006267 0.007192 0.046360 45 61 50
0.048358 0.015542 0.049310 104 132 117
-0.005258 -0.007751 0.010260 6 98 29
-0.067631 0.028935 0.036585 90 96 96
0.003029 0.008796 0.047535 24 55 41
-0.002529 -0.011992 0.008435 156 95 42
-0.012851 0.001761 0.009410 117 162 71
-0.044537 0.021478 0.037985 69 87 85
0.018243 0.015065 0.034085 84 106 116
-0.009741 -0.002025 -0.044540 16 41 6
0.007834 0.000123 0.018435 150 157 149
-0.009735 -0.001958 -0.044540 0 45 7
0.009838 -0.015236 0.012535 174 127 76
-0.009761 -0.001989 -0.044540 15 102 33
0.021166 -0.022975 0.017735 144 101 62
-0.009707 -0.002020 -0.044540 121 145 61
-0.008832 -0.005870 0.008185 86 133 48
0.039651 0.037945 0.060860 110 85 78
-0.009651 -0.001988 -0.044540 3 17 39
-0.012445 0.004125 0.010010 186 237 226
-0.009778 -0.001998 -0.044540 4 65 18
0.041526 -0.021885 0.035410 53 84 82
0.010772 -0.012076 0.014135 160 155 110
-0.007453 0.016131 0.022810 107 149 164
-0.011938 -0.029732 0.030760 28 53 18
0.038366 0.020846 0.043485 35 78 32
0.012092 -0.006302 0.015885 158 151 118
0.048436 0.012363 0.048335 76 82 80
-0.055394 0.023608 0.032885 106 121 116
0.040964 -0.019177 0.030735 125 151 153
0.040884 0.012882 0.046510 61 65 44
0.028222 -0.039755 0.049560 42 57 52
0.006224 0.023091 0.026285 74 104 109
0.000482 0.011375 0.028710 1 25 66
-0.009716 -0.002021 -0.044540 79 132 54
-0.040699 0.020225 0.017535 32 51 71
-0.009766 -0.001971 -0.044540 109 141 52
0.075933 0.032571 0.083310 92 106 112
-0.006200 -0.017680 0.004910 72 129 52
-0.009728 -0.002019 -0.044540 83 132 58
-0.009467 -0.011747 0.005010 0 66 14
0.035674 0.018455 0.040260 26 74 27
0.037755 0.006508 0.048360 90 117 112
-0.012795 0.022881 0.020810 17 126 61
-0.009756 -0.001985 -0.044540 0 60 9
0.000758 -0.014634 0.006085 177 153 110
-0.017990 -0.009478 0.006660 26 49 24
-0.009767 -0.002008 -0.044540 97 130 47
-0.009736 -0.001970 -0.044540 86 113 104
-0.028268 0.017602 0.041710 0 45 10
0.017308 0.010671 0.043660 15 54 3
0.002520 -0.002044 0.014210 154 159 124
-0.009757 -0.002013 -0.044540 21 105 32
0.014023 0.016196 0.031110 100 139 130
-0.009765 -0.001998 -0.044540 30 127 43
-0.009737 -0.002020 -0.044540 99 145 69
0.017940 0.014080 0.035210 119 150 136
-0.009747 -0.001968 -0.044540 123 156 141
-0.009742 -0.001967 -0.044540 77 102 95
-0.005945 0.020927 0.021535 96 118 142
-0.043708 -0.024754 0.013635 41 61 44
-0.009723 -0.001998 -0.044540 16 118 46
-0.009757 -0.001969 -0.044540 32 100 55
-0.009695 -0.001968 -0.044540 0 32 95
-0.009764 -0.002012 -0.044540 95 128 43
-0.009773 -0.002004 -0.044540 80 115 34
-0.009770 -0.002007 -0.044540 94 127 40
-0.044510 0.020679 0.020135 64 86 96
-0.050075 0.021851 0.037185 69 86 87
-0.012530 0.020469 0.022485 0 85 22
-0.009747 -0.002004 -0.044540 0 88 23
-0.009761 -0.001980 -0.044540 74 148 65
-0.034838 0.018290 0.015710 11 36 59
-0.009775 -0.002021 -0.044540 40 89 17
-0.004247 0.003641 0.011985 114 137 133
-0.047374 0.020640 0.016685 14 33 78
0.065477 0.038857 0.071110 113 54 78
-0.009777 -0.001955 -0.044540 91 105 107
0.031153 0.011642 0.044085 104 149 130
-0.028867 0.017775 0.035485 3 37 13
-0.006211 0.022456 0.021085 100 159 182
0.001985 -0.005167 0.012235 169 175 135
-0.009764 -0.001990 -0.044540 98 131 48
0.012327 -0.011439 0.015560 165 165 130
-0.014280 0.014171 0.030210 0 18 54
-0.003518 0.018125 0.023710 44 139 177
0.047666 -0.010912 0.039785 147 178 174
-0.009750 -0.001992 -0.044540 86 108 38
0.003303 0.019677 0.025660 82 116 154
0.020247 -0.008465 0.019285 141 141 106
-0.001440 -0.003855 0.011610 165 155 114
-0.009680 -0.001953 -0.044540 0 44 100
-0.002607 0.010923 0.030135 0 12 40
0.014825 0.014556 0.034410 104 137 120
-0.009739 -0.002000 -0.044540 110 148 63
0.018479 0.018047 0.030560 50 124 53
-0.004171 -0.005250 0.019610 50 59 41
-0.009758 -0.002018 -0.044540 34 127 51
-0.006395 -0.002569 0.010760 50 132 51
0.006833 -0.005818 0.013910 159 143 99
-0.008704 -0.004976 0.008810 0 81 21
0.046742 0.001888 0.052085 0 19 66
-0.031676 -0.021610 0.012435 62 89 29
-0.006774 0.002971 0.012885 150 185 173
-0.005864 0.013342 0.028610 0 12 37
0.003615 -0.012238 0.011035 140 118 52
-0.009769 -0.001958 -0.044540 88 103 102
-0.009766 -0.001989 -0.044540 99 130 46
-0.009712 -0.002020 -0.044540 94 131 49
-0.009778 -0.002019 -0.044540 31 113 34
-0.033586 0.002197 0.008410 99 147 66
-0.026565 -0.028348 0.022960 31 49 28
-0.004352 -0.014872 0.009260 61 96 67
0.018172 0.006035 0.052535 44 77 60
-0.009768 -0.001982 -0.044540 22 70 19
-0.013856 0.020833 0.021685 3 106 40
0.015489 0.017117 0.031685 109 148 126
0.032245 0.018827 0.038760 23 72 18
0.001077 0.018471 0.025585 109 156 173
-0.009732 -0.001986 -0.044540 108 152 68
-0.006055 -0.016922 0.005410 118 149 65
0.034177 0.011412 0.044285 94 140 105
-0.009775 -0.002003 -0.044540 89 121 41
0.031788 0.019268 0.038335 16 97 27
0.014810 -0.015375 0.015810 205 169 128
0.017091 -0.008614 0.017610 174 159 122
0.037294 0.006843 0.049760 65 83 77
-0.021533 0.020653 0.023935 0 54 11
-0.033198 -0.006340 0.004735 78 135 60
-0.009758 -0.009561 0.004985 105 146 54
-0.009771 -0.001970 -0.044540 102 132 53
-0.009738 -0.002003 -0.044540 34 106 35
-0.009738 -0.001985 -0.044540 107 155 65
0.028833 -0.004929 0.027960 126 125 110
0.008092 -0.001227 0.017560 162 131 104
-0.009776 -0.001974 -0.044540 94 132 43
-0.007698 -0.005177 0.009560 0 85 24
-0.003454 -0.009353 0.010210 133 166 149
-0.009770 -0.001967 -0.044540 48 127 54
0.001483 -0.010756 0.010185 126 70 72
0.068124 0.032985 0.083110 100 105 95
-0.009715 -0.002000 -0.044540 104 148 53
-0.011160 -0.004535 0.007010 3 92 29
0.059494 0.036167 0.074085 86 73 49
0.038164 -0.006175 0.034410 112 127 122
0.010647 -0.034175 0.042835 64 56 32
0.019825 0.008671 0.049410 42 69 60
0.050368 0.012583 0.046310 130 150 147
0.000359 0.009865 0.031435 2 24 50
0.014276 -0.015319 0.015360 193 154 105
-0.009727 -0.001996 -0.044540 114 151 71
0.028795 0.007658 0.049610 64 94 88
0.005996 -0.005007 0.013985 159 153 117
-0.009767 -0.001967 -0.044540 48 101 52
0.000169 0.014316 0.026085 74 142 168
-0.009744 -0.002016 -0.044540 95 131 56
-0.006354 0.022224 0.021110 92 151 174
-0.009735 -0.002022 -0.044540 3 75 8
-0.017272 0.018089 0.030510 0 32 10
-0.009743 -0.001989 -0.044540 93 139 59
-0.009760 -0.001971 -0.044540 28 117 38
-0.006348 0.019487 0.022185 49 105 147
-0.002264 -0.017101 0.006260 149 130 83
0.010095 0.009225 0.047735 12 60 22
-0.007226 -0.007383 0.008610 59 113 37
-0.023558 0.017796 0.033035 0 32 8
0.015698 -0.001181 0.021335 130 143 140
-0.009757 -0.002000 -0.044540 11 21 7
-0.009721 -0.001958 -0.044540 3 59 16
-0.009758 -0.002008 -0.044540 13 108 36
0.002896 -0.008499 0.012585 184 140 81
0.002209 -0.008071 0.012510 148 104 36
0.001165 0.010067 0.032010 0 23 42
-0.009682 -0.002002 -0.044540 190 147 97
0.020694 -0.016740 0.019635 203 151 99
0.049104 0.012235 0.046210 123 142 142
-0.009708 -0.002006 -0.044540 110 167 76
-0.009721 -0.002008 -0.044540 1 108 34
-0.009730 -0.002019 -0.044540 89 130 54
-0.009774 -0.002022 -0.044540 61 97 22
0.057470 -0.001029 0.090085 46 59 54
-0.009715 -0.002000 -0.044540 106 144 48
-0.009779 -0.001980 -0.044540 0 78 23
0.030362 -0.014127 0.025785 187 143 100
-0.009638 -0.001991 -0.044540 0 3 18
0.041199 0.011375 0.041935 112 144 133
-0.033345 0.019585 0.032110 3 42 16
-0.009686 -0.002022 -0.044540 131 134 95
-0.009752 -0.001966 -0.044540 98 126 113
-0.043453 -0.022341 0.010235 45 61 40
0.069411 0.034951 0.078135 91 96 105
-0.009765 -0.002019 -0.044540 11 103 32
-0.009681 -0.001970 -0.044540 38 100 44
-0.009723 -0.002009 -0.044540 23 75 57
0.032054 0.012832 0.040110 107 124 129
-0.009772 -0.001965 -0.044540 93 129 113
-0.009695 -0.001980 -0.044540 113 135 134
-0.009773 -0.002001 -0.044540 76 119 40
0.023666 -0.009991 0.020660 120 123 122
0.004098 0.008734 0.047010 38 71 56
0.009109 -0.000925 0.019310 169 157 137
0.020202 -0.037979 0.045960 55 60 48
-0.009713 -0.002013 -0.044540 119 148 60
0.000078 -0.012478 0.006810 160 134 103
-0.009750 -0.001978 -0.044540 16 107 34
-0.009760 -0.001961 -0.044540 79 90 90
-0.003764 -0.008371 0.011460 127 156 138
0.065571 0.037066 0.073385 107 108 123
0.001520 0.013304 0.026435 55 126 156
0.016256 -0.019630 0.013210 151 139 79
-0.009711 -0.002015 -0.044540 118 144 59
-0.009738 -0.001998 -0.044540 121 150 62
-0.006786 -0.014225 0.006085 94 129 50
-0.009708 -0.001964 -0.044540 5 56 101
-0.009747 -0.002020 -0.044540 90 144 70
-0.006384 -0.000290 0.012335 12 125 52
-0.059066 0.023342 0.029610 72 86 90
0.008640 -0.018839 0.011560 142 131 97
-0.009734 -0.002004 -0.044540 0 31 5
-0.016424 0.014557 0.034135 25 69 85
-0.025829 0.021792 0.020585 0 76 19
-0.009766 -0.001973 -0.044540 110 136 51
-0.009742 -0.002023 -0.044540 54 94 25
0.028800 -0.020724 0.022435 164 149 112
0.008000 -0.035792 0.039985 50 47 31
0.004997 0.017697 0.026885 90 122 156
-0.009744 -0.001960 -0.044540 0 52 11
-0.009725 -0.002003 -0.044540 30 133 63
-0.009766 -0.001960 -0.044540 81 103 102
-0.018926 0.005044 0.007060 123 165 153
-0.009730 -0.002003 -0.044540 94 149 66
0.008950 0.006651 0.048435 39 53 44
-0.009742 -0.002009 -0.044540 112 140 57
-0.009740 -0.002021 -0.044540 89 143 67
0.004584 -0.014428 0.009910 166 145 112
0.002094 0.019845 0.025210 105 141 167
-0.018258 0.001753 0.005585 0 118 46
0.035863 0.010408 0.046485 96 85 80
0.010399 -0.016442 0.010735 159 135 92
0.017370 -0.013438 0.017310 156 152 114
-0.009770 -0.002005 -0.044540 100 131 49
-0.009778 -0.001964 -0.044540 47 93 58
-0.005678 0.012718 0.033260 3 10 18
0.006631 0.007150 0.047285 46 60 49
0.007599 0.023015 0.026810 44 82 134
0.025112 0.024905 0.037360 68 104 86
-0.012720 -0.031430 0.029610 44 44 24
-0.009764 -0.002024 -0.044540 36 69 13
-0.032856 0.020244 0.018760 0 10 38
-0.009707 -0.002023 -0.044540 109 145 72
0.017867 -0.001657 0.022860 124 142 136
-0.009768 -0.002013 -0.044540 73 122 38
-0.013000 0.022215 0.021085 14 120 53
-0.008587 -0.030174 0.033360 48 58 17
-0.009772 -0.002005 -0.044540 95 122 44
-0.007178 0.002412 0.013285 143 186 168
-0.009764 -0.002011 -0.044540 92 130 45
-0.009758 -0.001991 -0.044540 19 103 32
-0.058110 0.023210 0.033235 81 96 93
-0.009682 -0.001977 -0.044540 44 78 54
-0.000995 -0.012649 0.005835 161 131 95
-0.009755 -0.001972 -0.044540 16 98 49
-0.009694 -0.001952 -0.044540 86 144 160
-0.009772 -0.001995 -0.044540 88 130 49
0.024772 -0.006135 0.023310 134 133 105
-0.009756 -0.002023 -0.044540 22 91 23
0.032900 0.009680 0.047585 15 75 20
-0.009748 -0.001996 -0.044540 81 136 57
