ply
format ascii 1.0
element vertex 1221
property float x
property float y
property float z
property uchar blue
property uchar green
property uchar red
end_header
0.083907 -0.012025 0.005036 98 115 109
0.099654 0.026301 -0.029364 26 34 22
-0.086521 -0.044722 -0.013164 43 44 36
0.085930 -0.050543 -0.013239 141 154 128
-0.078500 0.040271 0.016961 183 177 163
-0.011241 0.002433 0.022436 109 118 136
0.023304 -0.033466 0.000061 111 123 133
0.003576 0.004312 0.021811 108 119 137
0.003212 -0.052805 -0.005289 156 162 161
-0.095423 0.031005 -0.039214 49 50 37
0.010051 -0.063403 -0.012064 157 164 155
0.015808 0.050282 0.008936 127 135 142
-0.014606 -0.033186 0.004736 104 111 127
0.034406 -0.021949 0.004861 112 123 136
-0.071958 0.006469 0.031961 73 85 93
0.014444 0.032902 0.034486 87 96 114
-0.097677 0.032536 -0.024189 52 55 40
-0.002439 -0.008035 0.016211 109 117 137
-0.026836 0.045162 0.012511 98 102 107
0.058809 -0.029350 -0.001364 108 119 123
0.097290 -0.015274 0.001386 77 90 82
-0.064840 -0.019969 -0.005889 63 73 75
-0.091427 0.011441 -0.009664 49 50 42
0.041768 0.015548 0.022886 108 119 132
-0.048883 0.002620 0.027236 91 103 111
0.044930 0.025119 0.028661 101 113 123
-0.006241 0.016234 0.030136 107 114 130
-0.023305 -0.059994 -0.006164 148 156 144
0.087911 -0.045545 -0.011089 146 153 126
-0.020511 0.048948 0.005436 123 131 133
-0.094475 0.035145 -0.029664 47 49 31
-0.003324 -0.033560 0.003236 112 119 135
-0.090198 0.047162 0.003661 84 97 84
-0.092182 -0.000655 -0.047764 50 60 41
0.040076 -0.020345 0.004736 109 120 133
0.058173 0.007067 0.017361 103 116 122
-0.030440 0.056935 -0.011314 127 133 133
-0.056179 0.052208 -0.000239 100 113 105
-0.007847 -0.057406 -0.006814 153 163 151
-0.095118 0.032937 -0.040364 40 51 30
-0.095568 0.035564 -0.034089 48 49 36
0.004571 0.052234 0.003911 150 156 163
-0.052044 0.053594 -0.004114 112 119 115
-0.090032 -0.019230 -0.039639 48 51 36
-0.004943 0.040276 0.032711 96 101 117
0.055269 0.054278 0.005936 143 154 152
0.062874 0.004611 0.014861 104 113 122
-0.093539 0.047252 0.004011 81 96 70
0.012919 0.034488 0.034761 12 13 21
-0.045598 0.060927 -0.017339 104 112 100
-0.039020 0.032725 0.038486 66 70 69
0.098624 -0.057677 -0.018114 148 155 128
0.039441 0.059930 -0.004364 148 157 155
-0.054292 -0.030783 0.010061 87 103 106
0.087486 0.015778 0.018286 85 103 100
-0.093469 0.022463 -0.027689 50 55 40
-0.029072 0.041820 0.028211 86 94 101
0.104712 -0.014938 0.000536 79 95 80
0.040499 0.062479 -0.012289 170 176 169
0.025288 -0.024358 0.004086 109 122 135
-0.091229 -0.008402 -0.048439 54 57 42
-0.050340 -0.029420 0.010061 101 111 118
0.058388 -0.003827 0.011236 106 115 124
0.023691 -0.022094 0.006011 113 124 142
-0.087882 -0.034069 -0.049889 57 59 41
-0.033131 0.006820 0.028336 103 111 125
-0.069595 -0.056907 -0.002739 86 102 105
-0.022688 -0.000907 0.022111 105 112 128
0.075227 -0.025912 -0.001264 109 119 114
-0.050157 -0.033604 0.008386 96 112 115
-0.024859 -0.030147 0.007111 104 114 129
-0.083343 -0.064848 -0.005514 4 12 5
-0.072910 0.024190 0.014911 143 142 134
0.093891 0.028132 0.024361 60 72 67
0.068241 -0.044838 -0.009264 141 152 138
-0.087879 -0.039471 -0.051464 50 55 40
0.084061 0.027356 -0.037864 21 31 19
-0.089435 -0.018385 -0.034089 53 58 43
-0.055475 -0.024307 0.013636 96 110 113
0.053007 0.060151 -0.004814 141 155 145
0.005320 -0.004107 0.016761 117 125 139
0.082422 -0.022408 -0.000664 97 112 104
0.085242 0.031196 0.027186 90 99 97
-0.094952 0.035100 -0.022664 49 55 32
0.033958 -0.019294 0.006011 108 123 137
0.084738 -0.029940 -0.003789 95 115 106
0.075053 0.033404 0.029861 85 101 99
0.105995 -0.028847 -0.005714 96 109 96
0.082093 0.022053 -0.027514 28 29 16
0.031444 0.041756 0.031686 113 116 124
0.043716 0.009156 0.019861 106 114 128
-0.089591 -0.007514 -0.027814 54 50 36
-0.013797 0.011890 0.027986 102 112 127
-0.029637 -0.020358 0.011886 105 113 127
-0.027476 0.031386 0.037911 8 12 17
-0.041601 0.046392 0.012461 112 116 116
-0.062535 0.060800 -0.018589 86 96 77
-0.088149 -0.029905 -0.044389 63 66 46
-0.097994 0.049667 -0.034489 53 47 35
-0.095838 0.039936 -0.033689 48 51 36
-0.056740 -0.036735 0.006536 92 103 107
-0.002651 0.053279 0.002086 160 163 171
0.039041 0.023211 0.027661 102 113 126
-0.067165 0.026195 0.043161 69 79 74
-0.036860 -0.037032 0.004136 99 108 117
0.094964 0.029148 -0.037014 17 23 22
-0.032997 0.051694 0.001111 105 113 115
-0.001945 0.006233 0.023211 109 117 137
0.012758 -0.019912 0.007936 113 124 137
-0.060552 -0.049257 0.001636 93 104 102
-0.072642 0.056535 -0.009989 93 96 81
-0.059411 0.039346 0.030186 84 93 91
0.026454 0.058422 -0.006214 156 159 162
0.008334 0.048174 0.014636 124 129 140
0.076621 -0.040881 -0.007489 146 153 133
-0.004198 -0.013146 0.012986 112 118 137
-0.099421 0.053924 -0.035839 39 44 29
0.093582 0.017883 -0.014439 0 3 0
0.075026 -0.061972 -0.018364 146 161 135
-0.021515 -0.037523 0.002736 101 114 127
0.096926 -0.019838 -0.028939 10 21 13
-0.057979 -0.058988 -0.003689 84 98 93
-0.017414 0.035865 0.037511 92 92 102
-0.004862 0.029073 0.035836 100 105 121
0.034802 0.011578 0.022211 113 116 137
-0.090330 -0.019769 -0.050339 56 52 38
-0.018846 0.049907 0.006036 115 115 127
-0.020135 0.047525 0.013136 113 122 131
-0.086424 -0.047325 -0.029864 63 68 43
-0.001703 -0.040590 -0.001439 108 114 128
0.098612 -0.001680 -0.026214 18 20 9
-0.040618 -0.007106 0.021086 103 114 127
0.088412 0.030806 -0.044489 31 33 22
-0.012404 -0.061352 -0.008864 155 158 150
-0.043091 -0.061354 -0.005164 153 156 141
0.077031 0.063857 -0.006314 80 89 75
-0.050703 -0.013903 0.019336 100 109 118
-0.041736 -0.025767 0.011211 101 110 121
-0.064231 -0.039516 -0.012514 73 86 85
0.095688 0.021493 -0.017614 27 36 22
-0.065414 -0.007097 0.024511 82 94 102
0.039129 0.041859 0.034561 113 121 128
0.109071 -0.003697 0.006086 65 77 72
-0.094405 0.026805 -0.028939 39 47 17
-0.085419 -0.047611 -0.043689 64 71 46
0.097133 -0.026853 -0.029439 12 16 15
-0.045302 -0.058831 -0.003414 155 158 145
-0.053505 0.049042 0.003311 101 101 101
-0.088336 -0.022102 -0.050164 57 65 42
-0.035614 0.003352 0.026286 101 112 125
0.097141 0.037726 0.028736 57 73 63
0.069693 0.028127 -0.042514 11 15 4
-0.029984 -0.040476 0.002486 103 113 120
-0.090690 -0.006982 -0.027614 52 60 37
0.102941 -0.021007 -0.001589 87 103 93
-0.090378 -0.008313 -0.033914 50 59 34
-0.090857 0.003688 -0.020639 47 53 35
0.097634 -0.023891 -0.029814 13 14 6
-0.001496 0.058906 -0.010164 166 172 172
-0.006647 -0.016083 0.011786 107 119 134
0.084695 0.013021 0.017436 94 109 110
-0.057183 -0.018303 0.017536 96 103 112
-0.037908 0.031556 0.040211 13 17 22
0.049349 0.049077 0.020011 133 144 143
-0.025162 0.046512 0.012386 114 121 125
0.077226 0.012298 0.017186 97 109 111
-0.064726 -0.021176 -0.006189 62 75 74
-0.008579 -0.034095 0.003286 108 115 131
-0.048293 -0.051419 0.000586 90 99 98
0.072588 0.059505 0.000411 138 150 140
0.060951 -0.038532 -0.006439 100 112 114
-0.032294 -0.056201 -0.003339 148 154 147
0.002728 -0.029766 0.004086 112 123 136
0.033881 0.056772 -0.001264 145 150 153
0.040136 0.031730 0.031786 101 112 125
-0.034954 -0.028929 0.008711 105 114 125
-0.071498 -0.065250 -0.005764 89 104 91
-0.088347 -0.032372 -0.036464 56 54 40
0.078425 -0.019556 0.001336 97 113 111
0.048401 -0.031453 -0.001064 110 122 130
-0.097547 0.040151 -0.038764 37 46 32
-0.019300 -0.046604 -0.001889 96 108 116
-0.000430 -0.036131 0.001086 109 120 133
0.024834 -0.038118 -0.002764 113 125 135
-0.012041 -0.033572 0.003986 110 118 132
-0.026658 0.034946 0.037636 89 85 98
-0.061350 -0.051929 0.000561 94 107 105
0.041304 -0.010451 0.009661 111 119 133
-0.025081 0.009676 0.028611 103 110 126
0.043164 -0.027054 0.001111 109 121 129
0.013203 -0.021504 0.006636 113 125 140
0.053738 -0.058849 -0.014314 158 165 145
0.013723 -0.039300 -0.002039 110 122 132
-0.065263 -0.020100 0.017111 85 95 102
0.013384 -0.057478 -0.009439 157 164 155
0.065378 -0.020136 0.002961 112 120 122
-0.019464 -0.044904 -0.001564 97 109 117
0.030223 -0.042729 -0.004589 101 115 125
-0.014338 -0.033309 0.004686 105 112 128
-0.087978 -0.015237 -0.007164 42 40 28
0.010882 -0.015005 0.010436 107 119 134
0.076496 0.025856 0.024936 90 107 108
0.088618 0.025049 -0.029139 22 32 13
0.066733 0.021335 0.023911 96 108 116
-0.000685 -0.038815 -0.000239 106 118 126
-0.065128 -0.065116 -0.005789 94 107 99
-0.091878 0.000066 -0.042614 50 61 40
0.007408 0.008435 0.023561 115 119 138
0.088623 -0.052537 -0.015489 142 155 127
-0.073309 0.017115 0.015586 135 128 129
0.061640 -0.006395 0.010286 103 115 125
0.038549 -0.053200 -0.009839 156 165 156
0.098317 -0.007859 -0.027489 20 22 16
-0.089617 -0.020356 -0.043214 63 64 42
0.057626 0.027875 0.027961 95 108 121
0.097097 0.048507 0.027386 79 88 74
0.005620 0.015750 0.027636 112 117 140
-0.002228 0.004469 0.022461 113 119 138
-0.050416 -0.012510 0.019886 100 106 120
-0.088969 -0.019724 -0.036289 52 59 39
-0.086056 -0.041425 -0.041789 57 62 37
0.069055 -0.021716 0.000961 104 116 118
-0.088109 -0.024846 -0.031664 57 64 39
0.087781 0.013099 0.016436 93 105 100
0.079273 0.040495 -0.052989 11 18 14
0.036922 -0.034845 -0.002014 109 125 137
-0.038338 -0.025377 0.011361 103 110 121
-0.068511 0.006610 0.007261 136 141 137
0.029674 -0.031328 0.000361 113 120 136
0.070963 -0.009057 0.006536 99 111 119
0.036485 0.046790 0.025086 128 136 143
0.085677 0.014033 0.017736 97 106 105
0.096840 -0.048902 -0.013539 139 148 121
-0.075983 0.056689 -0.012739 94 99 84
-0.087465 -0.035785 -0.042639 59 60 38
0.053968 -0.062879 -0.016089 152 164 145
-0.065482 -0.057990 -0.002539 96 111 103
0.021743 -0.060282 -0.011739 156 165 151
0.001415 -0.028441 0.004861 114 121 137
-0.008558 -0.059034 -0.007464 159 165 158
0.075573 0.056328 0.003511 35 41 34
-0.032655 -0.038347 0.003511 102 114 122
0.034658 0.057059 -0.003139 148 152 151
-0.088398 -0.015508 -0.005639 35 35 24
-0.094326 0.031984 0.012986 49 46 29
0.070683 0.008882 0.016711 102 115 121
-0.094120 0.016008 -0.030214 52 57 37
0.036859 -0.028133 0.001361 110 123 136
0.001463 -0.016287 0.011011 117 123 142
0.100325 0.047144 0.027286 73 82 66
0.108248 0.009113 0.012311 63 77 67
0.026613 0.045215 0.023961 127 131 136
-0.067877 0.059103 -0.014664 97 104 95
-0.063793 -0.042870 -0.016014 70 87 81
0.108721 0.013557 0.014836 62 77 64
0.080828 -0.002697 0.009536 101 112 116
0.012681 0.005173 0.021436 106 116 136
0.070817 0.062067 -0.005414 102 110 98
-0.006182 0.060758 -0.014664 158 158 158
0.022948 0.013136 0.023936 109 120 138
-0.093570 0.030072 0.000586 55 56 41
0.093347 -0.027766 -0.003964 94 110 100
0.106997 -0.046790 -0.013839 144 149 124
-0.005641 0.031881 0.035936 12 11 31
-0.087578 -0.037840 -0.047489 52 65 44
-0.090657 -0.009403 -0.037464 58 57 40
0.060549 -0.043792 -0.007214 145 156 142
-0.008333 -0.043429 -0.001839 96 107 120
0.058035 -0.055194 -0.012889 155 160 145
0.068431 0.055935 0.008361 134 146 141
-0.061402 0.026285 0.039836 73 80 84
-0.047096 -0.059584 -0.003789 148 157 143
-0.085704 -0.061149 -0.005039 6 13 4
-0.085865 0.060953 -0.019989 91 100 84
0.006221 -0.040177 -0.001564 106 119 132
-0.023715 -0.063927 -0.008539 148 156 144
0.060933 -0.031235 -0.002239 106 119 118
0.103679 -0.046849 -0.013639 141 150 118
-0.087066 -0.031371 -0.028414 52 55 40
-0.080010 0.034514 0.023911 149 143 131
0.058899 0.063118 -0.012814 122 127 112
0.067482 -0.010550 0.006886 105 116 120
0.048123 0.019982 0.025086 97 112 126
0.094370 -0.038687 -0.008414 131 146 118
-0.076737 0.060724 -0.018789 100 106 88
0.083987 0.058277 0.006361 62 80 65
0.050510 0.016277 0.022886 112 121 132
-0.051403 0.043251 0.017661 93 99 99
0.107162 -0.019196 -0.001789 80 92 82
0.000355 -0.029368 0.004861 104 112 132
0.072727 0.003062 0.013936 99 115 118
-0.089330 -0.007354 -0.024764 50 55 35
0.101620 0.018444 -0.016864 0 3 0
-0.022280 -0.000473 0.022361 104 113 131
0.053720 0.047232 0.025086 126 135 134
-0.087759 -0.034975 -0.009689 35 34 31
-0.092537 0.006283 -0.043489 53 58 43
0.039243 0.052123 0.010211 141 144 152
0.007982 -0.005079 0.016236 112 122 137
0.061961 -0.012391 0.006411 108 118 125
0.040983 -0.033556 -0.002089 110 122 130
0.095010 0.026903 0.023936 57 70 62
-0.017155 -0.018066 0.012361 109 118 136
0.073890 0.033508 0.029561 93 105 107
0.039185 0.013813 0.023086 108 114 133
0.053261 -0.033042 -0.002764 111 126 127
-0.037563 0.060009 -0.015414 111 120 111
0.074907 0.020007 0.022286 94 107 113
-0.031471 -0.038347 0.003511 104 113 122
0.026920 -0.048724 -0.006414 165 166 163
-0.096159 0.040658 -0.032589 40 49 35
0.076999 0.004570 0.012811 103 112 111
-0.098726 0.051432 -0.028114 39 42 29
-0.040239 0.017152 0.034186 101 108 119
0.054655 -0.010642 0.008361 120 123 131
-0.090914 0.003893 -0.002264 43 44 29
0.049844 0.056464 0.002261 137 146 144
0.031258 -0.052666 -0.008464 158 164 157
0.030537 -0.046900 -0.004939 156 160 159
0.098456 -0.021997 -0.001839 85 99 89
0.079589 0.044531 0.031861 79 86 82
-0.041039 -0.009376 0.020336 106 112 126
0.042751 0.040408 0.033411 29 36 45
0.100044 -0.052310 -0.015464 144 153 121
-0.092347 0.023608 0.027211 17 23 16
-0.091698 0.001319 -0.047389 54 61 41
0.006667 -0.048001 -0.003264 154 158 158
0.023175 0.056423 0.000061 151 157 164
-0.059002 -0.004458 0.024686 97 104 108
-0.024229 0.060377 -0.015689 132 142 137
-0.036795 -0.045876 0.000661 100 111 115
-0.063633 0.047858 0.006361 85 90 86
0.028325 -0.062220 -0.012639 156 163 154
-0.055683 -0.055689 -0.002189 144 148 130
-0.092872 0.019247 -0.018964 58 62 39
0.063693 -0.041147 -0.006414 77 88 80
-0.068066 0.010014 0.008236 131 138 134
-0.087643 -0.037308 -0.010139 34 38 20
-0.068975 0.031757 0.038311 168 165 162
-0.089909 -0.008121 -0.010664 45 48 33
0.072622 -0.012180 0.005336 105 117 112
0.029448 -0.056911 -0.010364 156 162 155
0.108281 -0.026520 -0.004664 87 103 86
0.091363 0.021594 0.020811 63 76 74
0.043674 -0.018087 0.005936 115 126 139
-0.095016 0.033110 -0.019789 46 53 33
-0.089568 -0.008568 -0.033214 51 55 44
-0.064563 -0.057162 -0.001589 92 108 105
0.001941 -0.029442 0.004511 109 118 136
0.086518 0.031025 0.027036 80 92 94
-0.031381 -0.031301 0.006811 98 115 122
0.038351 -0.033710 -0.001314 111 123 131
0.048987 0.047206 0.025611 130 139 143
0.014194 0.060898 -0.011364 173 181 183
-0.062786 -0.015742 0.019086 89 100 99
0.059785 -0.021888 0.002311 106 117 121
-0.016987 0.011774 0.028611 101 113 128
-0.047311 -0.001816 0.024986 99 107 121
0.049756 0.046643 0.025736 125 136 140
0.073296 0.063466 -0.009989 88 101 88
0.097228 0.006788 -0.022864 2 3 0
0.067824 0.057080 0.004236 129 139 134
-0.089721 -0.010488 -0.027239 55 53 34
0.074584 0.030380 -0.044239 32 34 23
0.084539 0.022122 -0.026264 27 29 23
0.014749 0.031353 0.034436 86 99 118
0.093511 -0.001144 -0.025239 3 10 1
-0.089680 -0.002819 -0.028914 63 57 43
-0.088115 -0.018301 0.006711 22 20 14
0.083299 -0.057649 -0.017564 146 155 130
0.094101 -0.014572 -0.027789 28 34 33
0.043707 0.000836 0.014811 106 116 131
-0.097323 0.048043 -0.024739 56 51 34
0.044083 -0.037481 -0.003914 103 118 124
-0.098485 0.055701 -0.030864 36 45 31
-0.090734 0.003563 0.001111 31 36 21
-0.033136 0.036850 0.035036 81 87 94
0.037211 0.060384 -0.008739 159 165 158
-0.070259 0.031466 0.024086 164 164 158
0.081165 0.035315 -0.051189 31 36 23
0.077528 0.033441 -0.048139 38 37 20
0.092402 0.015288 -0.015664 1 6 2
-0.088898 -0.018924 -0.032439 60 58 44
-0.090841 0.006231 -0.019489 51 51 40
0.081956 0.062168 0.001386 69 81 71
0.108090 -0.016646 -0.000489 73 87 77
-0.090368 0.001882 -0.018314 40 48 36
0.103983 0.016061 0.018261 6 11 14
-0.057948 0.049176 0.002836 97 99 93
-0.073979 -0.026034 -0.009989 0 3 2
0.045562 -0.031567 -0.001139 108 121 127
-0.087479 -0.036316 -0.033889 56 62 39
0.104443 -0.031343 -0.007014 95 107 97
-0.089464 -0.027815 -0.045564 60 64 46
-0.093293 0.025762 -0.022064 54 56 30
0.046064 -0.025989 0.001786 109 121 129
0.074783 -0.033882 -0.005489 101 120 114
0.072770 0.007582 0.015886 96 110 113
-0.014533 -0.059115 -0.006889 153 161 154
-0.002367 -0.018293 0.010536 107 112 133
0.095035 0.058220 0.003261 0 1 0
0.060055 -0.012011 0.006711 106 120 123
0.079968 -0.038540 -0.006939 91 104 102
0.065187 0.063139 -0.009889 149 153 135
0.102429 0.020301 -0.015964 0 3 3
0.023662 0.012834 0.023786 108 116 136
-0.052801 -0.034106 0.008186 103 111 113
0.021749 -0.063678 -0.013489 153 166 153
-0.019041 0.056114 -0.007564 137 143 143
0.019083 -0.041680 -0.004264 108 117 126
0.087640 -0.044568 -0.010689 148 160 136
-0.017977 0.018454 0.031386 109 108 128
0.019291 -0.025114 0.004761 107 120 133
0.052690 0.009814 0.018561 108 116 130
-0.037367 0.010954 0.030236 100 107 123
-0.089504 -0.016492 -0.040739 57 59 35
-0.092955 0.014866 -0.046689 54 61 34
0.090640 0.022383 0.021436 66 77 75
-0.012377 -0.027717 0.007011 108 115 131
-0.050696 0.018906 0.036711 98 103 114
-0.092022 0.008941 -0.028614 52 54 36
0.060071 0.060567 -0.004339 111 122 114
-0.086968 -0.039896 -0.006964 37 41 30
-0.090835 -0.005295 -0.044964 55 63 33
0.037506 -0.039590 -0.004589 104 116 124
0.070176 0.057430 0.004511 136 148 138
-0.006032 -0.036792 0.001761 108 121 134
-0.086808 -0.045685 -0.013964 39 42 29
0.086801 -0.047090 -0.011589 148 152 134
0.015735 -0.057234 -0.009089 150 157 153
-0.083385 -0.052547 -0.032514 58 60 42
0.042338 -0.051329 -0.008814 160 164 153
-0.070306 0.000084 0.028486 69 86 93
-0.065945 -0.006711 -0.001314 130 139 130
0.054191 -0.042067 -0.006214 96 102 101
0.091799 -0.032045 -0.006589 96 110 100
-0.089153 -0.022977 -0.039914 61 59 45
-0.041688 0.050494 0.003336 117 128 127
0.081276 0.027268 -0.037264 34 36 25
0.068711 -0.007402 0.008386 108 118 120
0.102782 -0.027440 -0.004414 90 104 89
-0.053438 0.044283 0.017836 109 115 108
0.062612 0.037179 0.031611 77 91 94
-0.068204 -0.064055 -0.004639 89 101 96
0.035868 -0.040338 -0.004614 101 118 125
-0.087189 -0.047301 -0.009614 38 42 24
0.084882 0.030165 -0.041689 32 36 18
0.001342 0.028068 0.035261 105 108 124
0.100635 0.005821 -0.024989 5 8 0
0.064083 0.054472 0.007511 137 151 141
-0.007567 -0.012256 0.014136 106 116 131
0.078229 -0.020707 0.001186 102 118 116
-0.081026 0.049762 0.001161 80 95 75
-0.090210 0.040714 0.018436 128 119 108
-0.048494 -0.066645 -0.007264 148 159 138
0.022152 0.009394 0.022061 115 118 139
-0.089426 -0.009900 -0.024789 54 56 38
0.107297 -0.047228 -0.013564 139 148 123
-0.088703 -0.020372 -0.036064 56 54 40
-0.047401 0.060306 -0.015564 100 113 100
-0.041822 -0.023566 0.012211 103 113 120
0.093435 -0.005659 -0.025539 19 26 22
0.029637 -0.024222 0.004061 108 125 134
0.042914 0.040264 0.033461 41 50 61
-0.032290 -0.049981 0.000086 91 99 106
0.055882 -0.029428 -0.000914 112 123 127
0.000099 0.007442 0.024486 110 119 137
0.082490 -0.061276 -0.018664 149 154 134
-0.085075 -0.046510 -0.004539 107 103 84
0.030311 -0.021826 0.004936 113 124 137
0.075859 -0.047815 -0.010764 134 146 122
0.084303 -0.051092 -0.013389 142 151 126
0.015560 -0.004366 0.015911 114 120 139
0.012587 -0.043602 -0.003639 106 114 128
0.075109 -0.026253 -0.001539 99 116 110
0.094806 0.053274 0.016961 46 64 55
0.097319 -0.011730 -0.028014 17 17 6
0.012278 0.006344 0.021936 110 119 137
-0.016196 -0.014618 0.014061 109 119 134
0.100922 0.019924 -0.015189 6 7 4
0.042158 0.014950 0.022661 105 114 132
0.002791 0.062085 -0.015214 176 177 174
-0.088243 -0.017299 -0.026789 49 50 37
0.063023 0.056330 0.005236 123 130 126
-0.064636 0.056051 -0.011789 86 95 86
0.049844 -0.033262 -0.002289 113 121 128
0.092644 0.007074 -0.021339 12 12 6
-0.007671 0.047285 0.013286 133 140 149
0.105203 -0.003564 0.006086 63 81 64
0.029760 -0.051487 -0.007914 164 166 160
-0.087466 -0.038702 -0.038964 60 62 38
0.074848 0.033574 -0.048714 27 33 15
0.011548 -0.020457 0.007986 108 118 133
-0.078945 0.061073 -0.020564 98 101 86
-0.051485 -0.003281 0.024611 96 107 120
0.035864 -0.056331 -0.010989 157 165 158
-0.021586 0.040912 0.028161 99 103 103
0.026914 -0.054530 -0.008764 161 168 159
-0.087610 -0.020382 -0.024289 57 60 40
-0.090859 0.000381 -0.018664 54 52 38
0.052948 0.010547 0.018986 108 115 131
-0.048740 0.013425 0.033661 92 103 116
0.103476 0.012543 -0.022414 6 10 9
-0.045667 0.006235 0.028836 97 107 114
0.043292 0.038964 0.033061 18 14 27
-0.035102 0.043913 0.016186 157 166 164
-0.093599 0.014163 -0.026964 54 55 47
-0.030631 0.030780 0.038061 12 14 19
-0.088148 -0.015827 -0.013464 48 49 34
0.021509 -0.015563 0.009036 117 123 142
0.092803 0.063190 -0.004039 16 29 27
0.077659 0.030206 -0.044589 27 36 20
0.040782 -0.024674 0.002611 112 120 134
-0.094417 0.025471 -0.035339 46 51 38
-0.037855 0.057503 -0.012114 114 120 119
-0.069014 -0.057930 -0.001964 92 106 101
-0.064472 0.051163 0.000611 74 86 76
-0.092274 0.015978 -0.035464 61 59 40
0.040364 0.058189 -0.002014 145 155 150
-0.091288 -0.008005 -0.043189 47 54 34
-0.018126 0.048199 0.008211 117 125 132
-0.068549 0.011109 0.018811 68 77 86
0.102807 -0.051341 -0.015189 141 147 124
0.022576 0.038232 0.034111 21 23 33
0.100087 0.013816 -0.019264 16 17 14
-0.069866 0.018126 0.038636 89 97 104
0.046490 0.045095 0.030936 119 129 131
-0.035491 0.039196 0.034336 92 95 103
-0.087731 -0.026462 -0.024464 50 51 36
-0.012948 0.044894 0.021861 112 117 128
-0.087862 -0.008547 0.015186 104 109 94
0.049027 0.046198 0.026386 128 129 137
0.050354 0.003376 0.016711 109 115 129
-0.010115 -0.021074 0.009786 114 121 137
-0.068348 0.019603 0.016636 64 72 86
0.053629 -0.026705 0.000536 111 120 131
-0.022692 -0.035899 0.003761 99 112 125
0.094997 -0.011437 0.004186 83 89 89
-0.093268 0.019633 -0.006089 41 50 34
0.050891 0.064048 -0.013189 121 133 123
-0.076955 0.045685 0.011811 79 87 80
0.061377 0.050403 0.021286 126 139 131
0.076438 0.023877 -0.034364 15 20 16
-0.089197 -0.017733 -0.006964 40 43 30
0.069344 -0.053488 -0.012989 155 161 138
-0.091693 0.011967 -0.005314 47 46 29
0.041062 -0.053508 -0.010014 155 163 156
0.089627 0.010082 0.015261 81 98 92
-0.085952 -0.048049 -0.029939 46 55 30
-0.066000 -0.011897 -0.003839 133 140 136
0.085574 -0.005355 0.007761 96 110 105
-0.044794 -0.024022 0.012536 99 111 121
-0.069560 -0.004194 0.025886 79 88 99
0.096860 0.010909 -0.019839 0 5 0
0.007531 0.054607 -0.000814 153 162 166
-0.020482 0.050153 0.004011 106 114 121
0.000880 -0.031173 0.003836 103 115 130
-0.031937 0.017080 0.033261 96 103 119
0.031457 0.016585 0.024961 108 115 131
0.022325 0.002117 0.018511 112 121 139
0.099652 0.000296 -0.026464 4 13 4
0.055608 -0.019420 0.003586 110 123 129
0.087000 0.056632 0.010236 71 82 68
-0.041107 -0.045793 0.000836 96 111 112
-0.075378 0.024174 0.014786 147 140 135
-0.091711 -0.002596 -0.041714 63 61 47
0.048298 -0.008695 0.009886 110 122 130
-0.089761 -0.019165 -0.046514 58 69 48
-0.003038 0.013985 0.028036 109 118 136
-0.049073 -0.052059 0.000136 75 88 87
0.006168 -0.044257 -0.003064 100 110 117
-0.090247 -0.014392 -0.037314 65 65 41
-0.091854 0.051440 -0.005014 86 95 79
0.110934 -0.035697 -0.008614 77 91 76
0.045027 -0.052014 -0.009739 153 161 154
-0.088179 -0.017537 -0.024839 43 46 26
-0.091044 -0.003584 -0.032039 55 56 41
-0.070825 0.011850 0.035861 84 93 102
-0.022563 -0.029321 0.006986 102 112 127
0.101617 0.004368 -0.025664 0 7 0
-0.074097 0.047469 0.007461 83 84 81
-0.009608 0.058011 -0.008514 150 158 160
-0.045030 -0.037358 0.005686 97 110 116
0.103715 -0.038891 -0.008589 142 150 127
0.014644 0.016860 0.026586 115 123 137
0.041326 0.048176 0.022861 133 141 148
-0.032001 -0.066029 -0.008189 148 158 139
0.026252 -0.012923 0.009986 112 120 140
0.042148 -0.044348 -0.005114 150 158 151
-0.015275 0.004055 0.023861 106 119 132
0.043209 -0.010958 0.009086 110 121 134
-0.017223 -0.032993 0.004411 103 111 125
-0.068003 -0.035042 0.009536 82 92 99
-0.092071 0.045726 0.004236 81 89 77
-0.038758 -0.039455 0.003761 99 109 116
-0.064128 0.003697 0.029811 86 95 104
-0.051325 0.038675 0.032311 77 86 84
0.075013 0.017401 0.020661 98 107 111
0.017678 -0.058731 -0.010364 154 161 157
0.093592 0.013566 -0.016639 0 2 0
-0.092293 0.009446 -0.029214 54 54 35
-0.072424 0.036072 0.022786 189 186 176
0.077615 0.030574 -0.044664 29 34 19
0.056187 -0.024092 0.001261 107 122 128
0.051841 0.035780 0.032336 94 103 114
0.033573 -0.029398 0.001161 110 123 136
-0.020694 0.011603 0.028211 101 109 123
0.061858 -0.003144 0.011361 106 120 123
0.012958 -0.021276 0.006961 110 122 137
0.062188 0.007044 0.016636 109 117 119
-0.092533 0.013459 -0.039339 51 53 35
-0.056753 -0.007037 0.022986 91 104 110
0.074650 0.026211 -0.037489 25 29 18
-0.008543 0.032172 0.034761 11 14 22
0.078027 -0.030359 -0.003564 104 119 111
-0.086314 -0.059146 -0.009889 39 50 34
0.057733 -0.053928 -0.012389 149 159 140
-0.055025 0.061417 -0.020264 106 109 94
-0.056817 0.042973 0.021686 98 102 101
-0.036873 -0.043512 0.001036 105 112 116
0.021301 -0.007618 0.013211 110 122 137
0.087597 -0.020585 0.000186 99 112 104
-0.069109 -0.011616 0.021636 79 90 94
-0.021000 0.055409 -0.006689 132 136 136
-0.090090 -0.012342 -0.035339 58 63 36
-0.015781 -0.048297 -0.001314 94 101 105
-0.019777 -0.042500 0.000086 101 109 123
0.021905 -0.011234 0.011261 112 121 139
-0.057532 -0.007190 0.023161 99 107 114
-0.032402 0.040522 0.028461 89 96 107
-0.045006 -0.059487 -0.004064 154 157 142
0.075637 0.024733 -0.036039 18 21 13
0.020791 0.053645 0.005136 156 166 173
0.104799 0.024150 -0.022289 35 31 24
0.050700 0.018433 0.024211 102 113 126
0.041440 -0.021751 0.004336 113 121 135
-0.091973 0.017651 -0.017739 49 52 39
-0.092954 0.016315 -0.037064 53 59 41
0.106693 -0.002644 0.006811 63 87 75
-0.087398 -0.048394 -0.009214 45 50 35
-0.058837 0.039870 0.029761 85 90 93
-0.088425 -0.018795 -0.039189 55 59 41
-0.086768 -0.042791 -0.027814 53 58 43
0.079321 -0.055585 -0.015514 145 154 129
0.064188 0.058601 0.000411 114 125 117
-0.089804 -0.018774 -0.042064 58 58 39
-0.085027 0.045568 0.009611 85 96 80
-0.087990 0.036183 0.023411 147 143 131
0.066740 0.056197 0.005236 137 147 142
0.042656 0.050178 0.017011 129 138 142
-0.022206 -0.042972 -0.000089 98 110 118
0.075845 -0.051925 -0.013389 143 155 131
-0.013590 -0.038111 0.001836 104 116 124
-0.032553 -0.035915 0.005136 103 110 121
-0.086515 -0.037551 -0.016689 52 55 40
-0.042581 0.039520 0.033586 87 94 98
-0.003105 0.053444 -0.001689 162 165 173
0.001162 -0.025659 0.006686 116 122 136
-0.053597 0.054889 -0.006764 109 119 114
-0.090140 -0.014649 0.007836 16 21 17
0.093608 0.018367 0.018586 70 83 75
-0.019483 -0.018600 0.012186 104 114 129
-0.016530 -0.022868 0.009986 103 112 130
0.094463 0.063835 -0.005364 14 31 18
0.089253 0.009080 0.014761 89 100 98
0.029369 -0.024351 0.004036 109 123 133
0.059649 -0.020758 0.002686 110 120 127
0.010854 0.045453 0.022411 113 120 131
-0.089618 -0.014610 -0.032464 52 56 38
-0.055806 0.017853 0.037186 93 103 110
0.076980 0.060050 0.000111 70 86 69
0.008403 0.048885 0.013036 122 129 138
0.015739 0.041515 0.031236 103 108 117
0.035910 0.057344 -0.003814 149 155 154
0.073734 0.034718 -0.049664 27 38 30
0.041348 -0.027833 0.001111 109 120 133
0.105308 -0.009169 0.003761 75 88 75
-0.087195 0.048623 0.003711 86 96 84
-0.035670 0.042730 0.023286 97 99 104
-0.038544 0.057632 -0.011739 113 120 116
0.106077 -0.015376 0.001086 82 96 81
-0.020187 -0.049906 -0.001939 146 153 149
0.078383 -0.000936 0.010186 97 111 114
-0.094619 0.027841 -0.038489 45 56 35
0.068456 0.030126 -0.044514 26 28 22
-0.048600 0.014856 0.034386 93 101 115
-0.087071 -0.044048 -0.041589 62 68 45
-0.053192 -0.042441 0.003586 87 108 105
-0.004787 -0.030395 0.003911 107 120 133
0.094152 0.001620 -0.024564 0 7 0
-0.047895 0.052889 -0.002264 110 119 117
-0.066583 0.059848 -0.017739 85 96 82
-0.064785 -0.033233 -0.015589 147 156 140
-0.092953 0.021702 0.003136 49 49 38
-0.019962 -0.007842 0.018186 106 117 130
-0.002010 0.053048 0.003086 157 159 164
0.019580 0.062486 -0.016614 187 193 186
0.059538 -0.046963 -0.008664 151 158 149
-0.089696 -0.026013 -0.050839 54 55 33
0.029060 -0.044507 -0.004039 116 120 119
0.019239 0.062657 -0.015564 184 189 185
-0.031517 -0.034485 0.005286 105 112 123
-0.091546 0.007103 0.002186 39 41 30
0.023772 -0.027683 0.002611 112 119 135
0.012889 0.056940 -0.004664 167 175 177
0.043952 0.057159 -0.002439 140 150 145
-0.036839 -0.063554 -0.006289 150 157 137
-0.035759 0.046236 0.012961 106 110 110
0.018692 0.003839 0.019261 109 117 137
0.078109 0.041181 -0.052264 5 7 1
0.015881 -0.039659 -0.002139 113 119 133
0.071077 -0.061171 -0.016864 146 159 133
0.101565 0.016551 -0.019464 1 7 0
-0.077504 0.049378 0.000236 84 90 83
-0.088994 -0.000700 0.014611 23 26 18
0.043062 -0.021569 0.003936 112 124 132
0.040413 0.047301 0.024111 129 140 144
-0.070459 0.030280 0.028061 160 162 156
-0.073879 -0.034359 -0.008564 0 3 2
0.085615 -0.013960 0.002786 97 112 104
0.093259 0.049815 0.023011 55 61 54
-0.067707 -0.054272 0.000611 90 106 96
-0.048054 0.059655 -0.015739 99 108 99
0.007662 0.040598 0.030411 97 99 111
0.093791 -0.055890 -0.017289 144 155 134
0.043112 -0.006859 0.011611 107 119 134
-0.080277 0.048948 0.004436 88 88 82
-0.090656 0.009167 -0.008839 43 47 36
0.060224 -0.057046 -0.014389 155 162 142
-0.033003 -0.010954 0.017911 101 109 123
0.095498 -0.039504 -0.008589 144 151 124
-0.072174 0.058380 -0.014039 91 96 83
-0.002406 -0.011388 0.013636 111 122 135
-0.090108 -0.008347 -0.010964 42 46 28
0.095666 0.007365 -0.022489 0 2 0
-0.069601 0.058670 -0.015864 90 100 88
0.084828 0.058757 0.001686 34 42 30
-0.044414 -0.031356 0.008661 101 112 125
0.071745 -0.033167 -0.004689 103 117 112
0.048730 0.061027 -0.008314 146 149 141
-0.032598 -0.058213 -0.003739 152 156 145
0.063098 0.043739 0.031711 103 114 112
0.064309 0.032558 0.029261 83 100 107
0.008323 -0.044644 -0.003039 107 114 123
-0.093411 0.015436 -0.026214 46 54 31
0.020263 -0.051891 -0.007014 157 162 158
0.084198 -0.014620 0.002836 104 113 111
-0.093402 0.035698 0.018261 6 6 6
0.052865 0.019793 0.024636 103 115 123
-0.045290 -0.055654 -0.001514 150 154 143
-0.059799 0.059082 -0.016664 103 107 96
-0.056472 -0.021593 0.014186 98 106 113
-0.069279 0.003123 0.019261 67 83 81
0.084652 -0.010843 0.005211 99 117 108
-0.021929 -0.019532 0.011886 99 109 129
0.101748 0.025014 0.021661 0 6 5
0.044110 0.036250 0.033311 78 92 100
0.039097 -0.013738 0.008236 109 119 134
-0.089856 -0.018162 -0.046239 36 54 32
-0.007888 -0.016225 0.011836 109 118 136
-0.022361 -0.059053 -0.006714 151 153 147
-0.013620 -0.029510 0.005711 107 113 127
-0.069559 -0.008970 0.023761 79 89 96
0.027043 0.027015 0.030611 106 111 127
0.101919 0.061906 -0.001589 18 36 21
-0.076266 -0.025650 -0.011614 0 3 2
0.010103 0.039906 0.034011 86 91 102
0.030044 0.007889 0.020536 110 117 133
-0.088491 -0.025371 0.000261 28 37 23
-0.074137 0.042056 0.014111 172 179 159
0.049343 -0.056065 -0.012789 157 162 149
-0.062250 -0.017057 0.017861 83 99 102
-0.055581 -0.064077 -0.007514 141 142 127
-0.056182 0.017357 0.036836 96 103 112
0.045211 0.018906 0.024586 102 118 130
-0.092676 0.023111 -0.014289 51 51 40
-0.055932 0.016197 0.035886 96 101 112
0.005017 -0.056119 -0.007689 159 165 158
0.023867 -0.032113 0.000411 117 128 141
-0.091826 -0.004835 -0.042264 56 56 37
0.072240 0.027024 -0.040114 10 24 9
-0.089636 -0.012378 -0.031589 53 57 39
0.001498 0.031970 0.035486 86 92 106
0.074521 0.054591 0.014611 135 146 138
0.030417 0.049345 0.016511 130 139 143
0.037524 -0.047166 -0.006214 155 160 156
0.066404 0.058746 0.000461 108 120 110
0.074789 0.024577 -0.030714 60 70 65
0.075200 0.003049 0.012811 98 114 112
0.072832 0.064641 -0.011039 101 110 94
-0.090608 -0.005867 -0.035014 57 52 35
-0.065607 -0.066218 -0.005839 100 112 102
-0.050939 -0.055952 -0.000989 144 153 137
0.073668 0.030630 -0.044839 31 35 24
-0.060530 -0.016485 0.017811 69 83 86
-0.024301 0.021397 0.033511 102 109 120
-0.087905 -0.033753 -0.042564 55 65 35
0.092714 0.047210 0.031586 76 90 85
0.016994 0.054390 0.000161 159 163 168
0.047101 0.056856 0.002261 133 144 142
0.059957 -0.013593 0.006411 108 120 128
-0.003157 -0.021771 0.008811 112 115 136
-0.091191 0.012495 -0.018489 52 51 34
0.069060 -0.024604 0.000311 109 119 121
-0.030858 -0.063739 -0.008389 151 156 143
0.060551 -0.031490 -0.002239 99 116 117
-0.042343 -0.019891 0.015186 99 106 122
0.063882 0.020637 0.022786 103 111 118
0.016701 -0.032253 0.001161 111 124 137
0.043622 0.011678 0.021386 106 116 131
0.005736 -0.057881 -0.008289 161 163 157
-0.090478 -0.002747 -0.001139 33 39 32
-0.040530 -0.011566 0.018586 103 110 126
-0.007722 0.022924 0.033436 105 112 128
0.018484 -0.044142 -0.003989 106 118 126
0.011075 0.062304 -0.014639 190 190 184
0.061080 -0.056108 -0.013689 151 162 141
-0.095406 0.034761 -0.025664 45 48 40
-0.070216 0.044025 0.014811 97 107 95
0.043546 -0.054360 -0.010739 159 166 157
0.050801 0.013112 0.021186 102 113 131
-0.004773 0.041048 0.031961 109 112 120
-0.054854 0.033111 0.038961 84 87 90
0.029122 -0.024365 0.004136 111 122 135
-0.087217 -0.059998 -0.021039 48 54 31
0.094183 -0.004405 0.007486 73 88 80
-0.061977 0.057494 -0.012139 98 107 93
0.093065 0.002957 -0.024164 2 7 3
0.106166 -0.014481 0.001236 74 94 80
0.025488 -0.046691 -0.004339 159 159 159
0.020356 -0.035590 -0.000889 111 123 131
-0.082035 0.043832 0.012736 90 100 81
0.076033 -0.043448 -0.008514 147 159 135
0.029026 -0.042944 -0.004239 94 108 116
-0.016612 -0.062870 -0.008414 148 155 146
0.013551 -0.013994 0.011461 114 120 139
-0.014965 -0.014501 0.014336 105 115 130
-0.005616 -0.057159 -0.006814 155 161 154
0.079844 0.046546 0.028611 101 114 106
0.105278 -0.020733 -0.001739 83 101 92
0.026713 -0.059522 -0.011514 157 162 158
-0.098231 0.056600 -0.029339 42 46 23
0.088295 0.019521 -0.018589 21 29 17
0.035923 0.035119 0.032961 88 102 110
0.024359 0.061159 -0.010314 177 182 185
0.025175 -0.036725 -0.002164 113 121 135
-0.038283 -0.023370 0.011761 105 112 121
0.010656 -0.026763 0.004286 115 126 139
-0.084672 0.030688 0.028811 123 124 111
-0.060423 0.009044 0.031586 82 94 104
0.021630 -0.031859 0.001136 112 123 136
-0.073990 0.056023 -0.008589 93 102 88
-0.026645 0.057408 -0.012389 128 132 132
0.007854 -0.050527 -0.004964 159 159 159
0.086874 0.062522 -0.005539 19 32 30
0.014376 0.060063 -0.010664 169 175 175
0.048571 0.061473 -0.008439 152 154 148
-0.046922 -0.066200 -0.007139 153 156 136
-0.072153 0.028522 0.041261 8 17 16
-0.088339 -0.015326 -0.030764 52 56 38
0.077299 0.041348 -0.050339 7 14 10
0.095979 -0.004752 -0.026214 10 12 1
0.102438 0.018860 0.017761 0 1 0
-0.049832 -0.024747 0.012786 101 110 119
-0.037874 -0.016741 0.015961 100 109 120
-0.090975 -0.011702 -0.048139 57 61 38
-0.068959 0.032064 0.038261 166 162 162
-0.094077 0.027127 0.007111 36 41 28
-0.089775 -0.001479 -0.009339 43 46 31
-0.069880 0.034391 0.029436 176 173 170
0.085958 -0.001867 0.008586 101 112 111
-0.039895 -0.026550 0.010936 103 112 123
-0.051873 0.011595 0.033911 92 101 110
-0.085968 -0.051929 -0.032764 56 62 39
-0.089758 0.047565 0.006786 81 90 81
-0.070506 -0.027206 0.014461 71 85 88
0.043992 0.019896 0.025736 101 113 128
-0.086301 -0.043604 -0.019614 45 46 33
0.084463 -0.020834 0.000111 105 119 109
-0.003644 -0.026901 0.006061 112 118 137
-0.018271 -0.063885 -0.008964 153 156 148
-0.089638 -0.013368 -0.032264 65 60 43
-0.027128 0.054756 -0.003214 121 133 128
0.088278 0.041735 0.030811 0 2 2
0.097622 -0.018340 -0.028864 18 20 9
0.014834 0.028757 0.033461 101 107 121
-0.091913 -0.003130 -0.046689 59 61 43
-0.027640 0.004227 0.025411 107 112 128
-0.074642 -0.062319 0.001411 119 134 114
-0.095444 0.032790 -0.026639 46 55 30
0.057999 -0.012637 0.006136 110 120 127
-0.091383 -0.002935 -0.043614 54 58 40
0.037687 -0.002088 0.014061 113 124 137
-0.088548 -0.030065 -0.044939 53 56 43
0.092701 -0.044196 -0.011164 141 154 128
-0.078010 -0.001111 0.001386 0 2 1
-0.021663 0.008235 0.026086 102 112 127
-0.035291 0.051357 0.002211 108 115 119
0.060912 0.059261 -0.003739 116 125 116
-0.068833 0.033765 0.033111 177 170 165
0.048426 -0.043000 -0.005489 123 133 121
-0.014325 -0.022011 0.009661 106 111 127
-0.010468 -0.052554 -0.004489 155 156 153
-0.026548 -0.010360 0.017461 104 114 129
-0.059619 0.039595 0.028311 91 91 92
-0.090122 -0.006546 -0.013339 42 49 40
0.016742 -0.045589 -0.003764 123 130 126
0.089722 0.056868 0.005261 50 63 55
-0.064781 -0.040222 0.006586 81 98 99
-0.089147 -0.012638 0.002611 22 27 23
0.030325 0.007743 0.020486 109 118 136
-0.042605 -0.000933 0.025011 103 110 119
0.021040 -0.030780 0.001636 112 124 134
-0.087744 -0.027165 -0.028364 48 51 38
-0.069495 0.021015 0.013986 124 133 131
0.088483 -0.057308 -0.016589 151 159 129
-0.040938 0.042156 0.021936 98 104 111
-0.022004 -0.050617 -0.001689 146 153 149
-0.037621 0.052361 0.000286 105 115 117
0.074083 0.015803 0.020486 100 109 113
0.072783 -0.036686 -0.006364 103 117 112
0.095742 -0.008852 -0.027264 11 11 5
-0.087386 -0.037843 -0.011989 36 42 24
-0.066565 -0.011391 0.022686 86 96 103
-0.078145 0.061133 -0.020114 99 103 85
0.045569 -0.048214 -0.007739 159 166 157
0.030462 -0.032492 -0.000314 112 123 136
0.051151 -0.046018 -0.007214 159 163 152
-0.087728 -0.034511 -0.017239 46 48 37
0.086074 -0.040553 -0.008314 144 152 129
0.025737 0.055466 -0.000939 151 158 162
-0.083569 0.029213 0.025786 130 126 114
-0.089901 -0.015854 -0.040289 51 55 32
-0.091746 0.015657 0.004636 41 50 36
-0.088601 -0.028706 -0.043714 52 55 40
0.067747 -0.032166 -0.003364 111 118 114
0.029683 0.055628 0.000411 151 162 161
-0.001043 -0.051723 -0.004739 158 162 161
-0.086575 -0.035166 -0.024739 49 49 30
0.012286 -0.026336 0.004961 111 121 136
0.009782 0.048984 0.015636 124 134 141
0.014097 -0.062094 -0.011089 161 162 154
-0.088211 -0.030329 -0.020689 45 50 30
0.084316 -0.049908 -0.013364 136 151 131
0.096004 0.003517 -0.023914 0 2 0
-0.034069 -0.006373 0.020786 101 112 125
0.095855 -0.032074 -0.006439 95 111 96
0.095281 -0.030099 -0.005689 92 115 99
-0.036824 0.005299 0.027236 102 109 120
0.101752 -0.035624 -0.008389 73 98 83
0.009892 0.014928 0.026536 108 114 133
-0.091286 0.008612 -0.026639 51 52 30
-0.087458 -0.047191 0.000261 101 100 78
0.067104 -0.049177 -0.010264 150 160 141
-0.080946 0.015783 -0.052439 46 51 36
-0.069428 -0.025654 0.015336 86 92 99
0.012253 0.060219 -0.009889 181 186 189
0.093226 -0.026834 -0.003489 96 113 100
0.072268 -0.060395 -0.017064 148 162 138
-0.079019 0.053943 -0.007014 91 100 86
-0.046864 -0.034106 0.008186 103 110 114
-0.067739 0.015524 0.037386 89 95 102
0.092790 -0.000388 0.009811 75 86 78
0.024818 -0.035035 -0.001089 111 123 133
-0.074833 0.014746 0.012011 6 11 7
-0.024322 0.005273 0.026036 104 112 126
0.011606 -0.058109 -0.008689 156 163 154
-0.097605 0.045588 -0.027014 45 48 33
-0.078861 -0.012867 -0.002739 0 2 1
-0.057054 -0.054767 -0.001889 127 138 124
-0.088101 -0.013196 -0.017614 41 46 33
-0.087740 -0.035465 -0.050489 75 73 47
-0.009151 -0.050278 -0.003264 157 158 155
-0.022842 0.056374 -0.008639 139 145 145
-0.016915 0.055836 -0.005364 142 147 150
-0.060923 0.058530 -0.014614 92 100 88
0.097703 0.053039 0.017661 42 53 39
0.066318 0.051284 0.019661 123 134 132
0.005844 0.030928 0.035786 98 102 121
0.052463 -0.022669 0.002286 108 118 125
0.007409 0.056257 -0.003664 169 173 178
-0.067407 -0.058117 -0.002164 93 107 102
-0.097180 0.051469 -0.015264 12 13 10
-0.042964 0.016730 0.034711 101 106 117
0.075971 -0.036913 -0.007014 106 120 110
-0.017022 -0.023881 0.009411 105 115 130
0.076086 -0.031621 -0.004239 109 120 118
0.037752 0.018699 0.025561 103 109 128
-0.022130 0.049315 0.007836 118 129 133
-0.096018 0.042241 -0.037489 54 52 46
-0.033712 0.058549 -0.013564 120 125 121
-0.011976 -0.042791 -0.000814 103 113 128
-0.032493 -0.019736 0.012486 100 107 123
0.097263 -0.030219 -0.005714 86 108 94
0.069306 0.034447 0.030711 83 97 100
0.074999 -0.034491 -0.005564 110 117 113
0.109318 0.002598 0.008986 69 78 69
0.016070 0.015324 0.025861 115 122 138
0.083915 0.015374 0.018586 89 107 104
-0.095179 0.032921 -0.026539 37 49 25
-0.085049 -0.052013 -0.027214 46 55 30
-0.089219 -0.024606 -0.050089 68 63 58
-0.054774 -0.064020 -0.007339 140 145 130
0.096412 0.041692 0.031361 49 62 60
0.006682 -0.046085 -0.002864 90 100 107
-0.042346 0.030719 0.041036 9 10 18
-0.095310 0.033704 -0.014039 51 54 34
0.000217 0.053208 -0.000339 159 162 170
-0.094729 0.031456 0.007336 50 55 35
0.015310 -0.061026 -0.011039 157 164 155
-0.012944 -0.010940 0.015386 103 113 128
-0.003476 0.012604 0.027411 108 117 135
-0.059566 -0.065611 -0.007064 98 107 105
0.073512 -0.013845 0.004586 104 119 120
0.031084 -0.042076 -0.004689 102 114 124
-0.049423 -0.046585 0.001861 104 117 116
0.041140 -0.025045 0.002461 110 118 132
0.011705 0.050560 0.010486 129 136 145
0.073583 0.055749 0.007736 135 147 142
-0.016607 0.024658 0.035211 99 106 122
0.091423 -0.057301 -0.017564 145 162 129
-0.035920 0.009574 0.029736 99 104 120
0.001087 -0.052203 -0.005214 161 162 159
0.066701 0.038452 0.031086 76 82 82
-0.090286 -0.013399 -0.027564 54 56 32
0.062049 0.062555 -0.009164 112 122 110
0.051706 0.024032 0.027011 103 112 123
-0.067483 0.007999 0.008486 116 122 122
0.097700 0.035708 0.028336 54 67 65
0.076177 0.029054 -0.042289 37 35 21
-0.086525 -0.040680 -0.038064 55 60 47
-0.007446 0.053188 0.001336 144 150 157
-0.094733 0.030476 -0.004564 50 51 38
-0.037226 -0.045411 0.000861 105 109 114
-0.056888 -0.024962 0.012336 92 103 107
0.004245 -0.012308 0.012886 114 121 137
-0.007205 0.004485 0.023386 112 116 135
-0.090069 -0.019170 -0.048889 53 60 40
0.035573 0.004950 0.017711 108 118 133
-0.067381 -0.049301 0.003186 82 99 100
-0.048047 -0.024339 0.012836 100 109 120
-0.090122 -0.006308 -0.013339 39 44 31
0.098770 -0.044879 -0.011314 143 151 128
0.010248 -0.041835 -0.002614 106 114 128
0.076838 0.035292 -0.050939 27 38 22
0.040177 -0.032971 -0.001164 112 122 129
0.086493 -0.060399 -0.019139 142 158 127
-0.038411 0.011102 0.030161 99 104 120
-0.014224 -0.007529 0.017536 112 119 135
-0.028959 -0.023142 0.011061 107 114 125
-0.091286 -0.002432 -0.044314 53 60 33
-0.056975 0.045015 0.017311 98 107 105
-0.092204 0.018082 -0.010239 43 46 33
0.062868 0.018084 0.021886 101 114 120
0.089805 -0.043895 -0.010939 147 157 127
-0.031755 -0.065906 -0.008189 151 156 141
-0.057717 -0.055174 -0.001814 87 96 95
0.053306 0.061341 -0.007439 121 121 121
-0.087723 -0.032258 -0.047964 42 51 35
0.035382 -0.041863 -0.004539 102 115 128
0.037831 0.055333 0.004136 149 153 158
-0.043567 0.059939 -0.014964 107 109 103
-0.066834 0.001381 0.009686 64 79 80
-0.090413 0.049605 0.002011 87 94 85
-0.088821 -0.022518 -0.034239 59 61 35
0.108767 -0.026391 -0.004689 83 103 89
-0.043119 -0.049071 0.000061 94 105 109
-0.017416 0.059325 -0.012389 148 152 151
-0.025727 0.041734 0.027786 86 89 97
0.028614 -0.023986 0.004261 114 122 136
0.051525 0.041538 0.032911 106 110 109
-0.094070 0.017740 -0.026214 42 52 33
0.099270 0.000954 -0.026214 4 6 0
-0.070769 0.021441 0.040436 91 102 106
0.037341 -0.037548 -0.003614 110 123 129
0.052936 0.030266 0.030061 100 107 123
0.083707 -0.040103 -0.007639 144 152 129
-0.062937 0.049367 0.005511 93 98 94
0.048088 -0.038260 -0.004914 99 113 116
-0.074242 -0.014800 -0.005189 1 2 0
-0.045085 0.034563 0.038186 86 84 90
0.096757 0.020529 -0.015064 33 31 17
-0.035911 -0.063822 -0.006564 151 156 143
-0.086761 0.040195 0.018686 162 165 145
-0.098033 0.049333 -0.022764 43 49 31
0.020877 -0.058371 -0.010014 156 162 155
0.097439 -0.024036 -0.002739 94 107 99
0.060734 -0.030183 -0.001714 103 117 120
0.058152 0.049280 0.022611 122 133 131
0.004932 0.061523 -0.014514 182 181 178
0.079518 0.003469 0.013211 98 111 109
0.021221 0.005576 0.020161 111 120 138
-0.089105 -0.029158 -0.046364 60 67 47
0.014454 -0.010209 0.012486 118 125 141
0.064616 -0.046454 -0.009164 153 158 143
-0.095161 0.035990 -0.013889 49 50 35
-0.044298 0.050948 0.001686 114 124 119
0.070934 0.044148 0.031486 104 113 111
0.006810 -0.028937 0.003861 110 119 130
-0.064818 0.000534 0.028186 87 96 105
-0.029408 -0.034372 0.005386 107 112 121
-0.002535 0.030169 0.035911 91 102 115
0.090937 -0.016810 0.001161 98 111 103
0.042994 0.059550 -0.004739 153 162 160
-0.052461 -0.020605 0.015311 105 111 118
-0.085531 -0.055644 -0.028264 54 60 37
0.030518 -0.029848 0.001511 114 121 132
-0.098126 0.051891 -0.028039 36 47 31
-0.021531 -0.034754 0.003961 109 113 127
0.081807 -0.061798 -0.019089 149 157 134
0.070173 -0.058307 -0.015464 147 161 137
0.101953 0.022622 -0.021139 27 30 22
-0.093062 0.010900 -0.046539 48 57 32
-0.090457 0.008690 -0.020739 48 52 34
0.104008 0.024284 -0.023614 29 32 19
-0.063771 -0.045470 0.004111 85 101 99
-0.010968 0.003309 0.022761 107 119 134
0.085961 0.029249 -0.043664 36 37 24
-0.087445 -0.042570 -0.045439 67 68 46
-0.091913 0.004784 -0.030664 52 55 42
-0.090799 0.007268 -0.019364 49 52 39
0.018990 0.021069 0.028636 104 113 131
-0.052435 0.058474 -0.013439 106 112 105
0.085486 -0.062143 -0.019089 145 163 127
0.097045 -0.011642 0.003336 74 90 75
-0.051965 0.038600 0.029411 77 82 85
-0.093224 0.014281 -0.026864 48 56 33
-0.073871 -0.064211 -0.004889 10 13 5
0.078643 0.053382 0.014786 124 137 129
-0.085687 0.057976 -0.013839 95 98 83
-0.018675 -0.018207 0.012386 110 115 131
-0.005950 0.044888 0.020536 119 126 135
0.059497 -0.057263 -0.014114 155 166 145
-0.083125 0.056704 -0.013739 86 95 81
0.089314 0.030029 -0.040489 34 34 28
0.086162 0.038641 0.030461 74 84 79
0.076594 0.057658 0.001911 15 19 18
0.082046 0.029353 -0.041339 25 35 23
0.064672 0.013605 0.019886 94 109 115
-0.036313 -0.052475 -0.001039 144 151 142
0.009639 0.059378 -0.010889 173 178 181
-0.029814 0.062138 -0.017214 131 131 125
0.030086 0.034809 0.033886 100 108 122
-0.034131 0.005298 0.027161 105 112 123
-0.045292 -0.053278 -0.000514 144 152 140
-0.089735 -0.003892 -0.010314 50 47 37
0.092682 0.002624 -0.024064 1 6 2
-0.044339 0.027306 0.039136 78 90 100
0.073535 -0.039242 -0.006064 95 108 100
0.028071 -0.048907 -0.006214 157 162 158
0.005842 -0.007013 0.015336 110 120 140
0.044545 0.050485 0.016011 133 143 145
0.020822 0.006159 0.020461 111 116 137
-0.001136 0.030744 0.035586 93 99 113
0.094937 -0.014784 -0.027839 16 20 19
-0.010988 -0.018724 0.010736 107 118 136
0.080881 -0.046811 -0.010889 145 158 137
-0.090966 0.004023 -0.002164 39 36 26
0.071785 0.036751 -0.048689 1 1 1
-0.008847 -0.065165 -0.011264 157 161 150
-0.059643 -0.063362 -0.006139 99 106 102
0.095437 0.025282 0.021486 60 69 67
-0.093126 0.040803 0.005261 0 6 5
0.014589 0.047721 0.017961 110 123 129
0.011287 0.007228 0.022361 112 117 138
0.080945 0.015118 0.018986 96 108 103
-0.007980 -0.000175 0.020886 112 119 135
0.074001 0.002364 0.013636 97 114 121
-0.088026 -0.039819 -0.051514 53 59 41
0.067464 -0.053513 -0.012914 149 161 142
-0.089183 -0.017063 -0.038639 52 57 37
0.003271 -0.041570 -0.002139 101 108 119
0.016641 -0.024316 0.004736 114 120 139
-0.057214 -0.003597 0.025636 96 105 116
0.051898 0.010851 0.019336 109 116 127
0.074320 0.033372 -0.049139 31 35 17
0.014512 0.035378 0.035486 12 17 20
0.053938 0.050064 0.020511 128 139 137
-0.008363 -0.057296 -0.006414 158 160 154
-0.042035 0.029131 0.038636 7 11 16
0.004912 -0.042705 -0.002689 101 110 119
-0.064321 0.008789 0.032886 85 97 105
-0.089776 -0.011335 -0.037414 55 60 47
-0.034970 0.046470 0.013936 107 113 120
0.096214 -0.041637 -0.010314 144 153 126
0.058135 -0.010231 0.008261 105 113 127
0.085609 0.040594 0.028061 21 25 25
-0.048816 0.033129 0.038036 57 67 74
0.099036 -0.015845 0.000561 85 94 85
0.055644 -0.044073 -0.007089 149 157 145
0.031567 -0.022834 0.004536 107 123 135
-0.067679 0.017776 0.038186 88 95 104
0.069205 -0.049359 -0.010464 147 159 135
0.074754 0.036809 -0.050439 21 31 19
-0.087397 -0.038991 -0.037964 60 67 47
0.096592 -0.011734 -0.027964 13 16 1
0.055361 -0.042507 -0.006439 151 157 150
-0.019946 -0.020436 0.011361 103 114 127
-0.038145 0.056219 -0.008739 112 119 115
-0.062796 0.060713 -0.018514 91 96 81
0.047288 -0.042101 -0.005089 93 100 104
-0.037697 -0.051849 -0.000564 146 149 141
-0.021847 0.034455 0.036511 77 84 95
-0.032032 0.054532 -0.004739 117 130 129
-0.022311 -0.015444 0.013961 112 116 130
0.098334 0.061441 0.001161 31 40 31
-0.092283 0.029064 0.004911 48 51 43
-0.047002 -0.042303 0.003561 101 110 114
0.023370 0.033187 0.034336 92 102 117
0.085403 -0.056229 -0.016014 147 156 129
-0.078423 0.025133 0.015736 130 135 122
-0.049922 -0.040680 0.005086 103 112 116
0.073221 -0.001217 0.010936 101 113 115
-0.017313 -0.019583 0.011086 111 117 136
0.072848 0.031273 -0.045789 33 36 28
0.078869 0.024258 0.023861 96 109 108
0.057435 -0.033085 -0.003189 109 118 122
0.078366 0.059194 -0.002814 61 76 56
0.034042 -0.026713 0.002261 114 120 139
0.037003 -0.063409 -0.014464 155 164 148
0.098542 -0.033413 -0.007789 98 113 100
