ply
format ascii 1.0
element vertex 1235
property float x
property float y
property float z
property uchar red
property uchar green
property uchar blue
end_header
0.195969 0.068397 0.089816 21 21 23
-0.019901 0.005794 -0.043684 61 54 44
0.004637 0.004404 -0.076084 141 149 151
0.004591 0.004474 -0.076084 162 136 83
0.021391 0.016195 -0.039984 147 134 103
0.004632 0.004481 -0.076084 114 114 88
0.004644 0.004452 -0.076084 224 160 161
0.004533 0.004497 -0.076084 232 233 229
0.204401 0.068829 0.086916 51 51 51
0.004549 0.004508 -0.076084 62 59 46
0.033130 0.002762 -0.029984 35 30 24
0.004639 0.004483 -0.076084 66 56 39
0.012292 -0.003936 -0.025584 25 21 19
0.005372 -0.000351 -0.039684 226 174 160
0.185940 -0.103602 0.100316 109 113 124
0.152047 0.083355 0.064716 104 104 104
-0.678503 -0.319550 0.523816 141 145 144
0.009718 0.015224 -0.042584 81 62 30
0.034352 0.009287 -0.023984 132 116 72
-0.000453 0.007203 -0.054484 196 207 203
0.017938 -0.011972 -0.024184 35 40 49
0.004538 0.004510 -0.076084 27 30 26
0.041371 0.009982 -0.025784 163 148 103
0.130353 0.038980 0.074316 135 137 136
0.164913 0.078292 0.070616 92 92 92
0.004514 0.004473 -0.076084 62 59 52
0.181094 0.054465 0.108216 96 96 100
0.004550 0.004516 -0.076084 54 48 40
0.169306 -0.062175 0.079516 103 108 112
0.006015 0.006449 -0.044084 231 242 238
0.004533 0.004474 -0.076084 61 57 48
0.004525 0.004461 -0.076084 62 59 52
0.210470 0.017931 0.093716 79 80 85
0.089127 0.085028 0.053216 108 110 109
0.003090 0.020677 -0.050284 98 82 56
0.004545 0.004462 -0.076084 73 64 55
0.013827 0.022504 -0.044484 131 135 134
0.004581 0.004479 -0.076084 95 79 56
-0.019390 0.012124 -0.043284 78 70 59
0.009382 0.014826 -0.041784 70 54 25
-0.037646 -0.028432 0.012016 139 141 141
-0.001893 0.003524 -0.044184 239 180 181
0.004728 0.004472 -0.076084 48 49 55
-0.013085 -0.003110 -0.040084 235 139 0
0.207995 -0.097846 0.095716 101 104 113
-0.009633 0.017680 -0.049684 100 88 66
0.044674 0.032397 -0.005384 148 150 149
0.158126 0.021444 0.084216 94 95 93
-0.015103 0.012591 -0.042384 144 130 93
0.199361 -0.004083 0.095016 89 95 102
0.004704 0.004466 -0.076084 117 116 116
-0.549694 -0.226078 0.523816 159 164 160
-0.017555 -0.000692 -0.038184 118 93 50
0.004552 0.004421 -0.076084 96 98 97
0.000739 -0.047478 0.008116 142 150 152
-0.673943 0.342732 0.523816 48 49 44
0.004626 0.004467 -0.076084 216 224 222
-0.545135 -0.182762 0.523816 110 112 109
0.004537 0.004460 -0.076084 73 66 56
0.055581 0.064449 0.052316 140 142 139
0.049475 -0.003637 -0.027384 24 32 31
0.027410 -0.013928 -0.027384 34 35 48
0.028674 -0.022147 -0.029084 15 29 39
0.004706 0.004434 -0.076084 175 166 32
0.004616 0.004475 -0.076084 110 116 110
0.161795 0.082607 0.064816 97 97 97
-0.017854 0.016753 -0.046984 114 103 71
-0.020842 0.002982 -0.044284 90 82 71
0.009567 -0.003061 -0.028684 109 74 10
0.004527 0.004445 -0.076084 64 61 54
0.014117 0.003106 -0.037384 234 178 177
-0.002256 -0.004882 -0.033184 168 60 0
0.209004 0.059335 0.096016 15 16 20
-0.012143 0.015664 -0.046784 118 105 72
0.058828 0.020598 -0.006384 93 95 94
0.004624 0.004496 -0.076084 64 48 22
0.004590 0.004485 -0.076084 88 72 49
0.004517 0.004451 -0.076084 60 57 52
-0.679643 -0.174782 0.523816 84 85 80
0.048050 0.019342 -0.007284 145 142 125
0.004537 0.004466 -0.076084 69 62 52
-0.004566 0.007213 -0.053384 172 173 171
0.008145 0.008511 -0.055784 135 137 123
0.076101 -0.004640 -0.017284 91 94 101
-0.011277 -0.002718 -0.039984 221 117 0
0.004633 0.004469 -0.076084 130 138 121
0.158435 0.094324 0.057916 97 97 97
0.004663 0.004394 -0.076084 42 59 59
0.043579 0.005719 -0.027684 106 86 26
0.000950 -0.002618 -0.030384 173 123 56
0.006006 0.007406 -0.044284 222 234 232
0.162831 0.087297 0.060616 99 99 99
-0.021031 0.013401 -0.043184 73 68 54
-0.018490 0.009886 -0.043584 74 67 57
0.050271 0.031854 -0.006084 118 124 124
0.004673 0.004473 -0.076084 147 123 83
0.004596 0.004462 -0.076084 199 210 206
0.004530 0.004433 -0.076084 83 84 79
0.009757 0.023588 -0.047384 130 134 135
0.032706 -0.005154 -0.027684 34 33 39
0.004531 0.004441 -0.076084 82 79 72
0.208176 0.009506 0.092616 82 82 91
0.004556 0.004512 -0.076084 122 113 85
0.004591 0.004451 -0.076084 205 156 154
0.017093 -0.024007 -0.011684 35 54 57
0.211949 0.064094 0.092816 15 17 19
0.045345 -0.009340 -0.026884 24 39 44
0.036817 0.000041 -0.029984 78 63 2
-0.002985 0.009564 -0.054784 104 103 86
0.038858 -0.018285 -0.027584 8 17 23
-0.016505 0.006535 -0.043684 80 74 68
0.211425 0.057640 0.104716 25 26 30
0.005504 0.001133 -0.039984 218 120 112
-0.020244 0.002474 -0.044884 96 90 78
-0.023561 -0.030303 0.012516 142 148 148
0.004532 0.004389 -0.076084 148 152 150
0.016217 0.018817 -0.042984 128 118 100
0.060315 0.069362 0.051416 141 143 142
-0.005814 0.021545 -0.051784 137 132 103
0.025897 0.003010 -0.029484 53 50 41
0.004577 0.004518 -0.076084 141 134 106
0.191761 0.058169 0.112616 86 86 86
0.039736 0.000060 -0.030184 190 168 77
0.177141 0.075879 0.070816 87 87 87
-0.047628 -0.043099 0.015416 159 165 163
0.033780 -0.021596 -0.028784 7 10 15
0.004545 0.004448 -0.076084 80 72 61
0.153390 0.074394 0.073616 109 111 110
0.003580 0.020836 -0.051384 125 110 83
0.052056 -0.018791 -0.027684 19 32 38
0.004533 0.004485 -0.076084 64 55 49
0.004594 0.004481 -0.076084 173 149 82
0.045593 0.002678 -0.030084 129 107 31
0.204573 0.024949 0.090416 74 75 80
-0.699021 -0.292192 0.523816 114 116 103
-0.066476 -0.050222 0.014816 155 161 162
-0.546275 -0.172502 0.523816 104 106 103
0.048541 0.080459 0.041916 133 137 138
0.004559 0.004413 -0.076084 137 141 140
-0.072963 -0.037621 0.014116 146 147 142
0.032901 -0.024043 -0.029784 35 57 58
0.047344 0.004955 -0.030084 142 130 56
-0.013362 0.010345 -0.043784 109 97 72
0.135287 0.050112 0.078116 133 135 134
0.050584 0.004798 -0.027584 31 34 30
0.045356 -0.015294 -0.026984 22 31 36
0.020615 -0.010623 -0.030384 204 217 231
0.004648 0.004411 -0.076084 62 70 81
0.001471 0.004315 -0.044384 230 171 173
0.004529 0.004489 -0.076084 61 57 46
0.004522 0.004494 -0.076084 67 63 54
0.024485 -0.016397 -0.026584 9 11 20
0.040262 -0.020726 -0.027684 7 10 15
0.027978 0.014414 -0.034484 192 183 147
-0.054498 -0.039811 0.015816 156 162 160
0.154265 0.088683 0.059916 102 102 102
0.165530 0.085926 0.061816 99 99 99
-0.001097 0.016304 -0.050484 73 54 23
0.047168 0.022758 -0.008684 148 150 149
0.004642 0.004416 -0.076084 37 48 49
0.016891 0.017885 -0.041984 124 108 78
0.003706 0.004074 -0.044384 97 90 92
0.005565 -0.035219 0.010016 139 147 149
-0.009871 0.013670 -0.047084 104 88 62
0.006963 -0.050158 0.007316 145 149 148
0.004599 0.004481 -0.076084 111 103 90
-0.018871 0.011021 -0.043484 76 70 58
-0.001976 0.018110 -0.050484 72 55 22
0.021680 -0.000651 -0.034384 145 148 157
0.004529 0.004460 -0.076084 68 63 57
-0.004751 0.020665 -0.051284 128 117 89
0.004643 0.004439 -0.076084 197 160 131
-0.008412 -0.024014 0.009316 191 68 0
0.004515 0.004443 -0.076084 60 57 52
0.036346 -0.024111 -0.029384 33 48 56
0.048551 -0.020182 -0.027484 14 32 39
-0.011336 -0.051466 0.009316 147 153 153
0.004539 0.004471 -0.076084 67 58 49
-0.026421 -0.045720 0.010616 149 157 156
0.011530 0.020970 -0.046584 135 135 133
0.004644 0.004435 -0.076084 145 128 83
0.211879 0.055352 0.103916 61 62 66
-0.002839 0.006262 -0.053884 204 215 211
0.004510 0.004519 -0.076084 28 28 26
0.004636 0.004471 -0.076084 125 125 107
-0.044855 -0.038954 0.015116 158 164 162
0.044643 -0.018425 -0.027284 5 8 13
-0.603270 0.391748 0.523816 66 66 64
0.004569 0.004422 -0.076084 106 108 105
0.004526 0.004404 -0.076084 123 120 104
-0.018875 0.002261 -0.039284 96 85 66
-0.060809 -0.033591 0.013916 153 159 157
-0.017390 0.011436 -0.043284 88 82 66
0.013110 -0.011959 -0.020184 41 47 52
-0.005917 0.002116 -0.046384 209 149 149
0.025500 0.014917 -0.036484 191 181 146
-0.002353 -0.041557 0.008716 143 151 153
0.054345 0.082082 0.041316 130 134 134
-0.045029 -0.040342 0.015116 159 165 163
0.004666 0.004440 -0.076084 56 51 45
0.051619 0.018020 -0.009284 141 143 143
0.013128 -0.031074 -0.011084 144 150 150
0.049291 0.025607 -0.008184 140 144 145
0.004528 0.004448 -0.076084 66 63 56
0.028846 -0.023250 -0.029784 39 58 65
0.004545 0.004443 -0.076084 95 88 78
0.152505 0.090694 0.059016 102 102 102
0.008321 0.007294 -0.044184 213 224 217
0.128155 0.096655 0.054716 106 107 112
0.154604 0.064404 0.085016 86 88 87
0.032460 -0.025013 -0.029784 135 139 142
0.207895 -0.094895 0.092916 101 104 113
0.036079 -0.022741 -0.028984 18 31 37
0.082492 0.081844 0.050816 113 115 114
-0.593010 -0.144005 0.523816 107 109 106
0.004695 0.004465 -0.076084 191 181 145
0.011898 0.016847 -0.043684 86 62 26
0.034159 0.008159 -0.023084 138 117 68
-0.042359 -0.037370 0.014316 155 164 161
0.004625 0.004496 -0.076084 65 49 23
0.192696 0.028176 0.093116 80 81 86
-0.008878 -0.038758 0.010216 142 152 153
-0.672803 0.412266 0.523816 67 69 66
0.004546 0.004510 -0.076084 37 37 34
0.185399 -0.057741 0.076616 99 102 111
0.036830 0.005662 -0.021984 63 59 46
-0.062033 -0.036039 0.014416 153 159 157
0.004575 0.004471 -0.076084 113 101 74
0.052083 -0.002847 -0.027084 20 32 38
0.041020 -0.018797 -0.027284 12 17 23
0.054572 -0.006327 -0.026084 21 32 38
-0.712700 -0.271674 0.523816 128 124 103
-0.037061 -0.047218 0.012916 139 149 148
0.029180 -0.022098 -0.029484 21 32 36
0.177845 0.075330 0.071416 85 85 85
0.131698 0.038957 0.074216 137 139 138
0.016247 0.016203 -0.041384 103 79 43
0.013156 0.013638 -0.041584 92 67 26
-0.009408 0.019693 -0.050284 126 116 89
0.040115 -0.005665 -0.027884 177 173 53
-0.035609 -0.041789 0.014216 127 133 129
-0.013475 -0.030363 0.011816 140 148 150
-0.037909 -0.053194 0.012216 146 151 151
-0.627207 -0.291052 0.523816 133 134 120
0.021986 -0.020745 -0.026184 26 41 46
0.197202 0.072645 0.083516 70 70 70
0.003121 0.021171 -0.051584 133 122 90
0.004540 0.004482 -0.076084 64 57 47
0.132293 0.078010 0.068416 122 124 123
0.136355 0.073506 0.071116 120 122 121
-0.054032 -0.030858 0.012216 167 176 173
0.058165 0.017415 -0.006384 128 133 134
0.030191 0.011332 -0.031884 163 154 121
-0.064671 -0.045154 0.014716 153 159 157
0.184711 -0.050108 0.078016 93 96 104
-0.039629 -0.043709 0.013316 160 169 166
0.021461 -0.022993 -0.025184 31 49 53
0.052774 0.023518 -0.010484 128 132 133
-0.010490 0.016815 -0.047484 84 68 49
0.004680 0.004491 -0.076084 144 148 147
0.078347 0.078661 0.049916 127 127 131
-0.017076 0.015646 -0.046684 132 122 86
0.176749 0.079945 0.067916 94 94 94
0.004535 0.004490 -0.076084 63 56 46
0.004648 0.004442 -0.076084 235 177 177
0.018153 -0.028164 -0.013584 140 149 149
-0.016859 0.015060 -0.046284 138 128 93
-0.014050 0.015927 -0.046684 135 120 88
0.004569 0.004422 -0.076084 109 111 108
-0.001800 0.009999 -0.055584 151 154 144
0.213349 0.057659 0.099116 59 60 64
0.026534 -0.021264 -0.027884 11 13 19
-0.014907 0.000917 -0.039884 67 29 11
-0.016772 0.013297 -0.042384 146 134 98
-0.696741 -0.113228 0.523816 159 163 162
-0.004655 0.001156 -0.045884 219 161 157
0.040111 -0.023632 -0.028384 25 40 46
-0.067154 -0.036410 0.013716 183 187 184
0.021713 -0.005403 -0.032684 97 97 105
-0.014388 -0.001670 -0.040084 187 93 4
0.093498 0.069873 0.059516 121 123 122
0.015720 0.016957 -0.042384 125 106 74
-0.020089 -0.043460 0.009816 148 155 157
0.159951 0.073899 0.075016 104 104 104
0.136761 0.091846 0.058416 109 110 112
0.192524 0.063463 0.105716 30 30 30
-0.017452 0.011874 -0.043284 81 74 58
-0.010143 0.013203 -0.046984 105 91 65
0.043551 -0.011714 -0.026784 26 39 45
-0.002978 -0.025662 0.010316 131 137 135
0.004727 0.004465 -0.076084 110 113 118
0.025325 0.011877 -0.033584 131 117 82
0.004548 0.004514 -0.076084 60 59 54
0.009506 0.006271 -0.043984 234 245 244
0.055904 0.073649 0.049516 136 140 139
0.004542 0.004494 -0.076084 40 32 21
0.000869 -0.040642 0.008816 143 152 151
0.004544 0.004453 -0.076084 69 62 52
-0.012433 -0.028783 0.011616 138 146 148
0.014915 0.024799 -0.044284 134 140 138
0.035601 0.007577 -0.022684 100 92 72
0.096458 0.081018 0.057816 118 120 119
0.208043 0.011492 0.094116 82 82 90
-0.018323 -0.008961 -0.025484 211 123 3
-0.059567 -0.032782 0.013616 153 159 157
0.007905 0.019168 -0.047784 119 100 69
0.007406 0.017375 -0.046184 76 58 22
0.043688 0.007973 -0.027084 126 112 44
0.004514 0.004434 -0.076084 124 127 127
0.004606 0.004484 -0.076084 47 29 25
-0.004340 0.017183 -0.050284 72 60 44
0.033256 -0.002429 -0.030484 219 212 230
0.159162 0.077226 0.070716 102 102 102
0.004575 0.004518 -0.076084 134 127 99
0.194807 0.013036 0.099216 87 90 95
0.045146 -0.005895 -0.026784 132 126 49
0.121237 0.084005 0.061216 111 113 112
-0.013894 0.015609 -0.046484 140 130 94
0.004633 0.004488 -0.076084 73 57 34
0.068068 -0.005660 -0.018484 20 31 37
0.026446 -0.001087 -0.034684 118 121 128
0.158394 0.025538 0.082916 79 84 88
0.007636 0.000996 -0.039984 218 128 120
-0.016762 0.010917 -0.043384 82 75 60
-0.680783 0.360971 0.523816 55 58 55
0.043903 0.004074 -0.029384 157 131 47
0.028999 -0.015014 -0.026984 131 133 142
0.004511 0.004444 -0.076084 61 58 53
0.004695 0.004464 -0.076084 168 158 123
-0.027774 -0.032325 0.012516 101 110 109
0.063812 -0.004299 -0.018784 23 34 40
0.042041 -0.006679 -0.025784 166 157 40
0.038721 -0.008736 -0.027384 76 76 81
0.182162 -0.112566 0.104316 115 118 127
-0.004746 0.019302 -0.050784 84 73 57
0.007460 0.000262 -0.039584 227 162 161
0.061254 0.075785 0.046616 133 134 136
0.046470 0.076928 0.045016 133 137 136
-0.015697 -0.009552 -0.025784 53 38 29
0.006293 0.018895 -0.047684 81 63 28
0.004543 0.004477 -0.076084 65 58 48
-0.020024 0.008696 -0.043684 76 69 61
0.004534 0.004426 -0.076084 100 102 101
-0.001953 0.021192 -0.051484 131 119 87
-0.058138 -0.040538 0.015516 155 161 159
0.042843 -0.008791 -0.026484 15 14 15
0.026899 -0.014709 -0.027284 131 135 146
0.148291 0.076256 0.071016 111 113 112
0.146674 0.061597 0.084016 87 89 88
-0.696741 0.323354 0.523816 47 47 42
0.004639 0.004416 -0.076084 152 174 189
0.040976 -0.012251 -0.026584 24 31 39
-0.019750 0.001148 -0.038584 96 84 70
0.039041 -0.006831 -0.026384 111 104 47
0.004586 0.004463 -0.076084 134 109 51
0.004631 0.004483 -0.076084 92 94 80
0.004538 0.004505 -0.076084 38 40 37
-0.638606 0.371230 0.523816 54 56 53
0.048900 0.021373 -0.008584 143 147 146
-0.005623 0.000549 -0.046084 223 164 161
0.031487 -0.022010 -0.029484 11 14 19
0.047338 -0.016753 -0.027284 19 26 32
-0.001935 0.001261 -0.041384 250 196 195
0.051144 -0.007902 -0.027384 24 37 43
0.017949 -0.030792 -0.013984 142 148 148
0.004731 0.004425 -0.076084 22 32 38
0.012757 -0.004399 -0.025684 28 21 23
0.004536 0.004470 -0.076084 65 58 50
-0.003743 0.020065 -0.051184 115 105 80
-0.017468 -0.003529 -0.038084 144 144 129
0.188958 0.008060 0.100316 90 92 97
0.074197 0.054361 0.042816 144 148 147
0.164176 0.064049 0.085716 96 98 97
0.059183 0.081813 0.042616 130 134 135
0.067080 0.000911 -0.018384 21 33 39
0.004544 0.004430 -0.076084 92 89 90
0.044208 -0.013028 -0.026784 23 34 40
0.004595 0.004484 -0.076084 139 111 35
-0.034090 -0.046534 0.012316 85 89 85
0.129164 0.038603 0.073916 134 136 135
0.016394 -0.022621 -0.011484 23 34 42
0.007590 0.022443 -0.049184 129 133 132
0.004531 0.004399 -0.076084 150 154 153
0.130133 0.078644 0.067516 121 123 122
-0.003993 -0.026426 0.010616 130 139 138
0.034302 -0.027006 -0.028084 135 139 142
0.071819 -0.007938 -0.018084 73 81 83
0.050984 0.024884 -0.009284 136 140 141
0.140927 0.075768 0.070016 117 119 118
0.139133 0.064870 0.083016 89 91 90
0.001373 0.010170 -0.056084 148 152 148
0.004532 0.004512 -0.076084 48 48 46
0.004518 0.004446 -0.076084 61 58 53
0.149374 0.089041 0.060916 104 104 104
0.009163 0.019527 -0.046984 121 102 72
-0.009477 0.015810 -0.046984 85 67 49
0.031135 -0.015211 -0.026484 30 35 41
-0.024640 -0.050730 0.010716 148 157 156
0.187915 0.049322 0.111616 50 50 52
0.025305 0.002101 -0.030784 44 37 30
0.199458 0.000151 0.094816 87 90 95
0.004533 0.004501 -0.076084 43 46 42
-0.657985 -0.359446 0.523816 144 147 146
-0.071931 -0.049578 0.014316 152 159 156
-0.614669 -0.294472 0.523816 159 165 160
0.004521 0.004444 -0.076084 62 59 55
0.060283 0.079299 0.044016 130 134 135
0.004408 0.001812 -0.040784 255 195 193
-0.003700 0.016986 -0.050284 72 59 40
-0.062131 -0.035479 0.014316 154 159 157
0.026899 -0.018146 -0.027284 14 21 28
-0.011864 0.014694 -0.046684 139 132 91
0.065121 -0.006916 -0.018784 22 33 39
0.162453 0.074913 0.074116 100 100 100
-0.667104 0.368950 0.523816 55 58 52
-0.054324 -0.039462 0.015816 156 162 160
0.023203 -0.022585 -0.026984 22 31 36
0.012112 0.001131 -0.036684 238 180 178
0.036066 -0.001862 -0.030184 177 164 43
-0.016130 0.013040 -0.042384 145 133 95
0.069709 -0.013303 -0.018584 93 98 102
0.004699 0.004489 -0.076084 84 89 90
0.105534 0.079993 0.061516 121 123 123
0.004597 0.004476 -0.076084 143 146 135
-0.629487 -0.175922 0.523816 156 158 155
0.002976 -0.046216 0.008416 142 150 152
0.162722 -0.113748 0.110516 126 129 136
0.004526 0.004482 -0.076084 62 58 49
0.012902 -0.005223 -0.025384 118 114 111
-0.008737 -0.049192 0.009316 144 152 154
0.125031 0.072435 0.070616 125 127 126
0.038143 -0.026992 -0.027684 130 135 138
0.080084 0.083264 0.049616 106 108 107
0.002905 0.001570 -0.040284 255 189 190
-0.011164 0.019421 -0.049984 134 128 96
-0.017170 0.001756 -0.039084 208 194 156
0.039173 0.006170 -0.022184 60 54 42
0.004546 0.004442 -0.076084 97 90 80
0.101454 0.068097 0.064716 128 130 129
-0.010062 0.019116 -0.050084 129 120 91
-0.015827 0.010027 -0.043484 78 70 57
-0.017131 -0.002240 -0.045084 98 84 75
0.023168 -0.016170 -0.025284 21 25 33
0.014629 0.004506 -0.037684 218 160 159
0.004550 0.004520 -0.076084 52 48 38
0.004544 0.004481 -0.076084 66 60 48
0.004531 0.004498 -0.076084 173 172 166
0.028369 -0.011905 -0.027884 106 116 127
0.004552 0.004486 -0.076084 85 72 54
0.004546 0.004487 -0.076084 61 53 40
0.018128 -0.007085 -0.028084 52 53 53
0.022367 -0.003110 -0.032084 34 38 45
0.038763 0.005965 -0.022184 58 52 42
0.041879 0.008307 -0.026384 138 123 30
0.049753 -0.009385 -0.027384 33 47 52
0.164708 -0.099419 0.105916 118 121 130
-0.017140 0.011561 -0.043284 79 72 56
0.004597 0.004495 -0.076084 72 57 34
0.004563 0.004500 -0.076084 117 102 76
-0.003913 0.017722 -0.050384 73 60 43
0.004617 0.004471 -0.076084 154 160 157
0.138024 0.066149 0.082416 89 91 90
-0.061934 -0.036773 0.014516 155 161 159
0.016661 -0.011251 -0.023284 41 42 47
0.016255 0.002295 -0.037384 116 73 19
0.037343 0.000041 -0.029984 123 107 19
0.004576 0.004464 -0.076084 96 84 62
0.023711 -0.009512 -0.030884 198 208 219
0.004529 0.004432 -0.076084 97 99 94
0.068390 -0.011904 -0.018884 88 96 103
0.002271 0.006297 -0.044584 90 92 97
-0.020003 0.004561 -0.043384 64 57 47
0.012762 0.016599 -0.043184 89 65 25
0.004534 0.004444 -0.076084 74 70 61
-0.067538 -0.034604 0.012716 143 147 137
-0.017767 0.014979 -0.045184 136 121 87
0.050563 0.084673 0.040216 129 133 134
0.060599 0.075843 0.046716 132 133 136
0.002557 0.020075 -0.050384 89 75 42
0.034579 0.010520 -0.025284 139 128 96
-0.003123 -0.046156 0.008316 144 152 154
0.017321 -0.027577 -0.012384 137 149 149
0.083041 0.063193 0.053316 140 144 145
0.041017 -0.016031 -0.026784 22 30 35
0.004727 0.004441 -0.076084 24 36 39
0.009225 0.004435 -0.041484 233 173 173
0.004589 0.004435 -0.076084 160 62 1
-0.016127 0.012164 -0.042284 130 118 87
0.008620 0.004041 -0.041584 241 179 182
0.004576 0.004466 -0.076084 99 86 68
-0.066345 -0.039571 0.015316 154 160 158
-0.002980 -0.002248 -0.032784 130 34 0
0.004528 0.004471 -0.076084 62 56 52
0.020262 -0.017750 -0.024984 13 20 29
0.038119 -0.008959 -0.027584 31 34 41
0.004530 0.004486 -0.076084 59 55 44
0.046651 0.024228 -0.008484 148 150 149
0.164911 0.091787 0.059516 102 102 102
0.004543 0.004506 -0.076084 38 38 36
0.004638 0.004387 -0.076084 143 148 152
0.175750 0.031730 0.093216 87 91 94
-0.070888 -0.042045 0.014716 153 159 157
0.014432 0.005234 -0.037884 167 108 104
0.010274 0.018219 -0.046084 123 103 69
0.003393 0.001797 -0.040584 255 200 195
0.005959 0.021114 -0.049984 104 92 68
0.004672 0.004448 -0.076084 81 67 40
0.004627 0.004482 -0.076084 132 133 126
0.067655 0.078706 0.046816 132 133 135
0.004521 0.004501 -0.076084 85 87 84
0.042770 -0.019589 -0.027184 17 31 34
-0.001448 0.009255 -0.055584 160 166 162
0.029149 0.004881 -0.028684 68 62 49
0.086313 0.062044 0.054616 140 144 145
-0.012063 0.017216 -0.047684 106 92 66
0.024606 -0.000451 -0.035384 21 28 48
0.042368 -0.001226 -0.030384 132 110 15
-0.003704 0.001722 -0.045784 245 187 189
-0.498399 -0.175922 0.523816 96 98 97
-0.002176 0.003709 -0.044284 238 179 181
0.164344 0.080892 0.066616 96 96 96
0.034951 -0.002110 -0.030284 137 134 86
0.114123 0.064879 0.074016 131 136 135
-0.477881 -0.183901 0.523816 99 101 100
0.004535 0.004396 -0.076084 149 153 152
0.038800 -0.021378 -0.028184 2 5 10
-0.007446 0.020635 -0.050584 123 115 88
0.004627 0.004436 -0.076084 140 166 76
0.007704 0.022767 -0.049084 131 135 134
0.004540 0.004428 -0.076084 86 88 85
-0.024509 -0.041538 0.010816 148 156 159
-0.074679 -0.037621 0.014116 139 139 128
0.004516 0.004492 -0.076084 56 53 46
-0.024575 -0.035469 0.012016 144 153 152
0.004583 0.004494 -0.076084 67 54 38
-0.013863 0.009024 -0.043984 100 88 67
0.184170 0.066871 0.089116 90 90 90
0.019406 -0.006741 -0.028384 41 39 46
0.139522 0.084312 0.063116 110 111 113
0.101332 0.087775 0.056816 106 108 107
-0.004137 0.007200 -0.053484 196 202 201
0.004547 0.004435 -0.076084 102 98 89
0.020415 -0.016101 -0.024484 103 105 119
0.042201 0.007067 -0.026584 147 131 61
-0.001708 -0.041718 0.008716 143 151 153
0.004638 0.004485 -0.076084 71 58 37
0.004625 0.004447 -0.076084 178 158 160
0.102910 0.095312 0.054216 99 101 100
0.085285 0.085119 0.051416 106 108 107
0.025218 -0.018892 -0.027084 15 23 26
0.004526 0.004474 -0.076084 61 57 48
-0.058418 -0.039445 0.015416 155 161 159
-0.013793 0.005913 -0.043784 141 134 92
0.004571 0.004431 -0.076084 79 60 63
0.175079 -0.092520 0.096116 111 115 126
0.004636 0.004469 -0.076084 130 131 111
0.010494 0.021025 -0.046984 138 136 131
0.042998 -0.006966 -0.025784 144 136 54
0.004533 0.004508 -0.076084 35 35 33
0.173851 0.080722 0.067316 92 92 92
0.182406 -0.071593 0.078816 99 103 112
-0.003144 0.002512 -0.045484 239 183 184
0.056538 0.020343 -0.007484 128 132 133
0.040820 0.010448 -0.025884 163 147 109
0.113569 0.074528 0.066916 127 129 126
-0.669384 0.402007 0.523816 69 71 68
0.202978 0.036330 0.092016 74 75 80
-0.000474 0.004436 -0.044684 219 236 225
-0.003852 0.020713 -0.051284 123 114 85
0.008955 0.006883 -0.043984 218 231 224
0.204341 -0.087526 0.088916 99 102 111
0.014191 0.002959 -0.037384 235 179 180
0.033758 -0.001521 -0.030784 197 201 204
0.004712 0.004393 -0.076084 52 66 70
0.023861 -0.007800 -0.032684 107 111 126
0.037562 0.008386 -0.024084 110 100 79
-0.700161 0.357551 0.523816 56 56 54
0.004538 0.004392 -0.076084 150 156 156
0.136751 0.095813 0.057116 112 114 115
0.001438 0.021218 -0.051584 134 124 89
0.004539 0.004424 -0.076084 95 97 94
0.040388 0.009129 -0.025684 88 73 38
0.131281 0.025554 0.068516 175 177 183
0.206544 0.039661 0.094216 66 67 72
-0.005142 0.019676 -0.050884 93 82 60
0.004640 0.004390 -0.076084 144 150 150
0.013827 0.022564 -0.044484 131 135 134
0.026992 -0.018054 -0.027284 18 24 28
0.006811 0.001202 -0.039984 216 122 110
0.046036 0.005135 -0.029784 134 112 32
0.200467 0.042231 0.098616 77 78 83
0.004511 0.004429 -0.076084 162 164 161
0.004543 0.004502 -0.076084 51 51 45
-0.012901 0.016901 -0.047284 109 95 67
0.053228 0.085869 0.039716 127 131 132
0.045885 0.021091 -0.008684 151 148 146
-0.573632 -0.088150 0.523816 89 88 83
0.046579 -0.011802 -0.027084 22 37 42
0.010153 0.009708 -0.052684 102 99 76
-0.003291 -0.003466 -0.032884 163 55 2
0.010932 0.016525 -0.043884 85 64 26
0.004656 0.004441 -0.076084 143 125 71
-0.007234 -0.043824 0.009016 144 152 154
0.104865 0.080145 0.061316 122 124 120
0.092620 0.091235 0.052216 105 106 108
0.009947 -0.012420 -0.023084 104 132 145
0.028870 -0.018830 -0.027984 18 25 31
0.004745 -0.040095 0.009316 142 151 150
0.043048 0.030411 -0.006384 148 150 149
-0.000229 0.018828 -0.050684 66 51 12
0.060746 0.077389 0.045016 132 133 135
0.011149 0.021473 -0.046784 134 136 133
0.004662 0.004443 -0.076084 52 38 16
-0.008073 -0.023981 0.009216 182 77 0
0.023914 -0.011632 -0.029984 71 78 95
-0.008779 -0.011214 -0.026584 49 48 43
0.142300 0.089376 0.060616 104 105 107
0.084400 0.090947 0.050016 105 107 106
0.005407 0.018381 -0.048384 74 59 25
0.009683 0.016546 -0.044784 81 58 24
0.045582 0.001051 -0.030584 118 98 23
0.004531 0.004403 -0.076084 124 125 111
-0.021031 0.013464 -0.043184 76 67 55
0.015324 0.008866 -0.049084 141 119 44
0.005999 0.003575 -0.041384 245 185 186
-0.015483 0.012100 -0.042284 135 119 87
-0.013910 0.014582 -0.046184 154 145 106
-0.004112 0.021427 -0.051484 123 118 86
-0.019548 -0.032286 0.012016 143 151 153
0.004541 0.004465 -0.076084 71 62 53
0.018017 -0.001221 -0.031784 130 128 121
-0.052576 -0.042433 0.015816 156 165 162
-0.001300 -0.036108 0.009816 142 149 151
-0.053561 -0.036620 0.015716 155 161 159
0.005368 0.019536 -0.049784 106 92 64
0.021456 0.017120 -0.040284 148 148 142
0.020816 0.013882 -0.039884 185 173 136
0.031361 -0.017915 -0.027784 18 22 27
0.202014 0.016653 0.098516 84 87 92
-0.006352 0.002919 -0.046584 209 158 151
0.004543 0.004472 -0.076084 65 58 48
0.004675 0.004417 -0.076084 93 102 118
0.004706 0.004465 -0.076084 129 131 129
-0.003535 0.016442 -0.050184 74 57 31
0.004536 0.004447 -0.076084 70 63 55
0.000167 0.010467 -0.055984 129 122 116
0.137933 0.069774 0.076116 108 110 109
0.014367 0.013401 -0.041484 94 64 32
0.004618 0.004482 -0.076084 63 55 51
-0.001526 0.005754 -0.053884 221 232 228
0.004620 0.004486 -0.076084 48 28 27
0.093895 0.088547 0.053716 105 107 106
0.020104 -0.020861 -0.025184 27 46 50
-0.020750 0.010854 -0.043384 70 63 53
-0.014295 -0.023165 0.010216 156 190 207
0.004734 0.004411 -0.076084 53 58 64
0.011423 0.016954 -0.043884 85 61 23
-0.021353 -0.052054 0.010216 150 154 155
0.004517 0.004474 -0.076084 61 58 51
0.004576 0.004454 -0.076084 144 130 93
0.044328 -0.016229 -0.026984 22 29 35
0.198197 0.023315 0.095716 81 82 87
0.004550 0.004502 -0.076084 88 77 55
-0.700161 -0.141725 0.523816 88 88 86
0.004615 0.004483 -0.076084 53 34 34
0.011982 0.016513 -0.043584 86 62 28
0.004541 0.004466 -0.076084 72 63 54
-0.025926 -0.044565 0.010616 148 157 156
-0.670524 0.409986 0.523816 69 71 68
0.004711 0.004393 -0.076084 45 61 66
-0.659125 -0.381104 0.523816 143 147 146
0.004539 0.004400 -0.076084 151 157 155
0.004579 0.004453 -0.076084 140 114 48
-0.004909 0.006844 -0.053184 59 55 65
-0.029313 -0.030330 0.013016 103 110 104
-0.002974 -0.005186 -0.033284 192 84 0
-0.676223 0.337033 0.523816 49 50 45
0.004544 0.004461 -0.076084 72 63 54
0.004526 0.004481 -0.076084 63 59 50
0.003173 0.021568 -0.051684 131 120 91
0.004581 0.004463 -0.076084 98 80 55
-0.550834 -0.214679 0.523816 125 127 124
0.003442 0.003636 -0.043784 115 101 104
-0.062599 -0.037037 0.014716 154 160 158
0.041459 -0.004944 -0.028284 210 202 94
-0.017732 0.006283 -0.043784 86 74 64
0.045025 -0.018842 -0.027384 8 10 15
-0.699021 -0.377684 0.523816 139 143 142
0.005368 0.019887 -0.049784 105 88 63
0.040086 -0.000464 -0.030184 144 111 49
-0.043007 -0.025728 0.007316 129 133 132
-0.021129 -0.048648 0.010016 146 154 156
0.008404 0.020519 -0.047684 110 95 69
0.203625 0.035861 0.091216 71 72 77
0.004565 0.004484 -0.076084 156 142 108
-0.045802 -0.024266 0.007216 127 132 132
-0.026647 -0.037505 0.011716 137 146 145
-0.017143 -0.008352 -0.025984 178 79 0
0.187769 0.066505 0.089816 79 79 79
-0.047571 -0.044612 0.015316 159 165 165
-0.044852 -0.024741 0.007216 131 133 132
0.172803 -0.069808 0.080016 101 105 115
0.198653 0.074115 0.082716 56 56 56
0.004525 0.004445 -0.076084 63 60 53
0.076111 -0.001517 -0.017184 88 91 98
0.004579 0.004453 -0.076084 139 113 46
0.004578 0.004521 -0.076084 147 142 113
0.000440 0.021614 -0.051484 134 124 89
0.004669 0.004412 -0.076084 37 41 51
0.216602 0.051536 0.097416 62 63 67
0.004512 0.004447 -0.076084 61 58 53
0.198028 0.031971 0.092716 76 77 82
0.004620 0.004484 -0.076084 115 114 110
-0.005777 -0.050946 0.009016 146 151 155
0.004557 0.004424 -0.076084 93 95 94
-0.018371 0.000951 -0.045084 104 96 85
-0.001374 0.006896 -0.054284 167 176 173
-0.010104 0.019900 -0.050184 134 123 95
-0.007035 -0.010400 -0.026784 62 74 74
0.024978 0.013792 -0.034784 165 155 120
0.000876 0.010590 -0.056084 111 104 100
0.014533 0.009020 -0.049684 150 130 68
-0.001077 0.002968 -0.043984 242 186 189
-0.060364 -0.042127 0.015216 154 161 158
0.004513 0.004461 -0.076084 61 58 53
-0.006059 0.000191 -0.045984 229 165 161
0.133725 0.041701 0.074916 135 137 136
0.004735 0.004410 -0.076084 96 101 105
-0.072612 -0.040244 0.014916 164 170 168
0.025529 0.002694 -0.030484 43 39 30
0.018831 -0.012238 -0.024884 189 195 204
0.010524 0.001890 -0.039984 240 179 179
0.004638 0.004407 -0.076084 139 148 147
-0.027153 -0.052447 0.010816 148 154 154
0.148093 0.031714 0.069116 170 174 182
0.004511 0.004468 -0.076084 63 60 55
0.181893 0.066037 0.091116 93 93 93
-0.002394 0.021545 -0.051584 121 110 78
-0.022184 0.004685 -0.043384 71 62 53
0.159724 0.091336 0.058816 100 100 100
0.004585 0.004448 -0.076084 57 62 28
0.004625 0.004470 -0.076084 198 209 205
0.014645 0.018040 -0.043784 121 102 72
0.212939 0.043268 0.094416 61 62 66
0.172873 -0.104437 0.103916 117 120 129
0.004533 0.004402 -0.076084 148 149 144
-0.017457 0.013840 -0.043184 148 135 101
0.004585 0.004482 -0.076084 92 74 49
0.162722 -0.114457 0.110516 126 132 138
0.004726 0.004475 -0.076084 78 79 81
0.004575 0.004445 -0.076084 138 111 54
0.160356 0.088621 0.059816 98 98 98
0.004566 0.004425 -0.076084 129 130 126
0.002657 -0.049527 0.008316 145 149 150
0.004656 0.004504 -0.076084 136 136 133
-0.020363 0.002355 -0.044884 98 90 82
0.035401 -0.022046 -0.028784 12 17 21
-0.009539 0.014112 -0.047084 100 83 58
0.006711 -0.011653 -0.023284 100 137 163
-0.019271 0.008129 -0.043784 76 69 59
-0.052094 -0.025836 0.007616 120 122 121
0.045470 -0.016982 -0.027184 16 23 28
0.004543 0.004514 -0.076084 28 28 26
0.004590 0.004455 -0.076084 211 213 220
0.153068 0.069827 0.081116 87 89 88
0.011195 -0.008661 -0.022784 44 47 59
0.199695 0.066762 0.092216 22 22 24
0.167776 0.066201 0.084116 95 95 95
0.015843 -0.009372 -0.022384 20 20 28
0.021659 -0.015963 -0.024584 192 199 209
0.073514 0.061937 0.051616 143 147 146
0.190907 0.013511 0.108916 127 131 135
0.213158 -0.110789 0.099516 100 103 112
0.004562 0.004500 -0.076084 113 102 74
0.064670 -0.002152 -0.018484 23 34 40
0.053323 0.021495 -0.010584 93 97 98
0.004555 0.004414 -0.076084 119 123 122
0.025420 -0.001756 -0.033884 74 77 85
-0.509798 -0.171363 0.523816 95 97 96
0.004520 0.004428 -0.076084 142 148 147
-0.655705 -0.368565 0.523816 143 147 146
0.044979 0.002236 -0.029984 108 83 7
-0.030878 -0.034440 0.013116 108 116 91
0.008264 0.015862 -0.045184 77 61 28
0.079845 0.083264 0.049616 107 109 108
0.170621 -0.068452 0.084216 48 53 59
0.015165 -0.029504 -0.011484 142 149 149
0.003574 0.019711 -0.050084 100 82 52
0.052076 -0.006255 -0.027284 23 34 40
0.004544 0.004516 -0.076084 30 30 28
-0.045841 -0.044104 0.015016 160 166 164
0.014565 0.013269 -0.041484 95 66 34
0.004538 0.004454 -0.076084 72 66 55
0.004561 0.004520 -0.076084 137 130 101
0.004628 0.004485 -0.076084 105 107 94
0.004581 0.004467 -0.076084 96 82 54
-0.703581 0.407707 0.523816 39 39 37
0.033997 -0.019504 -0.028284 9 10 15
0.201018 0.013002 0.098516 83 87 92
0.017394 -0.012035 -0.023984 35 39 48
0.004550 0.004519 -0.076084 51 49 36
-0.026291 -0.050070 0.010716 150 159 158
0.004628 0.004477 -0.076084 175 179 165
0.015534 -0.022866 -0.011484 23 41 46
0.073907 -0.011884 -0.018184 92 95 102
-0.001209 -0.007111 -0.031184 168 68 0
0.009506 0.019058 -0.046584 121 105 72
0.004601 0.004489 -0.076084 137 117 42
0.032308 0.001633 -0.030184 37 32 28
0.011024 0.018125 -0.045784 123 104 70
0.020847 -0.031011 -0.016784 141 147 147
0.181981 -0.074415 0.082116 32 35 44
-0.011365 -0.003034 -0.039784 238 137 0
0.160983 0.097126 0.057916 101 101 103
0.025765 0.014028 -0.034784 165 155 120
0.162314 0.064160 0.086016 98 100 99
0.007620 0.008583 -0.056184 126 128 116
0.004530 0.004473 -0.076084 61 57 48
-0.505238 -0.180482 0.523816 98 100 99
0.004546 0.004481 -0.076084 67 59 48
-0.021170 0.014811 -0.043484 65 57 46
0.035006 -0.015778 -0.026484 9 15 22
0.004540 0.004430 -0.076084 88 90 87
0.173326 0.064658 0.090816 63 63 64
0.006114 0.004304 -0.041784 242 181 185
0.038547 -0.004944 -0.028284 181 171 68
-0.635187 0.396308 0.523816 57 59 56
0.004578 0.004418 -0.076084 125 124 122
0.158851 0.064935 0.085616 92 94 93
0.033415 -0.015562 -0.026784 11 17 22
0.158383 -0.116166 0.110416 125 130 134
-0.015702 -0.001815 -0.043284 199 214 212
0.173145 0.074868 0.072216 89 89 89
0.046766 -0.006019 -0.027084 16 21 11
0.004526 0.004447 -0.076084 65 62 55
0.004514 0.004438 -0.076084 64 61 57
0.028094 -0.011905 -0.027884 94 105 114
0.010575 0.006861 -0.050684 159 162 136
0.004703 0.004466 -0.076084 118 115 113
0.051986 -0.003857 -0.027184 19 31 36
0.013862 0.001574 -0.036584 224 172 159
0.004571 0.004419 -0.076084 121 123 122
0.007600 0.006754 -0.044084 220 231 226
0.054808 0.019575 -0.008584 135 139 140
0.004570 0.004429 -0.076084 50 53 53
0.063697 0.003223 -0.018684 26 34 42
0.051515 -0.015133 -0.027384 31 45 49
0.176228 -0.078105 0.084616 33 37 46
0.060285 0.020045 -0.005884 94 98 99
-0.053974 -0.038588 0.015816 156 162 160
-0.048846 -0.027072 0.007516 134 138 137
0.037224 0.006683 -0.022184 70 61 52
0.036051 -0.007249 -0.027784 51 51 45
0.188307 0.032896 0.094416 80 81 86
0.004519 0.004497 -0.076084 59 55 46
0.144832 0.079331 0.068316 111 113 112
0.193130 -0.105115 0.099516 106 109 118
0.004620 0.004469 -0.076084 198 208 207
0.206561 0.025889 0.087916 71 72 77
-0.027957 -0.030160 0.013016 101 106 105
-0.049312 -0.050877 0.015616 161 167 165
0.179454 0.081486 0.067216 96 96 96
0.004530 0.004480 -0.076084 62 58 49
0.200315 0.051224 0.115016 25 24 29
-0.606689 -0.230637 0.523816 198 198 191
0.035102 -0.018054 -0.027684 13 23 26
0.004587 0.004426 -0.076084 168 64 0
-0.051352 -0.040510 0.015816 158 164 162
0.004682 0.004485 -0.076084 148 150 147
0.046717 0.023685 -0.008584 148 150 149
0.017716 -0.010391 -0.023484 75 78 88
-0.037643 -0.028862 0.012716 143 145 142
0.004525 0.004503 -0.076084 58 58 56
0.027211 0.012319 -0.033384 146 139 102
0.004624 0.004490 -0.076084 86 69 26
0.004517 0.004496 -0.076084 54 50 41
0.042501 -0.015226 -0.026684 22 31 38
0.175667 0.026850 0.092816 88 91 96
-0.003408 0.021614 -0.051484 121 110 78
-0.713840 0.318794 0.523816 53 50 45
0.058470 -0.006042 -0.022684 22 33 39
-0.018208 -0.029102 0.012016 138 148 149
0.004586 0.004440 -0.076084 121 33 0
0.004634 0.004476 -0.076084 139 139 123
0.032019 -0.022453 -0.029484 8 11 16
-0.003263 -0.000870 -0.032584 94 57 47
0.141910 0.090883 0.059716 110 111 113
-0.009802 0.020136 -0.050284 130 120 93
0.080474 0.064635 0.052716 141 145 144
0.004570 0.004519 -0.076084 139 132 103
0.009804 0.019221 -0.046484 125 104 77
0.145273 0.070796 0.077816 99 101 100
0.041114 0.007236 -0.023384 51 39 17
-0.001390 0.017476 -0.050484 72 56 20
0.071378 -0.004406 -0.018084 22 33 39
0.172179 -0.106479 0.105016 117 121 130
0.002663 0.020747 -0.050484 106 92 65
0.134479 0.036371 0.072816 139 140 142
0.004696 0.004432 -0.076084 192 181 106
-0.056852 -0.038401 0.015416 154 160 158
0.022639 -0.017063 -0.025684 10 13 18
0.024788 -0.010319 -0.030784 53 60 84
0.004576 0.004495 -0.076084 89 74 55
-0.001005 0.008453 -0.055484 200 211 207
0.006508 0.005721 -0.043984 227 238 237
0.023520 0.000944 -0.035384 106 103 93
0.004674 0.004444 -0.076084 44 36 30
0.032437 -0.000506 -0.031384 154 158 161
0.003797 0.017777 -0.049284 72 54 25
0.067917 0.074632 0.048716 136 137 139
0.109789 0.087037 0.058916 111 113 112
-0.002898 -0.039334 0.009416 142 150 152
-0.020252 0.014718 -0.043384 65 56 41
0.002939 -0.027469 0.010316 133 142 141
0.000256 0.017859 -0.050684 63 48 17
0.015633 -0.003282 -0.028984 156 154 151
-0.004600 -0.036577 0.010116 142 150 152
0.032083 -0.015855 -0.026984 11 16 20
0.049753 -0.012352 -0.027384 21 42 44
-0.070006 -0.055606 0.015116 154 158 157
0.004643 0.004435 -0.076084 150 124 43
0.011868 0.022489 -0.046584 134 138 137
-0.031658 -0.041802 0.011316 103 97 75
0.017571 -0.001370 -0.031284 70 67 63
0.049474 -0.008763 -0.027284 30 48 52
0.004529 0.004510 -0.076084 55 55 53
0.004662 0.004420 -0.076084 152 160 173
0.042368 -0.000878 -0.030384 125 99 11
0.004588 0.004450 -0.076084 32 23 41
-0.581611 -0.187321 0.523816 133 135 131
0.004546 0.004427 -0.076084 86 88 87
0.004526 0.004442 -0.076084 66 63 58
0.142896 0.085221 0.063316 111 112 114
0.000493 -0.025522 0.009916 132 138 136
0.032813 -0.003063 -0.029784 107 105 45
-0.008073 -0.048155 0.009216 144 152 154
0.174858 0.081378 0.067016 94 94 94
0.010919 0.019320 -0.046284 119 101 72
0.014203 -0.000051 -0.034784 173 144 77
0.004516 0.004498 -0.076084 58 55 48
0.004626 0.004438 -0.076084 208 137 97
0.177153 0.081760 0.066216 95 95 95
-0.055591 -0.043377 0.015616 156 162 160
0.009139 0.006638 -0.043984 232 243 237
0.006264 0.022277 -0.049884 126 126 120
0.004548 0.004518 -0.076084 45 47 36
0.004511 0.004495 -0.076084 57 54 47
0.004584 0.004491 -0.076084 72 59 43
-0.014122 -0.032161 0.011716 141 151 152
0.054156 -0.009837 -0.026784 19 32 40
0.026993 -0.025733 -0.027484 134 139 142
-0.622648 -0.230637 0.523816 196 196 195
-0.685342 -0.240896 0.523816 136 129 101
0.004587 0.004461 -0.076084 24 16 37
0.004642 0.004462 -0.076084 151 159 123
-0.618088 0.395168 0.523816 61 60 58
0.004543 0.004500 -0.076084 88 84 79
0.004657 0.004456 -0.076084 232 234 234
-0.017318 0.014376 -0.043484 153 139 101
0.004557 0.004510 -0.076084 120 113 85
0.011239 0.016204 -0.043584 82 61 25
0.019590 -0.000809 -0.033084 125 127 124
-0.004589 0.018973 -0.050684 78 68 49
0.095045 0.073998 0.059516 127 129 128
0.004576 0.004447 -0.076084 136 113 47
-0.001774 0.019699 -0.051084 123 112 85
0.027081 -0.011769 -0.028284 68 75 87
-0.062007 -0.046824 0.014616 154 160 160
0.043929 -0.006401 -0.026184 138 126 49
0.112228 0.088844 0.058116 114 116 115
0.004542 0.004389 -0.076084 151 158 155
-0.022596 -0.051921 0.010516 149 155 155
0.004634 0.004487 -0.076084 68 57 38
0.153161 0.036352 0.075416 90 91 96
0.145817 0.034578 0.069616 125 128 134
0.004528 0.004456 -0.076084 68 63 57
0.002214 0.017379 -0.050384 67 52 22
0.043048 0.001182 -0.029984 117 88 8
-0.055177 -0.050120 0.015516 160 166 163
-0.006577 0.017430 -0.049884 80 71 54
0.072488 -0.002652 -0.017984 16 30 36
0.008324 0.022449 -0.047884 130 134 133
0.003851 0.018288 -0.049384 67 52 19
-0.017840 0.001719 -0.045084 102 93 81
0.004171 0.020838 -0.050184 101 88 62
0.004674 0.004437 -0.076084 149 155 164
0.074458 -0.011553 -0.018184 92 95 102
0.004510 0.004459 -0.076084 61 58 53
-0.644306 0.360971 0.523816 52 54 51
0.167129 0.093137 0.059216 102 102 102
-0.006417 0.021336 -0.051884 146 139 110
0.022663 -0.005178 -0.032584 29 29 39
-0.048034 -0.054127 0.015516 162 168 166
0.182211 0.034693 0.095416 85 86 91
0.004641 0.004417 -0.076084 92 97 108
0.018301 0.012663 -0.040684 96 68 29
0.005700 0.019063 -0.048984 110 94 61
0.075606 -0.008557 -0.017784 91 94 101
0.004628 0.004476 -0.076084 183 189 174
0.000855 0.003588 -0.044284 240 183 184
0.200751 0.049260 0.102816 70 71 76
0.007295 0.007059 -0.044084 218 230 228
0.004640 0.004461 -0.076084 226 236 229
0.010140 -0.006140 -0.022184 15 13 15
0.076529 0.087689 0.048016 105 107 106
-0.021691 0.003263 -0.043684 88 78 70
0.004641 0.004409 -0.076084 138 146 144
0.004533 0.004521 -0.076084 66 66 64
0.053175 0.023431 -0.010784 88 92 93
0.004547 0.004470 -0.076084 65 58 48
0.192812 -0.084991 0.091216 102 106 117
-0.070978 -0.050447 0.014616 154 158 157
-0.001690 0.007244 -0.054484 180 191 185
-0.048337 -0.024741 0.007216 124 128 127
0.071930 -0.006613 -0.018084 27 36 41
0.162469 0.083745 0.063516 96 96 96
0.025714 -0.000746 -0.034884 82 86 98
0.035726 -0.012609 -0.026084 110 116 128
0.004682 0.004453 -0.076084 74 66 51
0.004586 0.004462 -0.076084 133 109 47
-0.001343 -0.045876 0.008116 145 153 155
0.004529 0.004482 -0.076084 60 56 47
-0.009549 -0.050978 0.009316 145 153 155
-0.013993 0.016039 -0.046684 132 116 84
0.004516 0.004442 -0.076084 61 58 53
0.004600 0.004430 -0.076084 198 87 0
-0.022432 -0.050439 0.010516 149 155 155
-0.013966 0.002825 -0.040884 128 113 62
0.035315 -0.018191 -0.027784 20 23 28
0.154336 0.088350 0.060216 102 102 102
0.004517 0.004432 -0.076084 128 132 131
0.004589 0.004447 -0.076084 148 145 98
0.008431 0.018669 -0.047484 122 103 70
0.043449 0.006190 -0.027384 117 101 52
0.001588 0.017134 -0.050484 57 41 17
0.004532 0.004456 -0.076084 69 65 55
0.004527 0.004485 -0.076084 62 58 49
0.014836 0.015905 -0.041684 85 62 29
-0.002470 0.021098 -0.051484 129 118 86
0.031871 0.001459 -0.030184 35 29 27
0.061572 0.069170 0.051516 141 146 145
0.014698 -0.009941 -0.021384 42 42 50
0.060665 0.062450 0.052216 139 141 138
0.070374 -0.009631 -0.018384 75 83 89
0.014526 -0.013442 -0.021184 22 25 31
-0.011886 0.018131 -0.049784 132 124 95
0.043250 0.006101 -0.027284 123 101 53
-0.697881 -0.188461 0.523816 90 91 86
0.004521 0.004506 -0.076084 54 56 53
0.148105 0.070753 0.077716 101 103 102
0.004583 0.004443 -0.076084 41 11 4
-0.020348 0.005675 -0.043584 66 57 48
0.036502 -0.025567 -0.028484 68 85 87
0.041749 0.006403 -0.026684 141 122 63
-0.015884 -0.004634 -0.037384 145 146 134
0.004640 0.004434 -0.076084 127 94 20
0.006689 -0.040963 0.009116 142 150 152
0.011239 0.016832 -0.043884 86 62 24
0.004652 0.004402 -0.076084 34 56 56
0.052071 -0.014670 -0.027384 28 43 48
-0.019964 0.000362 -0.038584 98 88 77
0.023224 -0.000397 -0.035184 187 196 205
0.185704 0.023183 0.097516 86 89 94
0.009955 0.017645 -0.045284 85 64 25
0.050956 -0.001215 -0.027484 31 33 26
0.017889 -0.025583 -0.011984 36 53 58
-0.000507 -0.026940 0.010216 130 140 139
0.019420 -0.014145 -0.024184 73 79 90
0.031489 -0.016895 -0.027384 20 28 34
-0.018902 0.008560 -0.043784 73 66 58
0.180675 0.060737 0.100416 82 82 82
0.004546 0.004497 -0.076084 93 81 61
-0.014365 0.017987 -0.047884 113 101 73
0.004548 0.004494 -0.076084 100 89 67
0.004537 0.004485 -0.076084 66 58 47
0.004555 0.004516 -0.076084 103 95 76
0.004595 0.004427 -0.076084 221 108 17
0.012168 0.024092 -0.046284 130 134 133
0.004619 0.004470 -0.076084 177 186 185
0.024659 -0.010697 -0.030684 110 117 136
0.154641 0.062511 0.085716 91 93 92
0.004631 0.004465 -0.076084 200 210 202
0.004629 0.004427 -0.076084 110 54 21
0.026215 0.012606 -0.033584 132 121 89
-0.025596 -0.044730 0.010616 148 156 157
0.203565 0.067703 0.088016 47 47 47
0.053400 -0.006249 -0.026884 21 32 38
0.091934 0.075259 0.057516 127 129 128
0.004564 0.018904 -0.049184 78 59 26
0.004537 0.004506 -0.076084 31 33 30
-0.014347 0.009668 -0.043784 73 66 52
0.004541 0.004494 -0.076084 55 47 36
0.189649 0.018431 0.100016 89 89 93
-0.018102 0.007945 -0.043784 82 75 67
-0.002798 -0.003219 -0.032884 148 44 0
0.004572 0.004420 -0.076084 121 123 122
-0.001511 0.020018 -0.051184 131 120 87
0.026969 -0.002237 -0.034884 51 60 66
0.077013 0.070830 0.050516 136 140 138
0.004633 0.004470 -0.076084 136 142 122
0.002522 0.021615 -0.051684 133 122 90
0.004537 0.004427 -0.076084 90 92 89
0.020976 -0.018051 -0.025184 14 22 28
-0.014956 -0.042153 0.009516 147 155 157
0.022568 -0.017838 -0.025884 17 22 28
0.052701 -0.018883 -0.027684 34 42 49
0.004544 0.004442 -0.076084 93 90 78
0.039276 0.006273 -0.022184 60 54 42
0.004545 0.004428 -0.076084 85 88 88
0.168201 0.095305 0.058616 104 104 104
0.004524 0.004500 -0.076084 60 60 57
0.041541 -0.013099 -0.026584 22 33 39
0.127722 0.095079 0.055316 106 107 109
-0.018747 0.010711 -0.043484 78 72 60
0.062332 0.086700 0.041216 119 123 124
0.176314 0.064335 0.094416 101 101 101
0.145889 0.062134 0.083816 87 89 88
0.004571 0.004517 -0.076084 139 132 103
0.004677 0.004452 -0.076084 108 77 18
0.004547 0.004520 -0.076084 47 50 41
0.044034 -0.015615 -0.026884 22 31 36
0.004548 0.004492 -0.076084 100 89 69
0.004645 0.004449 -0.076084 233 174 177
0.021795 -0.001008 -0.034684 42 47 59
0.016632 -0.036311 -0.012184 143 149 149
0.011653 -0.008043 -0.022384 126 129 132
0.004544 0.004399 -0.076084 152 158 156
-0.050478 -0.039112 0.015816 158 164 162
-0.016977 -0.005457 -0.038184 145 146 141
0.015776 0.007338 -0.047384 211 206 184
0.137099 0.064605 0.083116 93 95 94
0.133543 0.035218 0.072716 137 138 138
0.043225 0.028566 -0.007484 147 149 148
0.029659 0.002305 -0.029584 34 29 23
0.026623 -0.025733 -0.027484 135 142 145
-0.011668 -0.001721 -0.040184 162 61 0
-0.010552 0.017323 -0.049484 106 97 67
-0.018464 0.001219 -0.038584 185 170 130
0.004529 0.004442 -0.076084 71 68 61
-0.013666 0.000021 -0.039884 101 36 0
0.003271 0.017828 -0.049984 70 51 22
0.004548 0.004435 -0.076084 102 98 89
0.002214 0.016595 -0.050384 67 53 22
-0.021757 -0.032831 0.012116 142 151 150
0.213277 0.056808 0.099616 62 63 67
0.004552 0.004414 -0.076084 141 146 142
-0.030480 -0.036857 0.012116 116 125 115
0.036183 0.001615 -0.029884 34 24 15
0.049010 -0.012572 -0.027284 26 41 48
0.023975 -0.018706 -0.026684 17 27 29
0.018140 0.007054 -0.046884 102 62 12
0.009512 0.017210 -0.045484 85 65 28
0.004629 0.004419 -0.076084 100 130 151
0.040460 -0.006547 -0.026384 156 152 39
0.017706 0.006823 -0.046984 94 61 19
-0.007107 0.021451 -0.051984 146 142 113
0.004565 0.004511 -0.076084 135 128 99
0.004554 0.004508 -0.076084 103 93 68
0.071157 -0.004185 -0.018084 20 31 37
-0.018141 -0.036887 0.011116 144 154 155
-0.016821 0.009468 -0.043484 85 78 68
0.004548 0.004512 -0.076084 59 58 55
0.004626 0.004461 -0.076084 225 235 236
0.038585 0.001413 -0.029484 60 49 0
0.004599 0.004480 -0.076084 127 125 110
-0.006200 0.002173 -0.046384 189 129 128
0.045629 0.024297 -0.008684 148 150 149
0.049939 -0.016204 -0.027484 20 29 35
0.016294 0.007578 -0.047184 70 49 15
0.004549 0.004429 -0.076084 96 95 91
0.146585 0.058824 0.083916 92 94 93
0.082164 0.091520 0.049116 105 105 104
0.119265 0.090360 0.056516 107 109 108
0.004514 0.004428 -0.076084 162 170 167
-0.020283 0.000050 -0.044984 104 97 87
0.001491 0.016841 -0.050484 67 52 23
-0.005882 0.002237 -0.046484 210 150 148
0.004587 0.004446 -0.076084 143 151 85
-0.670524 -0.256855 0.523816 131 125 101
0.038143 -0.018422 -0.027684 14 21 27
0.164303 0.085577 0.062116 95 95 95
-0.656845 0.379209 0.523816 57 59 56
0.004543 0.004473 -0.076084 65 58 48
0.004554 0.004427 -0.076084 95 97 94
0.004663 0.004428 -0.076084 25 26 30
0.004694 0.004471 -0.076084 134 128 100
0.004751 0.004446 -0.076084 84 87 94
0.004592 0.004427 -0.076084 162 48 2
0.205890 0.064782 0.089416 46 47 49
0.012108 -0.012921 -0.022784 62 66 75
0.010767 0.016316 -0.043784 83 61 24
0.197023 0.073382 0.083116 63 63 63
0.199563 -0.081197 0.087016 99 102 111
0.004665 0.004501 -0.076084 135 137 134
0.036992 -0.000222 -0.029984 117 103 39
0.004531 0.004518 -0.076084 67 67 65
0.177094 -0.110673 0.105116 116 119 128
0.052439 0.023258 -0.010084 130 134 135
-0.014372 0.017132 -0.047384 115 100 69
0.004554 0.004484 -0.076084 88 77 55
0.004589 0.004490 -0.076084 71 58 41
0.005835 0.005231 -0.043984 235 244 243
0.004675 0.004418 -0.076084 152 159 176
0.005397 -0.038947 0.009616 142 151 150
0.187351 -0.103051 0.099416 107 111 122
-0.021159 -0.050349 0.010116 149 155 155
0.004728 0.004473 -0.076084 27 32 34
-0.027993 -0.029520 0.013116 98 104 102
-0.580472 -0.082450 0.523816 90 89 83
-0.007127 -0.006886 -0.032384 179 129 86
0.004635 0.004391 -0.076084 144 150 150
-0.000865 -0.007204 -0.030484 179 79 8
0.050677 -0.020870 -0.027584 28 41 49
-0.025507 -0.039807 0.011316 145 154 153
0.004729 0.004436 -0.076084 22 33 39
-0.019558 -0.004566 -0.037984 113 114 115
0.112884 0.088390 0.058616 113 115 114
0.015523 0.006752 -0.047184 216 219 204
-0.020153 0.012210 -0.043184 76 68 57
-0.015431 -0.000905 -0.039684 88 36 11
0.004076 0.017664 -0.047884 68 53 23
0.004526 0.004476 -0.076084 60 56 47
0.004513 0.004498 -0.076084 58 55 48
0.012692 0.001364 -0.036784 243 184 182
0.183538 0.021813 0.097016 86 89 94
0.004565 0.004446 -0.076084 91 81 70
-0.017666 0.000709 -0.038484 187 175 129
0.036835 -0.000913 -0.030084 132 122 12
0.135929 0.082948 0.063516 113 114 115
0.051515 -0.010498 -0.027384 27 44 46
0.017541 -0.005848 -0.027884 77 79 90
0.043807 -0.019075 -0.027284 9 13 21
0.052460 -0.003704 -0.026984 21 32 38
0.155660 0.061048 0.086816 94 96 95
0.004533 0.004410 -0.076084 151 149 135
