ply
format ascii 1.0
element vertex 1221
property float x
property float y
property float z
property uchar red
property uchar green
property uchar blue
end_header
-0.210535 0.048903 -0.035383 90 28 13
-0.023499 0.030729 -0.224183 74 77 68
0.161654 0.078432 -0.034983 101 101 100
-0.009180 0.070440 -0.131183 144 145 146
0.179833 0.053095 -0.004883 58 60 59
0.082131 -0.121450 0.128117 115 116 120
-0.232854 -0.070055 0.039217 105 105 105
0.045832 0.114008 -0.092483 117 115 111
0.076222 0.086824 -0.069383 63 65 60
0.143142 -0.139225 0.160817 101 102 104
-0.119233 -0.105622 0.080717 121 122 124
-0.016967 0.088648 -0.138283 104 103 103
0.016833 0.026630 -0.015783 162 162 166
-0.148398 0.094104 -0.064383 104 104 96
-0.011364 0.083548 -0.132983 101 103 102
0.148537 -0.004529 0.168117 29 20 11
0.232749 0.041747 0.001717 87 91 92
0.077597 -0.180872 0.135817 118 119 123
0.138485 -0.014747 0.172717 56 58 57
-0.147552 0.092614 -0.060283 114 114 106
-0.045409 -0.044877 0.069817 155 147 110
-0.170131 -0.003678 -0.006983 43 47 37
-0.237447 -0.005408 -0.003983 96 96 96
-0.222630 0.021365 -0.029883 99 50 43
-0.147261 0.052403 -0.026383 142 143 135
0.208190 0.076870 -0.022983 11 11 11
0.210347 0.079280 -0.024083 10 10 12
-0.092395 0.062883 -0.081583 88 91 82
0.240097 0.050320 -0.003283 84 85 87
-0.215095 0.066533 -0.029283 80 25 14
-0.040498 0.078655 -0.149083 116 119 124
-0.081382 0.023209 -0.008483 155 151 139
-0.178202 0.098609 -0.070683 101 101 93
-0.721406 -0.340051 0.375717 85 85 85
0.217675 0.019803 0.033317 86 92 92
0.322654 0.000930 0.093817 82 82 84
-0.023516 0.061131 -0.113583 163 167 170
-0.098554 0.109890 -0.093083 119 120 112
0.089715 0.062524 -0.072983 135 134 129
0.038341 0.039974 -0.048183 185 188 185
-0.183239 0.033477 -0.034983 135 125 99
0.027145 0.100459 -0.091583 96 94 76
0.167162 -0.035641 0.175917 50 52 49
-0.155648 0.061695 -0.022183 111 109 108
-0.054642 0.047412 -0.079383 169 173 174
-0.023487 0.030688 -0.224183 173 182 176
0.108839 0.105758 -0.069783 132 131 127
-0.239719 -0.123437 0.045917 104 104 104
-0.040724 0.068597 -0.136283 157 161 164
0.086147 0.121064 -0.092783 132 131 129
-0.019043 0.047713 -0.066383 190 194 197
-0.152669 0.044186 -0.025583 138 139 134
-0.013724 0.016743 0.035617 158 156 144
0.152790 0.027595 0.036517 61 65 64
0.328400 -0.019940 0.112017 87 88 88
-0.060372 -0.006204 0.044517 67 70 64
0.338311 -0.135858 0.181117 96 96 98
-0.029139 -0.029092 0.066417 85 87 76
-0.072842 0.058817 -0.108383 171 172 174
-0.181441 0.061889 -0.034983 140 132 124
-0.172357 -0.031298 0.006717 102 104 97
0.164941 0.105950 -0.071183 103 102 100
0.368851 -0.255925 0.219117 100 99 104
0.296752 -0.233068 0.216117 92 92 94
0.242672 -0.038970 0.117617 81 88 86
-0.090312 0.051457 -0.083683 88 91 83
0.248698 0.009735 0.064117 57 61 60
-0.214133 0.049193 -0.036083 86 27 13
0.417689 -0.077147 0.151017 88 88 90
0.129087 0.103105 -0.063283 122 121 116
-0.043436 0.080993 -0.150883 119 124 126
-0.267301 -0.039054 0.013717 93 93 93
0.427951 -0.201730 0.197217 94 93 98
-0.107405 -0.002769 0.012917 72 75 64
-0.203495 0.050348 -0.031783 88 29 13
0.324377 -0.103882 0.173117 95 95 97
-0.023503 0.030714 -0.224183 73 79 69
-0.206674 0.016148 -0.018783 93 46 39
-0.201580 0.042344 -0.031083 89 31 14
-0.101404 0.072902 -0.070783 66 69 60
0.047173 -0.107266 0.111517 117 118 122
-0.049597 0.073005 -0.145783 148 150 148
-0.184523 0.018639 -0.014583 64 65 60
-0.023574 0.030745 -0.224183 92 93 87
-0.226438 0.035762 -0.043283 72 28 21
-0.023510 0.030701 -0.224183 64 67 56
0.363696 -0.090263 0.175517 95 95 97
0.104351 0.063839 -0.059283 103 98 88
-0.235397 -0.083632 0.040517 108 108 108
-0.054124 0.051786 -0.090083 177 181 182
-0.159962 -0.163316 0.078517 124 124 124
-0.122355 -0.121929 0.083217 119 120 122
-0.011024 -0.016404 0.077117 70 73 66
-0.119247 -0.119882 0.082617 121 122 124
-0.103547 0.105092 -0.085283 121 121 111
-0.153998 0.104176 -0.082983 117 117 109
-0.166536 0.104297 -0.081183 113 113 105
-0.175921 -0.123919 0.061017 117 118 120
-0.041205 0.050467 -0.081183 178 182 183
0.064264 0.041199 -0.060383 177 178 180
0.037073 0.051369 -0.080583 149 150 155
-0.182023 0.104352 -0.075583 104 103 98
-0.035977 0.017237 0.026417 150 148 135
-0.062707 0.069328 -0.133383 83 89 79
0.106215 -0.062050 0.153417 98 99 101
0.149162 0.080361 -0.034483 116 115 111
-0.032724 0.066803 -0.130983 155 159 162
0.050071 0.074883 -0.095583 117 117 119
-0.178238 0.015082 -0.009483 11 11 10
0.192892 -0.057715 0.159517 52 58 54
-0.086942 -0.044911 0.053517 159 144 107
0.304238 -0.246158 0.218317 89 89 91
0.054237 0.037415 -0.053683 173 174 176
0.163337 0.045095 0.007217 65 67 66
-0.033497 0.066322 -0.130383 154 158 161
0.299231 -0.194499 0.201717 94 94 96
0.272657 -0.256634 0.217617 88 88 90
0.332268 -0.155210 0.183017 97 97 99
0.166622 0.097634 -0.055483 102 101 99
0.042434 0.055778 -0.089183 169 170 174
0.144788 0.017682 0.083517 59 61 58
0.419554 -0.086085 0.156917 87 86 91
-0.140844 -0.033473 0.035017 158 146 109
-0.114852 0.098532 -0.074083 120 120 110
-0.113012 -0.072984 0.073517 123 125 124
0.466304 -0.223786 0.200617 97 96 103
0.071485 0.102250 -0.070383 85 80 72
-0.264827 -0.078855 0.037517 99 99 99
0.029266 0.108441 -0.092583 88 85 76
-0.219420 0.003617 -0.005883 96 96 96
-0.209600 -0.123664 0.045417 106 106 110
0.138083 0.115127 -0.085283 113 108 107
-0.041524 0.070071 -0.139583 157 157 161
-0.216926 0.061379 -0.033683 105 66 59
0.444918 -0.142358 0.162917 89 88 93
-0.024220 -0.097406 0.087517 119 120 122
-0.722546 -0.272797 0.375717 86 86 86
-0.288842 -0.144727 0.044717 96 96 96
-0.020960 0.089413 -0.140683 94 96 93
0.249787 -0.225844 0.205417 88 88 90
0.070983 -0.110100 0.121617 112 113 117
0.036531 -0.072877 0.105617 110 111 115
-0.237586 -0.140313 0.045817 104 104 104
-0.041237 0.055018 -0.103183 158 162 165
0.232339 -0.155342 0.181617 86 87 89
0.000291 -0.070066 0.098617 113 114 116
0.121552 -0.008018 0.165717 57 52 53
0.221285 -0.047097 0.150517 75 77 76
-0.224010 0.013513 -0.010283 90 88 86
0.003547 0.077802 -0.125383 119 120 122
0.056979 0.110873 -0.087583 127 126 121
-0.023570 0.030693 -0.224183 71 71 69
0.379230 -0.145144 0.181217 97 97 99
-0.161560 0.122731 -0.092183 104 105 99
-0.132221 0.093707 -0.065383 117 117 105
0.002234 -0.074168 0.099917 112 113 114
-0.113525 0.030222 -0.026983 161 155 139
0.138571 0.115818 -0.087983 110 109 107
0.459362 -0.203943 0.189817 94 93 98
-0.177152 0.003628 -0.018583 48 49 42
0.129004 -0.077599 0.160217 91 93 92
-0.206480 0.075655 -0.023283 43 31 26
-0.037810 0.079518 -0.148183 116 119 124
-0.182066 0.025338 -0.026583 111 103 93
0.102425 0.114155 -0.085583 126 125 123
0.083578 0.090907 -0.063183 70 70 60
0.021585 0.033955 -0.027883 184 185 186
0.158768 -0.060719 0.179217 39 41 38
0.285811 -0.072162 0.156317 90 90 92
-0.282392 -0.106618 0.040217 98 98 98
-0.260347 -0.123898 0.041417 99 99 99
-0.050773 0.068350 -0.135683 59 60 62
0.071077 0.085882 -0.071983 56 58 53
0.035858 0.090258 -0.094583 65 66 58
0.010616 0.065979 -0.117983 142 143 147
-0.054426 -0.088008 0.081617 121 122 124
-0.011090 -0.073951 0.090017 114 115 117
-0.060725 0.058648 -0.109083 180 181 183
-0.720266 -0.308134 0.375717 87 87 87
0.397498 -0.072978 0.154017 88 88 90
-0.148137 0.070353 -0.024983 106 100 80
-0.209060 0.055356 -0.029783 109 75 61
-0.023570 0.030742 -0.224183 96 97 91
-0.164449 0.111556 -0.088183 107 106 102
0.002359 0.004027 0.066617 131 127 103
0.446707 -0.160629 0.168717 90 89 94
0.080555 0.105416 -0.074583 126 125 120
0.303230 -0.000180 0.099117 84 83 87
0.039129 0.047761 -0.068683 170 171 173
-0.127664 -0.080923 0.076617 118 119 121
0.054743 0.064206 -0.091383 113 114 116
0.146291 0.067163 -0.010383 53 54 54
-0.068612 0.048378 -0.080483 170 173 174
-0.739645 -0.057356 0.375717 75 75 75
0.307442 0.021526 0.055417 68 68 70
0.160093 -0.227958 0.168917 106 104 107
-0.041448 0.069611 -0.139183 159 163 166
-0.148418 0.103379 -0.081383 109 109 101
0.045690 -0.017219 0.120017 100 103 100
-0.171848 -0.064333 0.045717 118 120 119
0.095797 -0.158792 0.143417 117 118 122
-0.056986 0.072506 -0.142683 74 75 67
-0.692909 -0.237460 0.375717 91 91 91
-0.148135 0.019570 -0.001283 133 119 80
0.404592 -0.058777 0.131817 86 86 88
-0.156237 0.089942 -0.052683 111 111 103
-0.023574 0.030695 -0.224183 69 69 70
-0.023563 0.030647 -0.224183 92 92 92
0.051229 -0.169348 0.118417 118 119 123
0.260720 -0.062815 0.162517 86 86 88
0.316626 -0.067551 0.160917 92 92 94
-0.174871 0.041994 -0.036883 108 107 98
-0.105112 0.058301 -0.067583 73 76 67
0.166937 0.100692 -0.061783 105 104 102
-0.168167 0.123661 -0.090483 100 101 95
-0.278619 -0.090942 0.038917 96 96 96
-0.063038 0.048239 -0.083783 175 180 181
-0.045347 0.060019 -0.116883 152 156 159
0.160391 0.093920 -0.048883 115 114 110
-0.045577 0.077176 -0.151183 122 126 123
-0.020264 -0.024222 0.069917 78 81 70
-0.163875 0.031790 -0.013883 145 137 98
-0.704308 -0.268237 0.375717 87 87 87
-0.127266 0.018487 0.003117 68 71 62
-0.103947 -0.107724 0.077717 120 121 123
0.166248 0.082816 -0.038583 105 105 103
0.326155 -0.129960 0.176017 96 96 98
-0.038954 0.070858 -0.141283 153 157 160
-0.082380 -0.053156 0.067517 122 126 113
0.102879 0.091256 -0.055383 115 112 109
0.192635 0.049191 -0.006683 58 60 59
-0.146003 0.012113 0.001817 144 132 92
0.138078 -0.067296 0.171717 82 84 83
0.186873 0.019326 0.044617 94 101 106
0.324946 -0.034585 0.121917 89 89 91
0.009444 0.116994 -0.102083 84 81 74
-0.161419 0.095158 -0.064783 120 116 107
0.189715 0.031538 0.030317 99 105 106
-0.146767 0.105830 -0.085383 112 112 104
-0.207527 0.079707 -0.036983 90 81 75
0.372597 -0.091771 0.173017 91 91 93
-0.166266 -0.007604 -0.003383 97 96 91
-0.251739 -0.120185 0.040217 101 101 99
-0.145979 0.100021 -0.075783 111 111 103
0.020997 0.068461 -0.114283 118 118 117
0.219435 -0.053885 0.155417 73 75 74
-0.001604 0.067087 -0.124883 144 145 148
0.201856 -0.006549 0.080817 59 65 66
-0.129440 0.014028 0.005017 69 72 63
0.093934 0.057861 -0.070083 101 100 97
-0.040283 0.064187 -0.125083 149 153 156
-0.177222 -0.122513 0.059417 118 119 121
-0.127200 0.093052 -0.062383 116 116 104
-0.111795 -0.013752 0.013817 98 96 73
-0.098220 -0.013835 0.016717 81 85 68
-0.183789 0.033474 -0.035183 136 122 94
-0.042797 0.077059 -0.149583 137 141 144
-0.056604 -0.043119 0.065117 154 145 111
-0.021609 0.084892 -0.141283 101 102 103
-0.192323 -0.135637 0.040817 113 112 113
0.403436 -0.093321 0.166017 89 88 93
-0.101864 0.113998 -0.098183 107 108 102
-0.257885 -0.115109 0.039217 100 100 101
-0.241810 0.003152 -0.005483 91 90 92
-0.176587 0.006745 -0.015083 105 105 98
-0.141785 0.055584 -0.027983 145 145 134
-0.047737 0.074195 -0.147883 142 146 147
0.136583 0.107171 -0.070483 119 113 112
0.201885 0.070881 -0.020383 26 25 26
-0.101428 0.115918 -0.098883 108 109 103
-0.097842 0.107221 -0.090783 127 127 118
0.001741 0.061905 -0.118783 157 158 164
-0.068668 0.021827 0.006117 157 154 139
-0.034280 0.083400 -0.147583 103 106 110
-0.213424 0.088846 -0.047083 98 93 87
0.119972 0.114111 -0.083883 120 119 117
0.043209 0.117578 -0.096083 136 137 132
0.161572 0.057631 -0.005283 11 11 15
-0.139643 -0.005028 0.007117 60 64 51
-0.109537 0.096991 -0.072383 128 128 116
0.125272 0.085814 -0.043783 121 120 117
-0.084867 -0.073795 0.074217 121 123 122
0.071212 0.111075 -0.084983 137 136 132
0.275350 -0.117106 0.176217 94 94 96
0.341305 -0.113649 0.179317 97 97 99
-0.199073 -0.006655 0.001017 101 101 98
-0.211600 -0.035592 0.015917 105 105 105
-0.010642 0.084359 -0.132783 99 101 100
0.042030 0.119006 -0.096483 144 145 140
-0.209133 0.045345 -0.034983 84 26 10
-0.169809 0.090399 -0.055083 112 108 99
0.114798 0.114721 -0.086383 125 124 122
-0.015743 0.083972 -0.137383 99 100 102
-0.212074 0.076990 -0.030483 60 50 48
0.179015 0.089064 -0.045383 99 98 94
-0.175247 0.050370 -0.035083 147 148 142
-0.023566 0.030661 -0.224183 84 84 84
-0.081311 -0.052658 0.067717 133 134 121
0.152761 -0.009654 0.091517 56 61 56
-0.147882 0.077630 -0.032383 125 118 100
-0.155221 -0.015109 0.013817 157 145 105
0.078247 0.122423 -0.092983 130 129 127
0.086762 0.050386 -0.073483 154 156 154
0.030377 -0.161108 0.114217 117 118 122
0.163311 0.072117 -0.005683 58 58 58
-0.041411 0.072241 -0.144383 149 149 153
-0.062804 0.060938 -0.114283 183 184 186
-0.023483 0.030689 -0.224183 175 179 179
0.224767 -0.098560 0.168417 65 69 70
0.031891 0.093368 -0.095783 67 70 60
-0.129759 -0.064356 0.071317 120 122 121
-0.015404 0.077256 -0.137283 108 109 111
-0.023404 0.030688 -0.224183 29 31 31
0.172374 0.100649 -0.061883 102 101 99
0.197857 -0.042843 0.158017 63 65 62
0.170074 0.096232 -0.053283 102 101 99
0.300739 -0.188686 0.192217 95 95 97
0.223243 -0.052987 0.154617 74 76 75
0.004651 -0.124741 0.106617 117 118 119
0.018882 0.114012 -0.098883 84 81 73
0.140534 0.044671 0.015017 61 63 62
0.086146 0.096923 -0.061183 81 78 68
0.085110 0.111497 -0.082383 136 135 131
0.447959 -0.213406 0.200817 98 97 102
0.373242 -0.251840 0.219317 100 99 104
0.037560 0.116050 -0.096183 124 125 120
-0.020427 0.072084 -0.139083 126 127 132
0.038596 0.060978 -0.099483 139 140 144
-0.041427 0.070782 -0.140783 156 160 163
-0.003831 0.082932 -0.128383 89 90 92
-0.012768 0.085178 -0.134583 100 102 101
0.384399 -0.057557 0.137917 88 88 90
0.003520 0.030220 -0.026283 178 177 179
0.023369 -0.086039 0.105617 111 112 114
-0.035529 -0.134873 0.088917 115 116 120
-0.056299 0.073822 -0.143983 68 73 65
0.020685 -0.051149 0.109017 106 107 109
-0.242605 -0.140609 0.040717 101 101 101
0.275385 -0.083769 0.166317 91 91 93
-0.023564 0.030659 -0.224183 88 88 88
0.047598 0.114186 -0.093383 121 120 115
0.325183 -0.048856 0.142217 92 92 94
0.312753 -0.202481 0.191417 99 99 101
0.061332 0.068254 -0.087683 127 128 130
-0.102452 -0.022816 0.033517 150 138 99
0.417705 -0.110463 0.164217 96 94 100
-0.122940 -0.163890 0.090617 122 123 125
-0.213102 0.081241 -0.039183 89 79 70
-0.167886 -0.009922 -0.002183 102 104 99
-0.045312 -0.038980 0.068517 152 142 106
-0.132293 0.040117 -0.031583 152 153 139
-0.058453 0.065951 -0.128483 171 172 175
0.083121 0.096087 -0.062483 86 83 73
-0.017110 0.061869 -0.122183 175 179 179
0.383400 -0.103683 0.170317 93 93 95
-0.223289 0.011274 -0.007983 93 90 91
0.017116 -0.134403 0.110917 120 121 125
0.202400 0.045681 -0.009583 59 61 60
0.052253 -0.182118 0.120117 117 118 122
-0.061495 -0.050216 0.068917 160 151 111
-0.247456 -0.084305 0.034117 103 103 101
-0.214339 0.029888 -0.036583 88 30 17
0.020394 0.062922 -0.110983 155 156 160
0.397131 -0.234859 0.220517 100 100 100
-0.134973 0.120413 -0.097583 99 100 95
0.255163 -0.000299 0.076417 65 73 70
-0.002424 -0.144156 0.104117 118 119 121
-0.144623 0.104933 -0.083583 110 110 102
-0.094039 0.060523 -0.079883 84 87 78
0.054805 -0.072147 0.111417 111 112 116
0.139696 0.085604 -0.039883 119 118 114
-0.022846 0.056950 -0.105883 133 139 141
-0.085191 0.052038 -0.088483 168 170 170
-0.010179 0.076762 -0.131983 117 118 122
0.373992 -0.210609 0.211817 100 102 104
-0.003221 0.086202 -0.128083 98 99 101
0.148663 0.113093 -0.082883 103 102 100
-0.121919 0.031342 -0.028183 151 144 126
-0.037335 0.055769 -0.105083 164 168 171
-0.232884 -0.062009 0.034917 103 103 103
-0.116913 0.084966 -0.055983 122 124 111
0.136239 0.016233 0.117817 45 46 41
0.075895 0.113912 -0.087283 135 134 130
-0.113346 0.109280 -0.093683 113 114 107
-0.080305 0.044810 -0.074883 179 183 181
0.007974 0.071259 -0.121983 129 130 136
-0.059744 -0.073803 0.077517 118 119 121
-0.013748 0.062325 -0.119383 136 137 141
-0.059325 0.062989 -0.117183 179 180 182
-0.080959 0.040283 -0.070083 175 179 178
0.031683 -0.068791 0.106617 111 112 114
0.386402 -0.157162 0.182217 97 97 99
-0.109780 -0.149431 0.086317 119 120 122
-0.043852 0.056736 -0.102683 158 163 163
-0.039640 0.069116 -0.138483 160 167 169
0.434145 -0.242231 0.210717 98 98 100
0.062936 0.051887 -0.076983 170 171 175
0.067988 -0.125052 0.122717 114 115 119
0.158317 -0.102550 0.178217 45 50 46
0.189612 0.003826 0.075017 57 62 62
0.133166 -0.212882 0.165117 114 116 117
-0.023572 0.030697 -0.224183 69 69 67
0.076099 0.099436 -0.066783 83 79 71
-0.172745 0.068359 -0.027483 140 141 135
0.437204 -0.254554 0.214417 99 99 101
0.157783 0.031529 0.027617 66 68 67
-0.169856 -0.101062 0.060817 117 118 120
-0.023567 0.030734 -0.224183 98 97 92
-0.119957 0.031342 -0.028383 155 150 131
-0.023570 0.030752 -0.224183 96 97 92
-0.218025 0.029899 -0.039183 84 25 16
-0.071997 -0.056641 0.071817 122 124 123
0.026474 -0.049393 0.109617 108 109 111
-0.191822 -0.135634 0.041617 112 113 115
0.044380 -0.176778 0.116717 119 120 124
-0.004849 0.033839 -0.034883 182 183 184
0.169919 -0.105084 0.172217 31 36 30
0.282884 -0.112747 0.166417 93 93 95
0.172988 -0.187009 0.167817 99 99 101
0.142579 0.110880 -0.077083 113 109 103
-0.062302 0.056022 -0.102783 182 186 189
-0.048131 0.057329 -0.102083 179 181 182
-0.173033 0.092108 -0.058283 107 103 94
-0.159560 -0.031745 0.024217 154 146 107
0.167999 -0.011188 0.085117 92 98 98
-0.037706 0.074161 -0.146383 126 127 131
0.407318 -0.146117 0.173017 94 93 98
0.169412 0.008211 0.077217 81 87 87
-0.208578 0.080998 -0.038783 93 84 75
0.005133 0.061559 -0.104583 163 167 170
-0.023568 0.030730 -0.224183 98 97 94
0.150252 0.109331 -0.075783 110 111 108
0.030989 0.057398 -0.096183 160 161 165
-0.009256 0.077088 -0.131683 113 114 116
-0.158834 0.001182 -0.003183 118 111 95
0.059473 0.057237 -0.085583 137 138 142
0.360513 -0.149003 0.190117 97 97 99
0.308856 0.019316 0.057517 69 69 71
-0.188336 0.067255 -0.029383 52 22 20
0.141346 -0.178905 0.165217 110 111 115
-0.132082 -0.075071 0.074617 120 122 121
-0.023500 0.030732 -0.224183 71 74 65
-0.130881 0.119209 -0.097583 105 106 101
0.265197 -0.083382 0.172717 88 88 90
0.308071 -0.082532 0.164617 94 94 96
-0.118634 0.076848 -0.052883 96 97 83
0.046669 0.114911 -0.094183 121 120 115
-0.086369 0.031322 -0.034283 61 61 54
0.045253 0.076719 -0.098583 95 98 98
-0.139131 0.035474 -0.026783 81 78 59
0.389502 -0.151263 0.177717 98 98 100
-0.012502 0.053179 -0.092383 187 191 194
0.141765 0.109293 -0.074783 115 111 108
-0.045787 0.027762 -0.011683 83 89 75
-0.067271 -0.082591 0.078017 119 120 122
-0.138473 -0.011237 0.007417 77 76 55
-0.093294 -0.091663 0.076317 117 119 118
-0.010574 0.050577 -0.087883 188 192 195
0.127725 0.086902 -0.042483 126 125 121
0.297957 -0.201947 0.206517 96 96 98
-0.023560 0.030627 -0.224183 93 93 91
0.128883 0.008294 0.165517 35 24 16
0.143493 0.111225 -0.078483 110 106 105
-0.197904 -0.005131 -0.000483 103 103 101
-0.058880 -0.003689 0.044817 68 71 62
-0.093144 0.029020 -0.017383 155 147 132
-0.033052 0.072557 -0.143183 135 139 141
-0.221370 0.010808 -0.007383 95 89 92
-0.023570 0.030683 -0.224183 104 44 28
0.436459 -0.251087 0.212917 98 98 100
-0.039805 0.079720 -0.148983 110 113 120
-0.113230 -0.060739 0.070517 124 126 125
-0.022413 -0.158452 0.096617 114 115 119
-0.161337 -0.034525 0.024017 157 145 106
-0.056125 0.064188 -0.126183 170 175 178
0.352150 -0.049956 0.134717 93 93 94
-0.223552 0.079945 -0.028983 67 51 44
0.175201 0.075802 -0.009883 56 56 56
-0.096581 0.078935 -0.074683 72 80 66
-0.162111 0.094567 -0.063983 118 114 105
-0.023569 0.030708 -0.224183 22 20 18
-0.243194 -0.132341 0.044517 108 108 108
0.061056 -0.031143 0.132417 100 101 103
0.234369 0.034983 0.007417 84 88 89
-0.155625 0.109326 -0.091083 107 107 99
-0.144362 0.031372 -0.019183 95 88 54
0.217782 -0.150590 0.177917 83 84 86
0.016070 0.069201 -0.116883 108 109 111
0.040660 -0.055411 0.110817 108 109 111
-0.052304 0.048047 -0.078683 181 185 186
0.109402 -0.216916 0.154317 116 116 117
-0.235030 -0.016357 -0.001683 95 95 95
0.020809 0.080448 -0.113183 132 132 131
-0.180619 -0.125916 0.056817 112 113 115
-0.134164 0.120342 -0.097683 99 100 95
-0.029192 0.062958 -0.121183 154 155 159
0.117444 0.071914 -0.044583 118 114 106
0.217534 0.078137 -0.025683 9 9 9
-0.171184 0.123546 -0.090283 100 101 95
-0.155245 0.037847 -0.023383 146 146 138
-0.023574 0.030722 -0.224183 84 83 78
-0.735085 -0.222641 0.375717 84 84 84
0.010273 0.108621 -0.099883 103 97 76
-0.086153 0.116057 -0.103083 114 116 105
-0.185334 0.103954 -0.074083 103 102 97
0.075828 0.100531 -0.067683 82 78 69
-0.223060 0.071161 -0.030183 71 20 9
-0.027397 0.057305 -0.104283 176 180 183
0.079097 0.054949 -0.077083 138 139 141
-0.079654 0.042356 -0.073583 177 181 181
-0.075289 0.032066 -0.031183 80 86 78
-0.160873 0.019250 -0.003283 88 85 73
-0.044723 0.064585 -0.127183 170 174 177
-0.209525 0.052224 -0.034583 87 25 13
0.141759 -0.110654 0.162717 93 95 94
0.241514 0.004878 0.069517 56 60 59
-0.023562 0.030659 -0.224183 89 89 89
-0.027715 0.060446 -0.113783 159 159 164
-0.042079 0.055115 -0.094083 188 186 191
-0.023432 0.030744 -0.224183 82 81 77
-0.023567 0.030735 -0.224183 96 94 90
-0.221340 0.066992 -0.030783 78 26 15
-0.023563 0.030646 -0.224183 92 92 92
-0.145891 -0.139198 0.088117 122 123 125
0.233516 -0.169972 0.184717 87 88 90
-0.245790 -0.113380 0.039717 103 103 102
-0.212454 -0.096011 0.042217 108 108 108
0.039766 0.055791 -0.090483 160 161 165
-0.681510 -0.242020 0.375717 90 90 90
-0.104657 0.034448 -0.040283 29 30 18
0.066112 0.055119 -0.082583 162 163 165
-0.239050 -0.018714 -0.000583 95 95 95
0.135220 0.101793 -0.061383 119 119 115
0.029723 0.057494 -0.096883 164 165 169
-0.047631 -0.063202 0.076617 120 122 121
-0.040677 0.007801 0.048017 46 48 44
0.319590 -0.090159 0.170217 93 93 95
0.197524 0.025678 0.033217 96 102 102
-0.010667 0.032749 -0.035783 180 184 187
-0.068090 0.051368 -0.089483 185 189 190
-0.015730 0.049743 -0.091883 193 197 198
-0.212251 -0.133857 0.047017 108 108 111
0.398162 -0.095966 0.167317 89 90 92
0.200653 0.047681 -0.010083 60 62 61
0.181217 -0.178120 0.169317 99 96 102
0.135781 0.073654 -0.030583 113 117 110
-0.161603 0.091469 -0.055683 103 99 90
-0.174438 -0.046977 0.024617 118 118 118
-0.722546 -0.264818 0.375717 86 86 86
0.259143 0.015928 0.050817 61 63 62
0.185626 0.080694 -0.022983 52 52 52
-0.235819 -0.088115 0.040417 103 103 103
0.017146 0.060967 -0.108583 172 173 177
0.219764 0.045613 -0.004583 86 90 91
-0.023560 0.030633 -0.224183 93 93 93
-0.163276 -0.011020 0.006217 153 145 104
0.243389 -0.003192 0.081917 60 65 68
-0.094923 0.044269 -0.074583 169 171 164
-0.202022 -0.082250 0.037317 112 112 112
-0.156849 -0.010425 0.010317 152 140 100
-0.080911 0.001445 0.023017 64 67 58
-0.057498 0.064070 -0.125983 173 174 179
0.384301 -0.090538 0.169017 93 93 94
-0.018107 0.062276 -0.118883 165 165 168
0.268286 -0.106305 0.178017 91 91 93
0.093348 -0.086468 0.125617 106 107 109
0.157245 -0.009201 0.162817 42 44 41
0.109705 -0.179163 0.151117 117 118 122
-0.147063 0.038930 -0.024883 140 140 130
-0.148225 0.114005 -0.095583 109 110 104
-0.109443 -0.072775 0.072917 122 124 123
0.267380 -0.188816 0.200117 88 87 92
0.284084 -0.109311 0.165117 98 98 100
0.377812 -0.138826 0.179017 93 93 95
-0.215787 -0.036533 0.016017 104 104 104
-0.032068 0.010144 0.037917 121 122 114
-0.155385 0.090210 -0.053783 115 115 107
0.227835 -0.057185 0.157217 77 79 77
-0.243929 -0.107386 0.036917 103 103 101
0.297589 -0.233068 0.216117 92 92 94
0.106169 -0.155054 0.147117 114 115 119
-0.212556 0.032027 -0.036583 85 27 18
-0.163520 0.075608 -0.025183 106 96 71
-0.102511 -0.095215 0.076617 118 119 121
-0.221750 0.037198 -0.041583 79 32 20
-0.210583 0.023617 -0.030883 88 37 24
0.184892 0.048551 -0.004383 63 65 64
0.083473 0.108444 -0.077983 137 136 132
-0.069250 0.049914 -0.085183 182 186 187
0.164514 0.047879 0.003317 63 65 64
-0.028993 0.072076 -0.141683 140 141 147
0.034543 -0.173119 0.116017 117 118 122
-0.074967 0.033880 -0.032383 90 96 86
0.082742 -0.069092 0.132417 101 102 104
-0.155210 0.092515 -0.058883 100 100 92
-0.239972 -0.026977 0.003517 98 98 98
-0.079308 0.050808 -0.084483 180 184 187
0.053025 0.006491 0.117717 90 92 90
0.246845 0.018295 0.044817 61 63 62
-0.161688 0.093319 -0.060883 114 110 101
-0.094313 0.068753 -0.079883 78 85 75
0.064723 0.054445 -0.081783 159 160 162
0.261130 -0.085385 0.174417 87 87 89
0.086206 0.115076 -0.087083 130 129 125
0.013642 0.063805 -0.113783 160 161 165
-0.107860 0.046193 -0.063483 83 86 75
0.278476 -0.118676 0.174317 95 95 97
0.131918 -0.101913 0.156617 96 97 99
0.365673 -0.075743 0.166817 94 94 96
0.028267 0.079786 -0.108783 102 104 103
-0.097773 0.112615 -0.096983 114 115 109
0.079711 0.112368 -0.084583 136 135 131
-0.142273 0.105993 -0.085083 109 110 102
0.076284 0.109936 -0.082283 138 137 133
0.302478 -0.065452 0.155517 91 91 93
-0.214986 -0.076265 0.042217 109 109 109
0.194290 0.014457 0.058217 80 86 86
0.002696 0.114072 -0.104283 101 95 80
0.103041 0.102688 -0.064883 128 127 123
-0.013812 0.076554 -0.134783 102 107 107
0.141295 0.112486 -0.079683 112 108 107
0.078773 0.102087 -0.068183 88 85 78
0.338679 -0.052180 0.144617 91 92 93
-0.083842 0.015398 0.017817 25 27 23
-0.707727 -0.206683 0.375717 87 87 87
-0.168406 -0.052975 0.042217 119 121 120
0.180399 -0.042213 0.166317 35 37 33
-0.023571 0.030728 -0.224183 98 97 92
-0.023568 0.030753 -0.224183 97 98 92
-0.129694 0.037943 -0.030983 156 149 133
0.091299 -0.034246 0.158717 93 94 96
0.035573 0.040174 -0.044383 166 166 165
-0.099643 0.105432 -0.087083 130 130 118
0.139184 0.102835 -0.063883 118 117 113
0.178265 0.048284 -0.002483 63 65 64
-0.269650 -0.079232 0.038417 98 98 98
-0.089933 0.096510 -0.088283 74 77 66
-0.149973 0.108081 -0.089283 107 107 99
0.392767 -0.148078 0.175717 96 96 98
-0.119654 -0.100771 0.080217 116 117 119
-0.023736 0.058769 -0.109483 170 174 177
-0.231875 0.020144 -0.027783 89 50 43
0.214685 0.083207 -0.026483 15 15 14
-0.268100 -0.134800 0.042717 98 98 97
0.160616 0.084524 -0.039983 114 113 111
-0.023502 0.030715 -0.224183 78 84 72
-0.112942 0.016935 0.007417 58 61 54
0.201231 -0.056826 0.158817 61 63 60
-0.050292 0.055723 -0.098483 179 183 184
0.044480 0.116914 -0.095983 138 139 134
-0.023973 0.075008 -0.141483 136 137 140
-0.051878 0.074470 -0.146883 84 83 76
0.337068 -0.169047 0.187617 98 98 100
0.128880 0.118013 -0.087383 117 113 112
-0.100314 0.023153 -0.018183 157 150 134
-0.056853 0.070955 -0.141083 82 88 78
0.026511 0.068814 -0.108783 122 123 125
-0.107895 -0.032152 0.039817 155 143 103
-0.049784 0.075369 -0.149083 83 84 76
-0.053143 0.061911 -0.115983 166 167 166
0.068622 0.106547 -0.079483 123 122 117
0.155962 0.103556 -0.066283 113 110 105
-0.022435 -0.116944 0.090017 119 120 122
-0.118299 0.097472 -0.071283 119 119 107
-0.034775 0.048988 -0.079983 187 191 192
-0.075244 0.022605 -0.003183 156 152 140
-0.204976 -0.097345 0.038717 108 108 108
0.247425 -0.071806 0.168817 80 81 83
0.265687 -0.234915 0.210917 90 90 92
0.068698 0.122104 -0.093083 132 131 129
-0.073340 0.039614 -0.066383 178 182 181
-0.229159 0.071283 -0.033083 43 21 12
-0.292137 -0.100941 0.039917 95 95 95
0.099193 -0.051150 0.156117 96 97 99
0.026866 0.013731 0.061417 154 152 140
0.019927 0.101891 -0.093583 94 90 79
0.110824 0.005104 0.169017 29 20 15
-0.083455 0.108612 -0.102483 102 105 96
0.123178 -0.121313 0.150917 104 105 110
0.064193 0.122571 -0.093483 136 135 133
0.033773 0.076735 -0.106483 122 123 125
0.058974 -0.091789 0.112817 112 113 117
0.414800 -0.231277 0.214517 101 100 105
-0.013101 0.065148 -0.128183 176 177 181
-0.125575 0.108795 -0.091983 110 112 104
-0.161236 0.107853 -0.086483 106 106 98
-0.224285 -0.104412 0.043817 108 108 108
-0.278483 -0.066061 0.035217 94 94 94
-0.136691 -0.097594 0.080917 121 122 124
-0.168546 0.047116 -0.031083 133 134 128
-0.054027 0.069785 -0.141883 85 85 83
-0.215859 -0.118910 0.047017 109 109 109
-0.021390 0.062650 -0.122783 177 178 181
-0.025674 0.044309 -0.064083 179 183 186
-0.218601 0.044457 -0.037283 82 25 15
-0.038768 0.069056 -0.137883 161 164 166
-0.052129 0.069514 -0.131283 148 155 155
-0.047435 0.073092 -0.146983 138 142 145
0.473191 -0.243001 0.208017 98 97 102
-0.026670 0.057850 -0.105883 175 179 182
0.166570 0.013760 0.060917 85 94 92
-0.173010 0.012165 -0.008783 38 41 34
0.133675 0.081596 -0.037883 118 117 112
0.223171 0.056648 -0.016483 54 56 55
0.172820 0.019679 0.048517 92 98 98
0.042336 0.110586 -0.089383 89 86 77
-0.106297 0.102766 -0.080983 123 123 113
-0.069382 0.049859 -0.085583 184 188 189
-0.098915 -0.013250 0.016017 81 86 70
-0.225041 0.040264 -0.042683 71 29 16
-0.159519 0.102870 -0.079683 109 109 101
-0.105984 0.004464 0.012717 74 77 66
0.206683 -0.006768 0.082617 77 83 83
0.376634 -0.254743 0.221217 104 103 108
-0.237687 -0.024878 0.002017 97 97 97
-0.142254 0.120220 -0.096483 109 110 104
-0.042938 0.075293 -0.148483 141 145 148
-0.188138 -0.139048 0.043017 114 114 116
-0.201178 -0.039623 0.020417 111 111 111
-0.188324 -0.134156 0.045817 114 114 116
-0.055758 0.065287 -0.127283 161 166 167
-0.270770 -0.090526 0.038017 97 97 97
-0.001989 0.004490 0.067617 126 124 110
0.459973 -0.210535 0.195817 94 93 98
0.283874 -0.089704 0.163917 92 92 94
0.006880 0.105468 -0.101183 111 100 83
0.058678 0.067503 -0.089483 135 136 138
-0.227426 -0.130707 0.052217 105 105 105
-0.044712 -0.004260 0.053417 64 67 62
0.307592 -0.008172 0.109717 78 78 80
-0.111049 0.108367 -0.092283 117 118 110
0.092319 0.121702 -0.092583 125 124 122
0.206372 0.019018 0.040017 83 95 93
-0.131075 0.025603 -0.022183 157 150 130
-0.225974 0.035079 -0.043083 75 26 18
0.101371 0.005649 0.172217 44 39 35
-0.035113 -0.061946 0.078117 121 123 122
0.038956 0.072282 -0.102483 104 105 107
-0.134817 0.079654 -0.037183 135 132 116
0.240307 0.002679 0.075117 53 57 56
0.260275 0.003835 0.068717 61 62 64
0.322841 -0.198160 0.189317 102 102 104
0.049713 0.119734 -0.095783 135 134 133
-0.240856 -0.135449 0.045417 102 102 102
-0.141188 -0.083592 0.076117 118 119 122
-0.282208 -0.086708 0.039517 99 99 99
-0.128897 0.080134 -0.040683 121 122 108
0.065276 0.046791 -0.069483 180 181 183
0.197468 0.074646 -0.020883 11 11 11
0.034631 0.073849 -0.105183 128 131 128
0.021986 0.071693 -0.112883 117 116 117
0.006872 0.061250 -0.105783 167 171 174
0.236224 0.040125 0.004017 88 92 93
0.219081 -0.197385 0.187917 81 81 83
-0.127849 0.112336 -0.096283 104 105 99
-0.225411 -0.001523 -0.004783 96 96 96
0.189284 0.068601 -0.013683 9 9 8
-0.175368 0.035533 -0.038883 64 54 43
0.101993 -0.077960 0.137117 102 103 105
0.294630 -0.164018 0.180417 95 95 97
0.070788 -0.091906 0.118517 111 112 116
0.131144 0.020013 0.144417 64 63 58
0.254159 -0.254879 0.214917 78 78 78
-0.219005 0.003617 -0.005883 92 92 92
-0.032852 -0.069812 0.079317 119 120 122
0.137967 0.009241 0.105417 60 57 51
-0.019831 0.085385 -0.140283 100 101 106
-0.009965 -0.160864 0.102817 119 120 124
-0.054915 0.057574 -0.107083 183 183 187
-0.120354 0.115142 -0.097183 107 108 102
-0.023439 0.030680 -0.224183 131 133 114
-0.125658 0.119128 -0.098383 106 107 100
-0.304610 -0.145000 0.049117 90 90 90
-0.022746 0.023948 -0.005883 48 50 45
-0.077966 0.029858 -0.029483 75 80 70
-0.232204 0.083379 -0.039083 78 78 72
-0.038078 0.070418 -0.140883 154 158 161
0.276058 -0.240879 0.215217 90 90 92
0.047555 0.102246 -0.083083 94 85 72
0.161577 -0.146679 0.161117 100 101 103
0.008625 0.075940 -0.122383 122 123 125
0.434641 -0.089826 0.155017 86 85 90
0.208288 0.023851 0.028417 95 101 101
0.386311 -0.173703 0.197217 95 95 97
-0.023570 0.030675 -0.224183 80 80 80
-0.174029 0.012191 -0.009083 41 44 37
0.159576 0.051882 -0.000083 63 65 64
0.026412 0.047165 -0.065883 159 163 164
0.422617 -0.199854 0.196717 96 95 100
0.120010 0.114576 -0.084883 119 118 116
0.344747 -0.051884 0.140217 90 90 92
-0.023563 0.030661 -0.224183 86 86 86
-0.136939 0.106140 -0.085783 110 111 104
-0.272170 -0.074041 0.037917 101 101 101
-0.220442 -0.037617 0.015017 107 107 105
0.103163 0.109454 -0.076083 127 126 122
-0.288418 -0.076359 0.038717 98 98 98
0.456016 -0.218662 0.201517 99 98 103
-0.214393 0.069284 -0.028483 77 24 10
0.003110 -0.059030 0.103117 109 109 110
0.033411 0.031721 -0.026983 167 171 172
-0.230460 -0.146297 0.047917 106 106 106
0.327153 -0.014585 0.110217 84 84 86
-0.160306 -0.115737 0.073017 120 120 122
-0.206667 0.042518 -0.034183 90 30 16
-0.214288 -0.032538 0.013017 106 106 106
-0.000242 0.064360 -0.120483 160 161 165
0.303944 -0.221222 0.210117 95 95 97
-0.200465 0.035409 -0.029483 77 24 7
0.132667 0.095030 -0.048583 130 129 124
0.040002 0.041577 -0.054483 181 182 184
0.213745 0.025893 0.022117 92 98 98
0.179019 -0.065267 0.166517 17 19 17
0.090482 -0.028379 0.158417 93 94 96
0.017475 0.108263 -0.096583 91 83 63
-0.267964 -0.118176 0.042017 99 99 99
-0.211851 0.083506 -0.041083 94 84 76
-0.151627 -0.018883 0.019017 154 142 101
-0.059202 0.040756 -0.062483 175 177 176
-0.172876 0.044338 -0.033983 145 146 139
0.026364 0.043249 -0.053683 181 186 189
-0.023570 0.030720 -0.224183 84 83 78
0.361702 -0.105151 0.181417 95 95 97
0.060490 0.009008 0.119017 95 96 96
-0.241378 0.017918 -0.022083 73 73 70
-0.228782 -0.137975 0.051217 109 109 109
-0.097727 0.103508 -0.086283 131 133 117
0.191701 -0.134587 0.170717 44 49 46
-0.193983 -0.110835 0.038717 111 111 113
0.313681 -0.027651 0.119817 92 92 94
0.137285 0.112542 -0.079583 119 115 115
0.405880 -0.053653 0.124617 84 84 86
-0.023022 -0.169189 0.097217 113 114 118
0.297067 -0.091147 0.163817 93 93 95
0.076974 -0.132485 0.128817 117 118 122
-0.174977 0.027839 -0.017283 129 120 89
-0.271222 -0.071160 0.036917 95 95 95
0.002305 0.060114 -0.103983 155 159 162
0.050210 -0.049800 0.116717 108 109 111
0.044112 0.068390 -0.098483 136 138 136
0.170372 0.092675 -0.047683 105 106 101
-0.037397 0.067109 -0.132883 154 158 161
-0.186727 0.081944 -0.039183 102 92 85
0.157775 -0.143614 0.160817 95 96 98
-0.068252 0.063698 -0.120083 88 91 83
0.080795 -0.046594 0.144717 101 102 104
0.166738 0.059321 -0.005083 12 12 12
-0.173196 -0.096136 0.055917 118 119 122
0.203957 0.067595 -0.017083 50 52 51
-0.013268 0.082679 -0.134483 91 92 94
-0.023569 0.030681 -0.224183 75 38 34
0.242944 -0.032116 0.112217 80 87 85
-0.157876 0.002535 -0.000583 148 136 103
-0.067106 0.055365 -0.100283 26 31 38
-0.153960 -0.100932 0.076617 119 120 122
-0.086658 0.107818 -0.098883 113 115 103
0.048193 -0.118909 0.113317 117 118 122
0.136863 -0.077256 0.166917 85 87 86
-0.157994 0.011684 -0.003183 65 57 44
0.371622 -0.200934 0.209217 99 99 101
-0.222557 0.019311 -0.026283 91 51 43
0.183153 -0.138373 0.167317 44 46 47
0.200087 0.060599 -0.013683 55 57 56
0.008785 0.024523 -0.011383 170 174 171
-0.057243 -0.085959 0.080817 119 120 122
-0.039488 0.068053 -0.134783 159 163 166
0.118370 -0.014617 0.165117 73 74 76
0.200145 0.005498 0.075417 67 73 73
0.136594 0.082332 -0.037783 120 119 114
-0.133833 0.095001 -0.067383 113 113 103
0.041195 -0.045859 0.113617 107 108 110
0.064752 0.066882 -0.085983 115 116 118
-0.019269 0.073304 -0.138583 109 106 111
0.068575 0.113441 -0.088483 135 134 130
0.106165 -0.012032 0.161817 77 78 80
-0.090246 0.028607 -0.015383 167 165 148
-0.001903 0.103505 -0.106983 104 98 79
-0.262743 -0.134567 0.040717 98 98 96
-0.021813 -0.150666 0.094717 119 120 124
0.258508 -0.057484 0.158517 82 82 84
-0.133869 0.078639 -0.036983 128 127 109
0.014672 0.060436 -0.108083 168 169 173
0.217086 0.059439 -0.016283 53 55 54
0.080176 0.114216 -0.086783 133 132 128
-0.183082 -0.127849 0.055517 116 117 121
0.252514 0.043606 0.004217 84 85 87
0.020490 0.113126 -0.097683 84 81 75
0.163714 -0.200748 0.167117 104 105 107
0.234191 0.053300 -0.014583 60 63 60
-0.042762 0.073180 -0.146283 140 141 145
-0.230805 -0.011534 -0.002583 95 95 95
0.305876 -0.087978 0.165517 94 94 96
-0.181023 0.026866 -0.027883 33 30 29
-0.004465 -0.119731 0.101217 116 117 119
-0.164060 0.071173 -0.022783 138 139 131
-0.702028 -0.318393 0.375717 87 87 87
-0.195644 0.079819 -0.035183 97 90 80
-0.070967 -0.093006 0.079617 118 119 121
0.421124 -0.181723 0.187917 95 94 99
-0.107891 0.070537 -0.066283 61 63 53
-0.031333 -0.131868 0.087717 118 119 121
0.325732 -0.174032 0.183517 97 97 99
0.145156 0.086608 -0.041183 120 116 113
-0.023501 0.030730 -0.224183 74 77 68
-0.142136 0.092566 -0.059583 111 111 102
0.028226 0.063865 -0.106883 143 144 148
-0.056330 -0.100271 0.083117 121 122 124
0.171557 0.095534 -0.051683 107 106 104
-0.141178 0.106978 -0.087583 105 104 99
0.146250 -0.029965 0.178617 51 53 53
0.329790 -0.221187 0.197617 98 97 103
0.151019 -0.006585 0.081117 67 74 66
0.160917 0.103803 -0.067683 111 106 105
0.429986 -0.206799 0.199117 96 95 100
0.082551 0.095619 -0.062883 89 85 77
-0.185165 -0.055662 0.025117 114 114 114
0.119366 -0.018404 0.165817 73 74 76
0.076120 0.105150 -0.075683 119 120 113
0.185007 0.041586 -0.001583 61 65 64
-0.051011 -0.089484 0.082417 117 118 120
-0.262292 -0.116668 0.040217 99 99 99
-0.060878 0.054373 -0.094083 186 185 188
0.224441 -0.040967 0.144617 77 79 78
-0.040430 0.046078 -0.073583 184 188 186
-0.289124 -0.081654 0.039417 95 95 95
0.156603 -0.008486 0.163017 47 49 46
-0.199877 0.001760 -0.004383 91 93 89
-0.162456 0.095077 -0.064983 116 112 103
-0.146059 0.038913 -0.025283 140 140 130
0.128648 0.073780 -0.034883 125 123 117
0.075607 -0.087657 0.119417 107 108 113
-0.160503 0.035197 -0.022383 162 159 151
-0.021242 -0.106705 0.089817 118 119 121
0.205784 -0.089398 0.165317 53 55 52
0.033909 0.115807 -0.096183 117 116 111
0.124329 0.118666 -0.087983 117 116 114
-0.090060 -0.080749 0.074617 119 121 120
-0.039296 0.075268 -0.147283 128 131 136
-0.229167 0.008839 -0.008283 95 93 94
0.148534 -0.196623 0.166417 110 111 115
0.012771 0.065292 -0.116983 134 135 139
-0.025467 -0.175426 0.097417 115 114 119
-0.119330 0.036082 -0.031883 142 134 118
0.020858 0.006946 0.064717 150 145 131
-0.148477 -0.058865 0.062717 125 127 126
-0.179561 0.044044 -0.038083 148 148 140
0.019750 0.052263 -0.080083 180 184 184
-0.226969 0.043078 -0.041883 74 42 29
0.212183 0.079489 -0.024783 11 11 9
0.225811 0.062155 -0.019183 55 57 56
-0.060836 0.019222 0.014817 158 157 141
0.075627 -0.186526 0.136117 116 117 121
0.139105 0.114348 -0.083483 114 110 109
-0.082631 0.013374 0.020417 41 44 35
-0.033402 -0.063795 0.078517 120 122 121
0.077084 0.057986 -0.078783 135 136 138
-0.197132 0.082745 -0.040083 86 79 69
-0.044796 -0.176271 0.094017 115 118 121
-0.129521 0.096488 -0.070183 116 116 104
0.018872 0.106847 -0.095283 104 96 73
-0.023573 0.030700 -0.224183 70 70 68
-0.178333 0.022810 -0.008783 21 21 20
0.004778 0.108340 -0.102183 104 96 73
-0.227662 0.026445 -0.041883 84 26 12
0.414490 -0.237810 0.218417 102 101 106
0.110431 0.115896 -0.088683 120 119 117
0.000088 0.080437 -0.126483 105 106 111
-0.207099 0.043221 -0.034483 90 31 17
-0.023421 0.030683 -0.224183 169 169 165
-0.021393 0.059946 -0.112483 176 181 184
-0.214440 0.036999 -0.037183 90 44 35
-0.163240 0.093009 -0.060883 113 109 102
-0.038346 -0.121353 0.085617 118 119 121
-0.052533 -0.000947 0.047617 65 68 59
-0.118539 -0.058784 0.069617 127 129 128
-0.023562 0.030661 -0.224183 89 89 89
0.186116 0.074071 -0.010383 22 22 23
-0.205268 0.069185 -0.027083 79 24 12
0.124115 0.101971 -0.061683 125 122 117
0.028377 -0.109022 0.109617 117 118 120
-0.009287 0.074881 -0.131883 130 131 131
-0.045667 0.077447 -0.152683 70 75 71
-0.167395 0.102688 -0.078383 108 108 100
0.342757 -0.054039 0.146617 91 91 93
-0.018408 0.050600 -0.089483 195 199 202
-0.004481 0.061463 -0.115383 172 176 179
0.165870 0.094957 -0.050583 106 105 104
-0.077985 -0.110559 0.080117 119 120 122
-0.208878 -0.031636 0.013017 109 109 109
0.093951 -0.158070 0.142017 115 116 120
0.316608 -0.155243 0.176417 98 98 100
-0.043344 0.075091 -0.148583 139 143 146
0.102805 -0.008233 0.160517 74 74 75
-0.169005 -0.043358 0.033417 135 128 110
0.211179 0.052186 -0.013783 55 57 56
-0.243949 -0.115326 0.040517 103 103 103
-0.045106 0.000673 0.051717 59 62 55
0.004186 0.065998 -0.120883 135 136 141
0.049367 0.114005 -0.092883 130 129 124
0.125217 0.103476 -0.064483 122 117 113
-0.184759 0.030599 -0.033183 132 123 99
-0.179837 -0.019907 0.004817 105 105 103
-0.037588 0.067398 -0.133883 160 164 167
-0.045254 0.046252 -0.071883 176 180 181
-0.108350 0.035754 -0.043583 74 70 55
0.135039 0.067869 -0.024083 107 105 101
0.046700 0.097370 -0.083183 103 96 79
0.162140 -0.078080 0.178217 50 52 49
0.139233 0.097097 -0.051883 124 123 118
0.142167 0.105508 -0.069083 115 114 112
0.215512 -0.038014 0.143817 73 75 74
-0.106352 -0.114227 0.078117 119 120 122
0.346789 -0.129596 0.182817 97 97 99
-0.688349 -0.224921 0.375717 91 91 91
0.197455 0.029618 0.027017 96 98 100
0.140177 0.037218 0.045117 63 65 64
-0.037834 0.076146 -0.147283 131 134 139
0.289140 -0.079589 0.159517 91 91 93
-0.115117 -0.041521 0.044817 153 143 107
-0.132448 0.026377 -0.022483 155 148 129
-0.027162 -0.091406 0.085817 117 118 120
-0.132404 0.088487 -0.051183 126 128 115
0.031808 0.107692 -0.091283 87 83 71
-0.050189 0.069322 -0.135383 51 52 54
-0.130440 0.103242 -0.082183 113 113 103
-0.169567 -0.122557 0.065617 123 122 124
-0.196189 0.034716 -0.027183 68 58 52
-0.072640 -0.169084 0.090317 119 119 121
-0.177472 0.045530 -0.037183 144 145 139
0.168026 0.081950 -0.037883 102 102 100
-0.001947 0.079292 -0.127283 109 110 112
-0.025059 0.067774 -0.133383 167 170 176
-0.182550 -0.128381 0.055517 116 117 119
-0.175726 0.069377 -0.029883 143 144 140
0.186595 0.083135 -0.023883 55 55 54
0.041180 0.097692 -0.086383 107 98 78
-0.027728 0.082908 -0.144783 107 108 111
-0.007157 -0.092114 0.096917 118 119 121
0.033458 0.053628 -0.086683 157 158 164
-0.004722 -0.087806 0.096817 115 116 118
0.155830 0.036634 0.021017 64 66 65
0.173515 0.001065 0.080017 81 87 85
-0.022709 0.076755 -0.140883 119 120 125
0.017177 -0.139113 0.111417 118 119 123
0.365760 -0.151190 0.191517 97 97 99
-0.235411 0.012362 -0.011083 87 87 85
0.126734 -0.142301 0.156317 110 111 115
-0.003000 0.065720 -0.123383 138 139 142
0.018852 -0.171637 0.114617 117 118 120
-0.216700 -0.036533 0.016017 107 107 107
0.270931 -0.030213 0.119517 81 81 83
0.260521 -0.121224 0.181117 86 87 89
0.083404 0.121855 -0.093083 132 131 129
-0.031707 0.040654 -0.059083 176 180 184
-0.737365 -0.067615 0.375717 79 79 79
-0.241089 -0.061259 0.030117 102 102 100
-0.025117 0.070372 -0.139283 156 157 162
0.007076 0.069358 -0.122383 132 133 137
-0.153403 0.092403 -0.059183 102 102 94
0.084616 0.102916 -0.069583 113 113 105
0.417899 -0.195467 0.194517 96 95 100
0.090057 -0.129487 0.134117 113 114 118
0.194276 -0.087359 0.165917 29 31 28
0.269778 0.027671 0.030117 82 86 89
0.343590 -0.198853 0.197817 98 98 100
0.241375 -0.251043 0.209017 82 82 82
0.071833 0.069953 -0.082483 113 112 114
-0.224537 0.005726 -0.006183 93 94 94
-0.050561 0.073659 -0.147283 82 85 77
0.064011 0.090534 -0.071183 81 80 65
-0.234550 -0.079691 0.040717 105 105 105
-0.256431 -0.051299 0.024817 99 99 99
0.277297 -0.059767 0.144117 92 92 94
0.393153 -0.055128 0.130717 87 87 89
0.260450 -0.209123 0.201817 88 87 89
-0.026616 -0.134910 0.090117 113 114 118
0.136449 0.025168 0.090117 63 63 61
0.329914 -0.046973 0.139917 90 90 91
0.040608 0.110349 -0.089783 89 86 79
-0.035313 0.070967 -0.141383 155 159 162
-0.174957 0.117038 -0.085183 98 99 93
0.028239 0.056261 -0.093283 176 177 181
-0.706588 -0.207823 0.375717 92 92 92
0.271994 0.017505 0.050617 58 60 59
0.258930 0.035170 0.017517 86 90 91
0.060216 0.110130 -0.084783 116 115 110
0.027546 0.116629 -0.097483 103 102 97
-0.148163 0.103344 -0.081983 109 109 101
0.134811 0.112267 -0.079583 118 114 113
-0.010158 -0.121973 0.098117 118 119 121
-0.107807 -0.024754 0.033417 154 142 104
0.227542 -0.116160 0.171617 73 77 76
-0.180631 -0.068558 0.034017 118 118 118
-0.023563 0.030638 -0.224183 94 94 94
-0.220925 -0.075451 0.042717 105 105 105
-0.055780 0.066341 -0.129383 172 176 176
0.172626 0.055687 -0.004083 62 64 63
-0.106555 0.096399 -0.073083 124 124 112
-0.182128 -0.075616 0.038117 115 115 115
-0.012077 0.067074 -0.130283 168 169 173
0.190042 -0.161386 0.171817 84 85 87
-0.084150 -0.001102 0.020917 68 71 62
-0.163835 -0.015324 -0.002583 97 93 84
-0.031299 -0.013353 0.064617 74 77 64
-0.023339 0.069504 -0.137983 146 147 152
0.160408 0.064303 -0.005183 20 20 22
0.160694 -0.020664 0.171817 52 54 51
0.041065 0.054326 -0.087183 166 167 171
-0.056951 0.075556 -0.143883 64 69 61
-0.181892 -0.082934 0.043617 118 120 119
0.101965 0.003424 0.171717 50 47 44
-0.197736 0.093205 -0.057883 102 99 90
0.253404 0.028231 0.022417 84 88 89
-0.695189 -0.272797 0.375717 88 88 88
0.071066 0.043611 -0.065183 165 166 168
-0.051434 0.076157 -0.148483 72 78 68
0.073391 0.084145 -0.071983 65 67 62
-0.217060 -0.113630 0.045817 111 111 111
0.031663 0.120129 -0.097983 127 128 123
0.123419 -0.094537 0.149717 100 101 103
-0.019288 0.069657 -0.131783 176 177 181
0.020169 -0.070843 0.105117 113 114 116
0.075722 -0.013261 0.141517 94 95 97
0.131664 0.111001 -0.077883 115 114 112
-0.033324 0.082864 -0.147083 114 117 122
0.062005 0.115653 -0.091083 137 136 132
-0.216475 -0.126532 0.048617 107 107 107
0.206591 0.023255 0.032417 96 102 102
0.052528 -0.085621 0.109817 112 113 117
0.168425 -0.023952 0.163117 42 42 40
0.176185 -0.098988 0.169717 24 23 19
-0.081978 -0.169512 0.089117 116 118 120
-0.732805 -0.113211 0.375717 77 77 77
-0.043459 0.078311 -0.150283 126 128 134
-0.057868 0.066972 -0.130083 164 165 167
0.098575 0.064855 -0.064783 70 65 63
0.114406 0.085589 -0.048883 126 125 121
0.129130 0.124608 -0.090583 107 106 104
0.048064 -0.093201 0.109717 113 114 118
0.003692 0.048204 -0.074983 165 172 175
0.204090 -0.020857 0.090317 77 85 84
-0.084691 0.046873 -0.079283 178 182 181
-0.264725 -0.019384 0.004417 90 90 90
-0.082016 -0.172619 0.089317 119 118 120
-0.178082 -0.152976 0.059017 115 115 119
0.003820 0.071636 -0.124383 100 101 106
0.124743 0.109964 -0.076183 120 119 115
-0.180791 0.047246 -0.037883 145 145 141
-0.021280 0.080459 -0.140783 100 101 106
-0.016733 0.071103 -0.132883 163 164 165
0.080712 0.117366 -0.090783 134 133 131
0.064770 0.112172 -0.087583 138 137 133
0.080334 0.123280 -0.093183 130 129 127
-0.127726 -0.165684 0.090617 122 123 125
0.146368 0.090999 -0.044683 123 118 113
-0.037212 -0.105896 0.086617 117 118 120
0.029757 -0.039390 0.110317 100 97 84
0.028267 0.080005 -0.108783 103 105 104
-0.166098 -0.149808 0.073317 118 118 120
-0.209652 0.087450 -0.046183 97 92 86
0.169882 -0.138844 0.161617 93 94 96
0.181155 0.088465 -0.046183 95 94 93
-0.165609 0.028590 -0.013683 137 127 91
0.047316 0.070901 -0.096583 120 122 121
0.376303 -0.047203 0.125417 85 85 87
0.134196 0.118020 -0.088183 111 110 108
0.423522 -0.250383 0.215717 99 99 101
-0.132805 -0.031694 0.035817 158 146 108
-0.023569 0.030680 -0.224183 71 44 36
0.085556 -0.046077 0.149017 97 98 100
-0.177289 0.063462 -0.032083 143 144 140
0.178100 -0.067770 0.167617 21 23 20
-0.019298 0.062621 -0.123483 188 192 193
0.216486 0.050261 -0.012983 55 57 56
-0.083306 -0.076314 0.074917 120 122 121
-0.181031 0.092426 -0.060783 109 105 96
0.060789 0.043324 -0.061083 178 179 181
-0.252243 -0.032223 0.008517 94 94 94
0.089958 0.107042 -0.074183 133 132 128
0.031368 -0.059246 0.108517 111 112 114
0.433054 -0.200270 0.196017 96 95 100
0.130007 0.115717 -0.085183 116 112 111
-0.012348 -0.068603 0.088217 118 119 121
-0.163594 -0.055385 0.046617 120 122 121
-0.170544 -0.004503 -0.006983 44 45 38
-0.264503 -0.034437 0.010117 94 94 94
0.237543 -0.088091 0.170817 79 81 80
0.116092 0.118080 -0.089683 113 112 110
-0.129455 0.114308 -0.096983 107 108 102
-0.184906 0.092528 -0.059683 109 105 96
-0.220767 0.032345 -0.040883 80 29 16
-0.030038 0.057377 -0.105983 171 170 175
-0.063980 0.009630 0.038117 52 54 49
0.069159 0.098301 -0.069383 90 83 71
-0.021911 0.076444 -0.140583 114 115 120
0.188619 0.043561 -0.003983 62 64 63
-0.099011 -0.142432 0.083317 118 119 121
-0.006684 0.083437 -0.130083 90 91 93
-0.047679 -0.125507 0.084517 116 117 119
-0.160260 -0.113429 0.072917 121 121 119
-0.016893 0.070496 -0.132683 166 167 169
0.404592 -0.059453 0.131817 86 86 88
-0.011668 0.063683 -0.114883 174 178 181
0.212136 0.012102 0.053317 85 89 89
-0.092426 -0.111646 0.077517 116 117 119
-0.196474 0.025611 -0.022483 67 62 58
-0.162535 0.042991 -0.026583 109 110 105
-0.045051 0.070783 -0.142083 154 155 159
0.103023 0.107976 -0.074583 124 123 119
0.028627 0.066802 -0.107483 129 130 130
-0.208369 -0.122468 0.045117 111 111 113
0.056748 0.092246 -0.075483 70 71 60
-0.021589 0.077510 -0.140383 121 121 126
-0.104636 0.080386 -0.070183 80 83 72
-0.142953 -0.001017 0.006717 78 76 58
-0.023493 0.030690 -0.224183 133 137 133
0.212493 0.044448 -0.003183 89 93 94
-0.196508 -0.069073 0.032817 112 112 112
0.061266 -0.123615 0.119517 115 116 120
0.001227 0.062008 -0.107983 168 166 170
-0.095128 0.112357 -0.097383 115 116 111
