ply
format ascii 1.0
element vertex 1223
property float x
property float y
property float z
property uchar red
property uchar green
property uchar blue
end_header
0.012124 -0.012893 0.021887 163 165 164
-0.035526 0.038617 0.001687 26 26 25
0.044565 0.015545 -0.009713 128 110 93
-0.045426 -0.002278 0.011187 149 151 149
-0.050879 0.030136 -0.000213 0 1 2
0.001345 0.024024 -0.016213 115 115 113
0.018564 0.020902 -0.016813 114 97 69
0.043439 -0.036022 0.026787 163 165 164
-0.056908 0.018990 -0.002313 142 143 138
-0.039249 -0.025060 -0.016413 159 159 159
-0.035718 0.026733 0.008987 17 18 20
-0.006494 0.000945 -0.056213 162 164 163
-0.034692 -0.007973 0.011587 118 119 121
-0.005705 -0.010205 0.021787 151 155 154
0.056600 0.029533 -0.005113 138 138 141
0.006708 -0.015483 0.021487 164 168 167
-0.002975 0.003994 0.013887 82 81 82
0.001729 -0.027544 0.023387 167 171 170
-0.016456 0.017299 0.007987 97 99 36
0.022600 -0.005533 0.024587 164 166 165
0.061653 -0.013695 0.006787 128 128 128
-0.028710 0.020794 0.010287 11 12 14
-0.039949 -0.013320 -0.017013 161 160 161
0.034119 0.017905 -0.010513 125 112 84
0.042206 0.035399 -0.005213 100 99 106
-0.003771 0.004399 0.013987 91 92 86
0.013184 0.020852 -0.016613 125 109 84
0.074912 -0.004141 0.013887 68 67 63
-0.006522 0.000993 -0.056213 142 142 144
-0.053298 0.004843 0.012387 147 149 148
-0.037246 -0.027443 -0.007013 39 40 42
0.007335 -0.017600 0.021687 165 169 168
-0.055012 0.014946 0.007287 33 33 33
-0.006520 0.000981 -0.056213 141 142 144
-0.006289 0.000919 -0.056213 73 73 75
-0.006484 0.000949 -0.056213 159 161 160
0.021807 0.022908 -0.017513 128 114 88
-0.048716 0.039841 -0.000813 11 11 13
-0.034088 -0.005661 0.011687 111 112 114
-0.006334 0.000991 -0.056213 38 49 32
0.005712 0.024496 -0.018513 83 71 58
-0.033327 -0.010231 -0.016313 18 17 23
-0.042399 0.018971 0.008287 10 10 12
0.026644 0.014525 -0.003713 36 53 33
-0.053494 0.028530 0.007687 1 1 3
0.065262 -0.003418 0.022487 130 130 130
-0.003921 -0.011111 0.021887 152 156 155
0.095380 -0.034601 0.026787 132 132 132
-0.006520 0.000929 -0.056213 157 159 158
0.065184 -0.017132 0.021587 134 134 134
-0.031852 -0.010132 0.012987 145 146 148
0.032073 0.008562 0.005487 38 77 36
-0.039442 0.015036 0.009987 12 13 13
-0.006522 0.001005 -0.056213 134 136 126
-0.010736 0.007825 0.012187 54 56 53
-0.051915 0.026097 0.003087 1 1 3
0.041977 -0.032629 0.026987 161 164 163
-0.006499 0.001015 -0.056213 1 2 4
-0.038343 -0.002783 -0.016313 159 161 160
0.014761 0.019163 -0.010413 118 102 76
-0.006443 0.001009 -0.056213 86 87 82
-0.006509 0.001018 -0.056213 35 35 38
0.032360 0.014560 -0.006513 88 93 59
-0.051531 0.000539 0.011887 152 154 153
-0.006498 0.000950 -0.056213 162 164 163
0.010471 0.022299 -0.017813 109 94 69
-0.018978 -0.009859 0.020387 151 155 154
-0.006521 0.001002 -0.056213 113 105 88
-0.006516 0.000902 -0.056213 155 157 156
0.019193 -0.044612 0.025487 168 170 169
0.008121 0.015388 -0.003113 119 105 78
-0.006513 0.000905 -0.056213 156 158 157
0.017231 0.020721 -0.013813 124 108 82
0.041791 0.020454 -0.013513 133 116 96
-0.048175 -0.002808 0.011487 152 154 153
-0.006514 0.000988 -0.056213 155 148 147
-0.042073 0.006148 0.012387 149 153 152
0.004772 -0.007786 0.021387 154 158 157
0.065276 -0.020239 0.006287 75 75 77
0.035017 0.013311 -0.004613 32 68 35
0.008596 0.025289 -0.020213 95 84 65
-0.006516 0.000988 -0.056213 153 151 152
-0.006515 0.001006 -0.056213 74 63 46
-0.035736 -0.022604 0.006887 130 131 133
-0.038631 -0.007054 -0.016613 159 161 160
-0.015325 -0.040606 0.022887 169 171 173
-0.034952 -0.020861 -0.017413 22 23 25
-0.034117 -0.013618 -0.016813 23 24 26
-0.002898 0.015638 0.001887 134 133 129
-0.035330 -0.027122 0.006787 151 152 154
0.036676 0.018413 -0.012513 126 108 84
-0.025166 -0.037704 0.021887 167 168 170
0.022324 0.019977 -0.015413 83 80 59
-0.041800 -0.013712 0.000787 151 156 158
-0.056895 0.004718 0.012487 145 147 146
0.000095 0.025243 -0.017313 111 111 109
-0.035026 -0.016677 -0.017513 31 32 36
-0.051574 0.034154 0.003987 2 2 4
-0.014397 0.023931 0.001887 11 10 6
-0.039735 0.031934 0.007187 23 23 25
-0.071884 0.005729 0.010187 146 148 147
0.010744 0.016516 -0.006913 122 106 80
-0.006497 0.000990 -0.056213 136 137 133
-0.006519 0.000931 -0.056213 157 159 158
-0.006518 0.000993 -0.056213 148 144 133
-0.031762 -0.012907 0.012387 151 152 154
0.035057 0.004991 0.017487 147 140 113
-0.033888 0.028501 0.008187 26 28 26
-0.011199 0.021644 0.001987 8 7 9
-0.003992 0.011696 0.008087 156 159 156
0.047618 -0.005798 0.027887 43 41 42
-0.025957 -0.028786 0.021487 157 158 160
-0.068820 0.010305 0.009487 112 107 97
-0.006520 0.000971 -0.056213 145 146 148
0.088418 -0.037746 0.026087 140 140 140
-0.006516 0.001000 -0.056213 156 152 141
-0.020433 -0.004267 0.019587 150 154 153
-0.052086 0.027007 -0.002913 35 25 15
-0.012360 0.024755 -0.018213 18 18 20
0.024391 0.013891 -0.001313 36 50 33
-0.006506 0.000988 -0.056213 144 146 143
0.005333 -0.033665 0.023187 169 171 170
-0.006412 0.001011 -0.056213 36 36 36
-0.006741 -0.006291 0.021187 150 154 153
-0.015771 0.022751 0.002887 52 52 50
0.023663 0.018320 -0.016013 44 63 41
-0.008655 -0.010855 0.021187 152 154 153
-0.006520 0.000926 -0.056213 156 158 157
0.017564 0.006637 0.011987 134 135 133
-0.014800 0.020865 0.003987 95 93 35
0.027221 0.025517 -0.017813 146 146 148
0.042821 0.016981 -0.010913 120 102 80
0.038818 -0.022829 0.027587 158 160 159
-0.007012 0.023308 -0.017713 20 20 22
-0.006509 0.000938 -0.056213 160 162 161
0.002298 0.020595 -0.009913 64 55 55
-0.040099 -0.002945 -0.016213 160 162 161
0.006073 -0.027286 0.023087 169 171 170
0.019838 0.012622 0.002287 61 62 44
-0.031643 -0.021014 0.009687 157 158 160
-0.006388 0.000984 -0.056213 116 104 80
-0.006523 0.000979 -0.056213 148 147 149
-0.038326 0.000296 0.010287 15 16 17
0.040503 0.004795 0.013887 87 86 88
-0.006505 0.000985 -0.056213 153 155 154
0.088105 -0.037589 0.026087 142 142 142
-0.058932 0.004854 0.012587 145 147 146
0.023548 0.025616 -0.018113 147 147 147
-0.011477 0.026054 -0.003213 41 41 41
0.056524 0.035011 -0.003713 139 139 141
-0.017127 0.013214 0.013987 8 9 13
0.005238 0.004402 0.016887 66 48 38
-0.006497 0.001025 -0.056213 21 7 3
-0.025982 -0.026604 0.021587 156 157 159
-0.002501 -0.031866 0.023587 168 172 173
-0.046876 0.007360 0.012787 154 156 153
0.047784 0.014951 -0.010213 109 95 84
-0.043495 0.027767 0.008487 13 13 15
-0.034025 -0.014942 0.009987 134 135 137
0.033771 0.017527 -0.010113 127 113 86
-0.025754 0.028333 -0.005713 31 31 29
-0.041710 -0.003871 -0.016113 162 164 163
-0.010505 -0.043259 0.022787 172 174 173
-0.052510 0.020814 -0.001813 2 2 4
0.064573 -0.025108 0.022887 137 137 137
0.073638 -0.009575 0.012787 72 67 65
-0.004629 -0.025002 0.023487 166 170 168
0.060575 -0.002776 0.024787 127 127 129
-0.025329 -0.005799 0.018987 144 148 149
0.059305 -0.021737 0.027087 90 90 90
-0.033968 -0.028434 0.008087 153 154 156
0.023136 0.015761 -0.013913 39 53 35
-0.006444 0.000915 -0.056213 148 150 149
-0.006513 0.001004 -0.056213 75 66 50
-0.016607 0.012162 0.014087 14 15 19
-0.040349 0.036886 0.003387 33 33 35
0.027731 0.015952 -0.006913 18 32 13
0.029227 0.015445 -0.010313 66 102 61
0.021394 0.012482 0.001587 40 53 36
0.081307 -0.039222 0.025587 143 143 143
0.038340 -0.023148 0.027587 160 162 161
0.024867 -0.015976 0.025287 164 166 165
0.000351 0.011651 0.006387 124 110 81
0.068718 -0.014077 0.005887 136 136 136
-0.006444 0.000958 -0.056213 37 38 42
0.061635 0.003048 0.018187 133 133 133
-0.038515 0.002731 0.011487 16 17 19
-0.031516 -0.011544 0.012787 147 148 150
-0.028424 0.011653 0.013387 16 15 20
-0.034958 -0.003622 -0.015613 26 29 31
-0.038238 -0.009838 -0.016913 159 161 160
-0.006523 0.000898 -0.056213 154 154 156
-0.051952 0.034640 -0.002713 37 19 10
-0.033485 0.018173 0.008987 13 14 18
-0.030584 -0.027310 0.020687 153 154 156
0.042093 -0.026364 0.027187 162 162 162
0.026003 0.027289 -0.018213 144 144 146
-0.024657 -0.022133 0.020987 159 160 162
-0.011139 0.026729 -0.018713 39 36 39
-0.039640 -0.014028 -0.017113 159 159 159
0.007413 -0.044274 0.022987 171 172 175
0.032358 -0.004264 0.026387 142 144 133
0.034586 0.014049 -0.004413 38 44 23
-0.036968 -0.008815 -0.016813 157 161 160
0.044203 -0.046585 0.026487 162 161 161
-0.041328 -0.025027 -0.016113 158 158 158
0.029517 -0.037106 0.027087 164 166 165
-0.026963 0.006482 0.018687 163 172 168
0.004560 0.014322 0.000987 123 109 83
-0.006509 0.000982 -0.056213 154 156 155
0.018581 0.012403 0.001187 110 103 82
-0.023726 0.024788 0.001287 22 22 22
0.008823 -0.049828 0.022487 170 172 171
-0.006522 0.000929 -0.056213 156 158 157
-0.018259 -0.045128 0.022387 170 174 175
-0.037840 -0.033664 -0.002113 166 168 167
-0.006503 0.000892 -0.056213 158 158 158
-0.033078 0.011848 0.013787 15 16 18
-0.035988 -0.044480 0.020287 163 167 168
-0.038567 0.035930 0.004087 39 39 41
0.007331 0.024325 -0.020113 57 45 30
0.000071 0.017521 -0.006713 86 83 77
0.068481 -0.041330 0.023687 150 150 150
-0.006407 0.001008 -0.056213 23 22 19
0.037679 0.003101 0.020087 168 172 150
0.052225 -0.020733 0.030687 119 119 119
-0.006514 0.001009 -0.056213 114 116 110
0.003849 -0.043291 0.023387 171 172 174
-0.035361 -0.003829 0.009587 32 33 35
0.036223 -0.051588 0.027187 164 164 164
-0.052601 0.035011 -0.003713 42 24 12
-0.006509 0.001024 -0.056213 3 3 4
0.059456 -0.010672 0.023987 110 110 110
-0.034278 -0.016188 -0.017113 20 19 24
0.056783 -0.046858 0.026687 157 157 157
0.021660 0.019691 -0.014313 92 83 59
-0.006144 -0.039506 0.023687 171 172 174
-0.026059 0.013698 0.012987 8 6 11
-0.032790 -0.014831 -0.015013 152 154 153
0.064480 -0.016652 0.005387 126 126 126
-0.006512 0.000997 -0.056213 70 59 42
-0.040468 0.003515 0.011787 133 137 136
0.046439 -0.027191 0.027287 159 157 158
-0.065005 0.001699 0.011287 151 153 152
-0.006507 0.001007 -0.056213 141 141 139
-0.041208 -0.021592 -0.016513 158 158 158
0.056879 -0.009012 0.025387 68 68 68
0.021919 0.011676 0.001987 40 55 36
0.057166 0.033178 -0.004413 140 141 142
0.042201 0.037288 -0.005013 87 88 93
0.021654 0.022260 -0.017213 124 106 81
-0.006515 0.000944 -0.056213 161 163 162
-0.031299 -0.018194 0.010787 157 159 158
-0.039376 -0.013822 0.003887 115 118 120
0.059144 -0.040876 0.026087 158 158 158
0.028711 0.017337 -0.015213 124 118 93
-0.037226 0.001572 0.011487 10 11 16
0.035380 0.019225 -0.013913 125 108 82
0.010662 -0.037537 0.023387 169 171 170
0.060613 -0.036888 0.025587 161 161 161
-0.003307 -0.018664 0.022387 165 169 168
-0.004530 0.016489 -0.000613 131 133 130
-0.025450 0.017313 0.012687 5 6 10
-0.001135 -0.031410 0.023587 169 171 170
0.024427 0.025608 -0.018013 147 147 147
-0.006493 0.000992 -0.056213 45 46 41
0.068157 -0.008475 0.020987 131 131 131
0.007616 -0.037640 0.023287 169 172 170
0.027045 -0.016215 0.025687 163 165 164
0.038234 -0.033586 0.027387 163 165 164
0.015744 0.025597 -0.018913 127 110 92
-0.002648 -0.030387 0.023687 169 171 170
-0.013596 -0.005788 0.020487 150 154 153
-0.006517 0.000895 -0.056213 155 156 158
0.065368 -0.012282 0.021787 127 127 127
-0.006517 0.000960 -0.056213 156 158 157
-0.039469 -0.006016 -0.016513 160 162 161
0.023281 0.022318 -0.017513 125 113 90
-0.012605 0.002214 0.019087 162 166 165
-0.025254 0.027404 -0.004713 14 14 14
0.046406 -0.000990 0.027487 51 51 45
-0.006503 0.001020 -0.056213 2 2 4
-0.008541 0.024578 -0.017913 19 19 22
-0.016593 0.012947 0.013987 14 15 19
0.013158 -0.000749 0.023687 166 167 165
-0.006523 0.000987 -0.056213 143 143 145
-0.006512 0.000987 -0.056213 102 95 76
-0.050143 0.017180 0.008487 6 6 8
-0.062072 0.015941 0.003087 87 80 66
-0.006408 0.000996 -0.056213 88 89 87
-0.052172 0.025735 -0.002813 7 3 3
-0.006511 0.000958 -0.056213 159 161 160
-0.006495 0.000912 -0.056213 158 160 159
0.042966 -0.039969 0.026787 163 166 165
-0.037126 -0.023436 0.004187 125 126 126
-0.018242 0.027299 -0.018613 16 15 20
-0.014683 0.020012 0.005687 101 100 36
0.019038 -0.031403 0.025487 167 169 168
-0.035566 -0.038649 0.022287 162 163 165
-0.051128 0.021981 0.008487 3 3 5
0.053340 -0.028010 0.028287 155 155 155
-0.006508 0.001021 -0.056213 2 2 5
-0.001222 0.012904 0.006087 123 112 88
0.057034 -0.006858 0.025587 95 95 94
0.050818 -0.046194 0.027187 161 161 161
-0.006501 0.000923 -0.056213 159 161 160
-0.025884 -0.033945 0.021787 164 165 167
0.062558 -0.015311 0.006087 127 127 127
0.019671 0.021003 -0.016613 116 100 75
-0.029416 -0.047158 0.018787 170 171 173
-0.006500 0.000936 -0.056213 160 162 161
0.028785 0.022780 -0.017213 137 124 104
-0.051678 0.039164 0.006187 10 10 12
0.043589 0.020444 -0.013713 137 124 106
0.032488 0.023352 -0.015913 155 151 146
0.043767 -0.051963 0.026287 160 160 160
-0.041835 0.016508 0.009287 12 12 14
-0.006719 0.019033 -0.005913 6 7 9
0.034296 0.015587 -0.007813 105 99 74
0.005953 -0.008967 0.021387 156 160 159
-0.006445 0.000912 -0.056213 157 158 160
-0.066704 0.009014 0.010187 88 81 71
-0.038722 -0.023204 -0.001313 18 18 22
0.029625 -0.015320 0.025887 160 162 161
0.054036 0.009423 0.004087 131 119 101
-0.006512 0.001016 -0.056213 137 137 135
0.021370 0.025016 -0.017913 132 125 116
0.032686 -0.029818 0.027087 165 167 166
-0.006902 -0.034509 0.023387 170 171 173
-0.010877 0.026220 -0.018513 17 18 21
-0.051646 0.027716 -0.002713 45 23 13
-0.004252 -0.003465 0.020687 151 153 152
-0.006516 0.000939 -0.056213 159 161 160
0.014318 0.016736 -0.006213 121 104 76
-0.035750 -0.005108 -0.016013 54 58 59
0.019902 0.023234 -0.017713 125 109 84
0.001210 0.024744 -0.016913 109 109 107
-0.032736 0.012480 0.013587 15 17 19
-0.014839 -0.017923 0.021187 161 165 166
-0.033834 -0.002964 -0.015213 20 23 26
0.092616 -0.039398 0.026587 138 138 138
0.074282 0.000658 0.014387 62 61 57
0.054509 0.035146 -0.003813 140 140 142
-0.029947 -0.011366 0.014787 153 154 156
0.026704 -0.003542 0.027587 124 128 117
-0.008699 -0.023841 0.022687 165 169 168
-0.000125 0.005871 0.015987 46 33 27
-0.032523 0.001634 0.018287 90 92 91
0.021973 -0.045616 0.025887 167 169 168
0.005775 0.020398 -0.012913 107 93 67
0.018224 0.015611 -0.004813 109 94 72
0.031416 -0.018718 0.026387 160 162 161
-0.024502 -0.025272 0.021587 157 158 160
0.001087 0.016560 -0.004913 108 94 75
0.043574 0.012115 -0.002813 108 89 77
-0.009925 -0.004149 0.019987 149 153 152
0.004468 -0.040314 0.023487 170 172 171
-0.006417 0.001013 -0.056213 11 11 11
0.060426 -0.025067 0.023687 139 139 139
0.022529 -0.006897 0.024387 163 165 164
-0.033001 -0.014756 -0.015413 153 155 154
0.018210 0.005959 0.009887 51 61 52
0.007460 0.025085 -0.020313 78 67 49
-0.025142 -0.040177 0.021787 166 167 169
-0.014068 0.026872 -0.018713 12 11 16
-0.006512 0.001012 -0.056213 133 133 131
-0.037446 -0.027051 -0.008013 33 36 35
0.092653 -0.032428 0.026487 135 135 135
0.045161 -0.010640 0.029387 55 55 52
-0.028430 0.022800 0.007287 58 60 59
-0.006299 0.000935 -0.056213 132 132 132
-0.016425 0.017857 0.007787 98 100 32
0.015506 0.024443 -0.018713 113 99 77
0.015157 0.012623 0.006487 127 113 86
0.037311 0.016730 -0.009613 51 64 36
0.010608 0.024476 -0.019113 105 90 69
0.087376 -0.048247 0.025587 138 138 138
-0.006503 0.000895 -0.056213 156 159 156
0.045241 0.022065 -0.013213 141 141 141
-0.017032 -0.001794 0.018987 152 156 157
0.034493 0.022543 -0.014813 134 119 99
0.050958 0.013174 -0.007513 56 38 28
0.056500 -0.026499 0.029087 123 122 122
0.006328 0.010714 0.006487 136 121 87
0.031730 -0.019661 0.026387 162 164 163
0.027389 0.011705 0.000387 48 82 50
0.042377 0.031782 -0.006813 89 89 88
0.045528 -0.012237 0.029187 57 57 57
0.033220 0.003597 0.021887 166 163 160
0.045531 0.030713 -0.004413 145 145 144
-0.051163 0.027813 -0.002313 32 23 17
-0.054691 0.007764 0.012887 147 149 148
0.008205 -0.021804 0.022387 168 170 169
0.045075 -0.003170 0.029787 43 41 40
0.043647 0.028704 -0.005913 146 148 143
-0.038187 -0.004821 -0.016413 159 161 160
0.014268 0.021412 -0.017413 112 97 72
-0.036045 -0.034120 0.000987 163 165 164
0.018587 0.012141 0.003287 109 103 77
-0.039460 0.034071 0.005987 32 32 34
0.027015 0.023381 -0.017713 152 147 144
-0.006495 0.000909 -0.056213 158 160 159
-0.006515 0.000899 -0.056213 155 157 156
-0.051200 -0.002673 0.011387 154 155 157
0.040160 0.000769 0.024387 155 157 141
-0.006511 0.001021 -0.056213 33 33 36
0.068606 -0.011602 0.012387 64 64 64
0.005891 -0.047076 0.022887 171 172 174
0.056261 -0.013134 0.024987 56 56 57
0.012210 -0.021948 0.022887 168 170 169
-0.013633 -0.015503 0.020887 157 161 162
0.032640 0.015611 -0.007113 67 104 61
-0.006311 0.001017 -0.056213 133 132 137
-0.006507 0.000956 -0.056213 161 163 162
-0.006499 0.000948 -0.056213 163 165 164
0.077172 -0.005515 0.012887 81 82 77
-0.046136 -0.003682 0.011087 151 153 149
-0.006518 0.000923 -0.056213 157 159 158
-0.033562 -0.004487 -0.014913 22 21 26
-0.041763 -0.023074 -0.016313 158 158 158
-0.006493 0.001020 -0.056213 42 26 14
0.034697 -0.050512 0.026987 163 165 164
-0.031982 -0.003802 -0.014013 23 24 25
-0.006441 0.001029 -0.056213 16 15 20
-0.062738 0.016907 0.002487 52 39 23
-0.006508 0.001008 -0.056213 140 142 138
-0.033700 0.041111 0.001787 14 14 16
-0.002814 0.022368 -0.011013 44 46 43
0.005106 0.022401 -0.016113 99 84 65
0.002620 0.021298 -0.012213 29 25 22
0.003001 -0.008376 0.021387 154 158 157
0.008656 -0.035024 0.023187 169 171 170
0.063276 -0.013628 0.005987 126 126 126
-0.000449 0.019424 -0.008613 66 65 64
-0.006514 0.000892 -0.056213 155 157 156
-0.048763 0.035813 0.007887 20 20 22
0.071605 -0.042763 0.024087 147 147 147
0.065167 0.007506 0.007787 142 142 142
-0.036691 -0.029435 0.002887 155 156 158
0.044387 -0.014875 0.030287 60 60 58
0.047205 0.019204 -0.012613 129 112 94
-0.006494 0.000912 -0.056213 158 160 159
-0.021581 0.018058 0.013587 7 8 12
0.051967 0.033203 -0.004213 142 141 145
-0.006497 0.000947 -0.056213 162 164 163
-0.006314 0.000966 -0.056213 124 114 94
-0.026198 -0.008170 0.018487 146 150 151
0.042267 0.016352 -0.010213 132 115 95
0.016205 0.021728 -0.017513 116 99 71
0.015060 0.007488 0.017187 156 156 154
-0.037264 -0.027311 -0.005913 35 36 38
-0.006505 0.000993 -0.056213 79 65 48
-0.006468 0.000928 -0.056213 163 165 168
0.029443 -0.021022 0.026187 162 164 163
-0.006510 0.000895 -0.056213 156 157 159
0.032892 -0.042069 0.027187 164 166 165
0.032334 0.022124 -0.015913 136 120 95
0.016628 0.022827 -0.017913 114 97 71
0.007910 0.024398 -0.020213 81 69 54
0.009400 0.016579 -0.006713 128 112 86
-0.023597 0.021239 0.010087 4 5 7
0.063331 -0.003004 0.023187 129 129 129
0.051947 -0.003827 0.026987 57 51 50
0.016691 -0.032708 0.024887 167 169 168
0.046784 -0.007257 0.028087 45 45 45
0.060593 -0.008981 0.023887 117 117 117
-0.011550 -0.027443 0.022687 165 169 170
-0.006513 0.000995 -0.056213 66 57 48
0.066476 -0.019005 0.021387 135 135 135
0.012107 0.000781 0.019387 69 49 35
-0.006448 0.001026 -0.056213 18 18 20
0.055674 0.031305 -0.004913 139 139 139
0.007643 -0.047794 0.022587 171 173 172
0.019038 -0.026274 0.025487 167 169 168
-0.006520 0.000917 -0.056213 157 159 158
0.034972 -0.004119 0.026587 128 128 120
-0.049615 0.037648 -0.001413 2 2 4
-0.001554 0.011532 0.006387 121 104 80
-0.018589 -0.035802 0.022587 165 169 170
0.042235 -0.028953 0.026887 162 162 162
0.066982 -0.015524 0.020987 134 134 134
0.019599 -0.034797 0.025787 167 169 168
0.008353 0.022263 -0.017613 114 99 78
-0.046327 0.023528 0.008687 7 7 7
-0.006516 0.000940 -0.056213 160 162 161
0.014500 0.019512 -0.010413 118 102 76
-0.028317 -0.002300 0.017487 133 138 137
-0.006420 0.001015 -0.056213 15 15 17
-0.056485 0.011754 0.013187 155 157 156
-0.021410 0.028713 -0.006413 80 80 80
0.047836 0.012069 -0.003513 56 39 31
-0.024604 -0.045281 0.021387 170 171 173
-0.037892 -0.018229 0.001987 15 16 20
0.002415 0.018081 -0.008313 106 94 70
0.026059 0.015342 -0.004013 36 53 35
0.027774 0.017962 -0.015213 118 108 82
0.047105 -0.007257 0.028087 51 51 51
-0.052113 0.019511 0.006787 5 5 3
0.004112 -0.024721 0.023087 167 171 170
-0.006463 0.000938 -0.056213 150 152 150
0.003456 -0.005876 0.021487 153 155 154
-0.006350 0.000969 -0.056213 107 109 82
-0.024732 0.004353 0.018887 164 170 170
-0.036974 -0.025136 -0.016413 158 160 159
-0.032499 -0.012875 0.011587 142 143 145
-0.039678 -0.021928 -0.001113 143 148 146
0.019079 0.020953 -0.016713 111 95 70
-0.035909 -0.004240 -0.016213 154 160 158
-0.006494 0.001017 -0.056213 33 22 15
0.018848 0.021255 -0.014213 121 106 77
0.017162 -0.049979 0.024387 168 170 169
0.027092 -0.053309 0.026187 165 167 166
-0.020728 -0.045935 0.021987 171 172 174
0.031779 0.021995 -0.016013 137 119 95
-0.036134 -0.038659 0.020287 161 162 164
0.021367 0.017123 -0.010013 38 43 32
0.005412 0.017405 -0.007613 114 100 74
0.063811 -0.022087 0.006787 68 68 70
0.048766 0.003846 0.016887 134 120 91
-0.070776 0.005722 0.010087 147 148 147
-0.028202 -0.035780 0.021587 162 163 165
-0.036898 -0.023861 -0.016513 159 157 160
-0.065618 0.009545 0.010387 121 117 108
-0.031639 -0.039532 0.021687 164 165 167
0.002000 0.025551 -0.017413 107 107 105
-0.006751 -0.041224 0.023487 171 172 174
-0.006500 0.000893 -0.056213 158 158 158
0.068134 -0.023887 0.021887 136 136 136
0.060368 -0.048067 0.025287 154 154 154
-0.012751 -0.033597 0.022687 168 169 171
0.007557 -0.000895 0.017387 55 39 31
-0.038006 -0.011320 0.005687 13 16 15
0.054659 -0.005536 0.026587 61 61 58
0.005430 0.010041 0.006787 125 112 83
-0.052462 0.030080 -0.003413 48 30 18
0.064074 -0.004446 0.014387 108 108 108
0.000394 -0.003005 0.020287 148 150 149
0.011073 -0.027623 0.023187 168 170 169
-0.023847 -0.017197 0.019387 157 161 162
0.035324 0.020775 -0.014213 137 121 96
-0.006520 0.000967 -0.056213 148 149 151
0.013733 0.011976 0.006887 134 123 95
0.019339 0.017294 -0.008213 104 92 69
0.038500 -0.023945 0.027587 159 161 160
0.066004 -0.018730 0.005287 126 124 128
-0.004730 0.024824 -0.017513 31 31 33
0.050681 -0.052095 0.026987 158 158 158
-0.004513 -0.013952 0.021987 156 160 161
-0.006493 0.000951 -0.056213 162 164 163
0.076799 -0.000252 0.012687 114 111 104
-0.006509 0.001000 -0.056213 75 69 52
-0.023718 -0.023581 0.021387 157 158 160
0.082349 -0.039271 0.025687 143 143 143
-0.033412 -0.011567 -0.016413 19 19 24
0.011484 -0.010042 0.021687 159 163 162
-0.051224 0.026498 -0.001613 2 2 4
0.009391 -0.032414 0.023087 169 171 170
-0.006506 0.001025 -0.056213 2 2 4
0.066495 -0.029395 0.022687 138 138 138
-0.050174 0.038278 -0.002013 3 2 3
-0.044720 0.003782 0.011987 150 152 151
-0.017117 -0.041004 0.022787 168 172 173
-0.006494 0.000893 -0.056213 158 158 158
0.033247 0.008935 0.001387 54 93 57
-0.006519 0.000950 -0.056213 159 161 160
0.053288 -0.030950 0.027987 152 152 152
0.043123 -0.039811 0.026787 163 162 163
-0.006521 0.000971 -0.056213 145 146 148
0.002278 0.016079 -0.004213 108 96 73
0.023674 0.010857 0.002387 43 56 40
0.046990 -0.015973 0.029187 60 60 61
0.025561 -0.041654 0.026687 166 168 167
-0.028317 -0.002019 0.017487 129 134 133
-0.055372 -0.005108 0.011287 154 158 157
0.019561 0.018892 -0.011313 114 106 78
-0.006448 0.001022 -0.056213 39 39 39
-0.006300 -0.004037 0.020487 149 153 152
-0.006309 0.000968 -0.056213 115 106 91
-0.035321 -0.013507 -0.017113 31 32 36
-0.070109 0.013110 0.009787 72 60 46
0.052021 0.004341 0.015587 133 125 104
-0.040045 0.013530 0.010687 13 11 18
-0.004639 0.026086 -0.018713 104 106 105
0.021136 -0.038263 0.026187 167 169 168
-0.026857 -0.002031 0.017787 137 138 140
0.060444 0.000923 0.022987 153 153 153
0.013941 0.021675 -0.017613 113 97 72
-0.006508 0.001027 -0.056213 4 2 4
0.048658 0.037457 -0.002313 142 141 147
0.067288 -0.007295 0.013487 87 87 87
0.049421 0.013048 -0.005713 57 44 36
-0.065909 0.006875 0.010287 140 138 135
0.020781 0.011054 0.002887 42 55 37
0.046280 -0.027350 0.027287 159 157 158
0.035370 0.017316 -0.011413 127 115 91
-0.037074 0.019800 0.008187 9 10 12
-0.007279 0.026304 -0.018813 73 75 74
-0.022104 0.021662 0.005687 10 12 14
-0.034246 -0.008535 -0.016413 26 25 30
-0.034624 -0.031230 0.007087 158 159 161
-0.032337 0.027805 0.007987 74 74 74
-0.036598 -0.031799 0.002487 158 160 159
-0.006304 0.000922 -0.056213 135 135 135
0.007714 -0.025593 0.022987 169 171 170
-0.021281 0.011987 0.014687 7 8 12
-0.064658 0.010503 0.010887 129 125 115
0.046579 -0.023170 0.028787 156 159 158
-0.027984 -0.003298 0.017787 138 144 144
-0.006511 0.000992 -0.056213 163 163 157
0.056107 -0.015256 0.024787 63 63 61
-0.006301 0.000926 -0.056213 136 136 136
0.023246 -0.034901 0.026387 167 169 168
0.056017 -0.008292 0.025887 57 57 59
0.035240 0.011302 -0.002813 44 80 38
0.053714 0.033276 -0.004413 141 141 143
0.049933 -0.009720 0.027287 72 71 69
0.070606 -0.024957 0.021087 135 135 135
-0.006513 0.001025 -0.056213 32 32 35
-0.050560 0.031611 -0.001013 32 23 15
-0.070263 0.012088 0.009687 72 60 43
-0.038842 -0.023605 -0.001813 18 24 27
-0.006495 0.000980 -0.056213 62 55 38
-0.006512 0.000979 -0.056213 147 149 148
-0.011445 0.017468 0.004987 20 18 2
0.030608 -0.000762 0.024287 170 172 150
0.015878 0.003388 0.019987 46 26 18
-0.006512 0.000932 -0.056213 159 161 160
0.050810 0.015133 -0.008413 51 38 30
-0.064357 0.013021 0.010687 73 61 40
0.065594 -0.024892 0.022687 137 137 137
-0.036556 0.035920 0.003287 27 28 30
0.032668 -0.037720 0.027387 164 166 165
-0.006512 0.000898 -0.056213 155 156 158
-0.055830 0.015983 0.005587 15 15 14
-0.006502 0.000988 -0.056213 67 60 47
0.002258 0.015169 0.000887 116 100 73
-0.010915 -0.048676 0.022087 173 175 174
0.025060 -0.016463 0.025387 164 166 165
0.033858 0.018079 -0.010513 128 112 86
0.019219 -0.019673 0.024587 166 168 167
-0.035980 0.003553 0.012787 10 11 15
-0.038561 -0.024466 -0.016513 159 159 159
-0.049395 0.046469 0.011787 38 38 40
-0.002526 0.018610 -0.004913 122 122 120
-0.006500 0.000931 -0.056213 159 161 160
-0.006522 0.000951 -0.056213 158 160 159
-0.034181 -0.018971 -0.016613 39 39 41
-0.006505 0.001005 -0.056213 131 131 129
-0.051490 0.023348 0.002387 0 1 3
-0.001720 0.025841 -0.018213 110 112 109
0.009228 0.019410 -0.010013 116 100 74
-0.025161 0.004639 0.018887 166 172 172
0.060984 -0.014174 0.007287 130 130 130
0.050994 0.001837 0.023887 135 127 121
0.011174 0.024476 -0.019113 105 90 71
0.069434 -0.009137 0.013387 78 78 78
-0.039855 -0.005351 -0.016413 160 162 161
-0.006519 0.000913 -0.056213 156 158 157
0.053967 -0.008808 0.026287 46 46 45
0.020335 0.020952 -0.014513 116 99 76
-0.013514 -0.017923 0.021187 161 165 166
-0.032933 -0.008027 -0.014913 19 17 23
-0.005569 0.027515 -0.018813 110 112 111
-0.006500 0.000901 -0.056213 157 159 158
0.027255 -0.025853 0.026587 164 166 165
0.067818 -0.015335 0.020787 135 135 135
-0.004813 -0.013191 0.021887 155 159 159
-0.051900 0.031757 -0.002413 44 26 14
-0.006516 0.001014 -0.056213 128 128 126
-0.050785 0.036123 -0.001513 7 0 0
-0.043831 -0.001121 0.011087 144 145 147
-0.026943 -0.010166 0.017587 146 150 151
-0.006521 0.000903 -0.056213 155 158 156
-0.035459 0.013868 0.012487 11 12 16
0.059820 0.012608 -0.002413 137 136 135
0.011025 0.016609 -0.006913 123 106 80
0.006827 -0.026381 0.023087 169 171 170
0.014577 0.023872 -0.018713 112 97 74
0.033906 -0.022976 0.026987 161 163 162
-0.030231 0.016482 0.012487 7 7 9
-0.037066 -0.033192 0.004987 158 159 161
-0.006507 0.000946 -0.056213 163 165 164
-0.043368 0.003908 0.011887 145 147 146
0.062752 -0.015034 0.022187 127 127 127
-0.005488 0.023423 -0.011313 5 7 9
0.054698 -0.046092 0.027287 159 159 159
0.024500 0.025681 -0.018013 147 147 147
-0.014980 0.026162 -0.002113 8 6 7
-0.048387 0.036069 0.007687 21 21 23
0.002201 0.002599 0.017087 46 32 35
-0.004622 -0.040470 0.023787 171 174 171
-0.006508 0.000920 -0.056213 158 160 159
-0.019108 -0.046889 0.022087 169 175 175
-0.024161 -0.000067 0.018287 143 147 148
0.040856 -0.053638 0.026687 163 163 163
-0.049292 0.038555 0.001087 11 11 13
-0.006521 0.001029 -0.056213 39 41 38
0.039279 -0.051273 0.026687 163 163 163
-0.011678 0.023557 -0.017913 19 19 22
-0.012767 -0.037446 0.022887 171 172 174
-0.056678 0.020670 -0.003313 142 144 142
-0.016099 0.025563 -0.001613 15 16 18
0.033555 0.018146 -0.011913 127 115 88
0.062554 -0.001357 0.023687 133 133 133
0.019224 -0.027708 0.025587 167 169 168
-0.006511 0.000939 -0.056213 162 164 163
0.013232 -0.036759 0.023987 169 171 170
-0.053143 0.022265 -0.005513 31 33 32
0.010242 0.026529 -0.019913 98 89 72
0.034207 0.017681 -0.010413 123 109 82
-0.030908 0.018236 0.012187 5 5 7
-0.008538 -0.048056 0.022287 171 175 174
-0.052269 0.015021 0.008187 12 12 15
-0.024041 -0.013095 0.018987 150 154 155
-0.000036 0.016386 -0.004513 40 38 29
0.054417 -0.004598 0.026687 60 60 58
0.034145 -0.004408 0.026187 149 150 142
0.029791 -0.038960 0.026987 165 167 166
0.001724 -0.017796 0.021887 165 169 168
0.063935 -0.025358 0.023187 139 139 139
0.062579 -0.022919 0.007087 68 68 70
-0.014252 -0.034347 0.022687 170 171 173
0.003558 -0.043043 0.023487 171 172 174
-0.002174 0.022457 -0.012413 46 45 43
-0.050136 0.036813 -0.001413 2 3 4
0.006392 0.023046 -0.018413 83 74 57
-0.035980 -0.036116 0.006387 162 163 165
-0.032482 0.006647 0.018987 132 133 132
0.004401 0.022674 -0.015013 102 93 71
0.022718 0.016743 -0.014513 42 55 38
-0.006494 0.000931 -0.056213 159 161 160
-0.033001 -0.014523 -0.015413 153 155 154
-0.049654 0.043882 0.011787 36 36 38
0.014087 0.025470 -0.019213 109 97 79
0.011522 0.022389 -0.017913 104 88 63
-0.006517 0.001014 -0.056213 124 125 117
-0.006491 0.001021 -0.056213 42 24 14
-0.031509 -0.027928 0.020387 153 154 156
0.050182 0.013256 -0.006813 52 34 25
0.033905 0.007414 0.006887 61 97 59
-0.006438 0.000994 -0.056213 36 36 36
0.024868 0.019176 -0.016813 55 74 50
0.060112 -0.030664 0.024787 130 130 130
-0.046450 0.030196 0.008687 13 13 15
-0.031538 -0.013320 0.012487 150 151 153
-0.068743 0.004375 0.010887 144 146 145
-0.033048 -0.016372 -0.015813 152 154 153
0.017887 0.013364 0.000587 119 107 81
-0.052289 0.031573 -0.002913 44 26 14
-0.042276 0.011505 0.013287 174 178 177
0.027426 0.027934 -0.017913 131 132 133
-0.041486 -0.006055 0.008187 138 142 141
0.064142 0.003857 0.013787 132 132 132
-0.006470 0.000925 -0.056213 81 81 84
-0.002985 0.022687 -0.012113 45 45 43
-0.033551 -0.028633 0.015387 148 150 149
-0.006503 0.001026 -0.056213 4 1 4
-0.032418 -0.016559 0.010387 149 152 151
-0.024365 0.011627 0.014087 8 9 13
0.007225 0.020431 -0.011113 110 96 70
-0.051376 0.032662 0.000687 8 1 0
-0.006440 0.001026 -0.056213 17 16 21
-0.006438 0.000953 -0.056213 52 53 54
0.003243 -0.033903 0.023387 170 171 173
0.012153 -0.045958 0.023287 171 173 172
-0.006523 0.000894 -0.056213 153 154 156
0.046987 0.009030 0.002887 77 76 78
-0.046883 0.015568 0.008987 9 9 11
-0.033802 -0.032722 0.020687 155 156 158
-0.002040 -0.044370 0.023687 172 173 175
0.064402 0.008735 0.006887 147 147 147
-0.006521 0.000959 -0.056213 157 159 158
0.059304 -0.024249 0.023987 137 137 137
0.001187 0.017845 -0.007413 90 76 61
0.033368 -0.042704 0.027187 164 166 165
-0.043684 0.017646 0.008387 12 12 14
0.015820 0.021634 -0.017413 116 98 72
0.080521 -0.042021 0.025287 143 143 143
-0.012166 -0.014330 0.020887 153 157 158
0.010511 -0.035720 0.023387 168 170 169
0.023554 0.025390 -0.018013 147 147 145
-0.038516 -0.019561 -0.017213 157 159 158
0.018692 0.025117 -0.018213 130 115 92
-0.000866 0.026714 -0.018313 111 110 109
-0.014392 -0.031455 0.022587 167 171 171
-0.011269 -0.039152 0.022987 168 172 171
-0.006507 0.000998 -0.056213 115 112 96
-0.054106 0.016664 0.005487 6 6 8
-0.061415 0.016929 0.002987 58 49 32
-0.017226 -0.025725 0.022487 161 165 166
-0.006520 0.000952 -0.056213 159 161 160
0.067059 -0.020989 0.005387 66 66 68
-0.006519 0.000911 -0.056213 156 158 157
-0.006432 0.000994 -0.056213 49 48 50
0.015550 0.023922 -0.018513 115 100 77
-0.002614 0.020634 -0.009613 43 43 41
-0.051676 0.031506 -0.002313 46 29 16
-0.002267 0.024305 -0.016513 43 43 43
0.024353 0.017666 -0.016113 49 64 43
-0.017130 -0.003841 0.019687 153 157 158
-0.055316 -0.002545 0.011387 157 159 158
-0.000671 0.018121 -0.006613 36 36 34
0.051548 -0.039503 0.027787 162 162 162
-0.006510 0.001005 -0.056213 134 135 129
0.036065 0.019940 -0.014113 135 120 97
0.063255 -0.018714 0.022587 134 134 134
-0.063555 0.013888 0.002987 101 97 88
0.020288 -0.036604 0.025987 167 169 168
-0.006311 0.000973 -0.056213 53 44 45
0.071977 -0.050297 0.023687 145 145 145
-0.006506 0.000976 -0.056213 155 155 153
0.027188 0.021433 -0.017513 122 117 90
-0.054086 0.026422 -0.004913 2 2 4
-0.006301 0.000925 -0.056213 136 136 136
-0.017960 -0.028831 0.022387 162 166 167
-0.006443 0.001005 -0.056213 36 36 34
-0.006516 0.000954 -0.056213 160 162 161
0.006783 0.021143 -0.015413 111 96 73
-0.011064 -0.049123 0.022087 175 177 176
-0.038281 -0.026378 -0.004413 18 18 20
0.000595 0.013825 0.005387 126 111 88
-0.004722 -0.001230 0.019287 107 111 110
0.034934 0.011250 -0.002013 46 84 45
0.036627 0.018093 -0.011613 122 108 86
0.023837 -0.029679 0.026287 166 168 167
0.012270 0.004353 0.018887 71 53 47
-0.006517 0.000963 -0.056213 151 153 152
0.024556 -0.003884 0.025287 166 168 165
0.027728 -0.008048 0.025087 161 163 162
0.011794 0.026809 -0.019713 107 100 84
-0.034729 -0.016249 -0.017313 20 21 25
-0.038157 -0.021160 -0.017013 156 158 157
-0.006505 0.000923 -0.056213 159 161 160
-0.022043 0.023500 0.002787 4 7 5
0.036957 -0.035944 0.027687 163 165 164
-0.006441 0.000994 -0.056213 71 72 75
-0.010330 -0.047459 0.022287 173 175 174
-0.010054 -0.025526 0.022787 165 169 170
-0.049083 0.035118 0.008187 18 18 20
0.061306 -0.015116 0.022587 122 122 122
0.080628 -0.041452 0.025387 143 143 143
0.028136 -0.015280 0.025687 161 163 162
0.085396 -0.047099 0.025487 141 141 141
0.049712 0.026986 -0.006813 145 143 146
-0.035767 -0.008915 -0.016713 53 59 58
-0.033433 -0.021143 -0.015813 151 152 154
0.003509 0.015138 -0.002913 119 108 82
-0.005927 0.027302 -0.018913 109 111 110
0.032870 0.004471 0.021487 160 164 155
-0.034576 -0.014922 -0.017113 18 19 23
-0.035120 0.007555 0.014887 23 23 25
0.033603 0.010164 0.000187 48 89 52
0.027740 -0.013065 0.025487 161 163 162
-0.035768 -0.012125 -0.017013 46 52 52
0.010384 -0.047316 0.022787 169 171 170
0.035558 0.003496 0.018887 154 156 133
0.062270 -0.043298 0.024787 151 151 151
-0.006521 0.000970 -0.056213 147 148 150
0.003548 0.016632 -0.005313 109 98 74
-0.053288 0.018432 0.001987 2 2 4
0.008909 0.020731 -0.011213 115 99 73
-0.006503 0.001025 -0.056213 2 2 4
-0.056161 -0.003194 0.011487 156 158 157
-0.013299 -0.048676 0.022087 174 175 177
-0.051318 0.028931 0.009487 8 8 10
0.008048 0.024604 -0.020213 90 77 61
-0.051860 0.003010 0.012187 149 151 150
-0.028188 -0.012786 0.016587 153 154 156
-0.002798 0.018615 -0.004613 125 125 123
-0.006515 0.000906 -0.056213 156 158 157
0.045802 0.010983 -0.001213 69 53 47
0.066111 -0.034901 0.023587 150 150 150
0.001732 0.014919 0.002587 112 100 74
0.039123 0.018831 -0.013113 129 111 87
-0.036123 -0.037423 0.006187 164 165 167
-0.050291 0.035422 0.001687 2 2 4
0.048425 -0.053008 0.026687 158 158 158
0.068248 -0.011636 0.006087 138 138 138
0.028637 0.000771 0.023287 78 69 58
0.057342 -0.053309 0.026187 156 156 156
-0.032775 -0.010287 -0.016113 23 23 25
-0.006312 0.000974 -0.056213 52 38 35
-0.032452 0.019633 0.008887 13 15 20
-0.053129 0.023059 0.007687 1 1 3
-0.025969 0.026719 -0.004113 49 49 50
-0.006426 0.000969 -0.056213 40 40 42
-0.038745 0.006333 0.013087 33 40 40
-0.006008 -0.003453 0.020487 148 152 151
0.017769 0.005903 0.014487 151 154 151
-0.031497 -0.025205 0.014587 157 158 160
0.044189 0.006929 0.009487 89 87 85
-0.004428 0.009254 0.014387 115 115 113
0.067376 -0.024878 0.022187 136 136 136
0.002509 0.016797 -0.005713 107 92 69
-0.032764 -0.009702 -0.016013 19 18 24
0.066146 -0.003391 0.021987 131 131 131
0.002447 0.010055 0.006887 132 118 93
-0.006403 0.001012 -0.056213 50 51 51
0.010291 0.020344 -0.010713 114 98 72
0.043644 0.018159 -0.012313 130 112 90
-0.030369 -0.017873 0.012887 157 158 160
-0.006445 0.001005 -0.056213 45 45 44
0.050908 -0.002406 0.027087 46 45 43
-0.006504 0.000999 -0.056213 142 143 138
0.031167 -0.015849 0.026187 160 162 161
-0.006300 0.000930 -0.056213 135 135 135
-0.006503 0.000917 -0.056213 159 161 160
0.035699 0.013575 -0.005913 39 76 41
-0.006496 0.000939 -0.056213 161 163 162
0.044448 -0.028637 0.026887 161 161 161
0.055486 -0.014097 0.025187 58 58 54
-0.036681 -0.026219 0.003987 147 148 150
-0.006521 0.000980 -0.056213 143 144 146
-0.006508 0.000942 -0.056213 162 164 163
-0.037952 -0.023756 -0.001013 18 15 22
-0.004543 0.021336 -0.009013 46 47 48
-0.006507 0.000968 -0.056213 140 144 137
0.000852 0.026117 -0.018013 109 109 107
-0.045339 0.024022 0.008687 7 7 9
-0.015328 0.024828 -0.018213 18 18 20
-0.036788 -0.005636 0.008887 17 17 18
0.055932 -0.004721 0.026187 79 79 79
0.050181 0.035086 -0.002813 145 146 150
-0.021542 -0.022756 0.021587 159 160 162
-0.000711 0.022336 -0.010713 124 122 120
-0.057013 0.011094 0.013187 142 144 143
0.016243 -0.023762 0.024387 167 169 168
-0.006516 0.000921 -0.056213 158 160 159
0.063765 -0.009706 0.022487 124 124 124
-0.016838 0.025861 -0.018513 16 17 18
-0.033748 -0.030439 0.017387 148 150 149
-0.006462 0.001024 -0.056213 43 43 45
0.042347 0.014769 -0.008413 130 113 93
0.017582 0.013332 0.002487 129 115 91
-0.053871 0.043243 0.009387 12 12 14
0.059363 -0.052628 0.025387 153 153 153
-0.032628 -0.038646 0.021987 162 163 165
-0.019289 -0.044920 0.022287 172 171 174
0.015521 -0.012017 0.022887 164 166 165
0.068390 -0.030635 0.022787 138 138 138
0.070948 0.006671 0.009387 151 151 151
0.071931 -0.011675 0.012787 64 64 64
0.042198 -0.050550 0.026287 162 162 162
0.020789 -0.016775 0.024687 165 167 166
-0.003049 0.025573 -0.018513 102 102 102
-0.042802 0.031474 0.007487 17 17 19
-0.007108 0.004390 0.013787 44 44 44
-0.029436 0.003905 0.018387 144 150 148
-0.058597 0.010434 0.013187 147 149 148
-0.006502 0.000924 -0.056213 159 161 160
-0.036106 -0.033561 0.018387 155 156 158
-0.025801 0.022619 0.008187 38 38 38
-0.020887 0.015773 0.014087 13 14 18
-0.026362 0.011684 0.013587 9 9 11
0.052683 -0.010590 0.026687 60 58 60
-0.001865 -0.006023 0.021487 152 154 153
0.005817 -0.041323 0.023387 170 172 171
0.050227 -0.040791 0.027487 163 163 163
-0.052179 0.000669 0.011887 152 154 153
0.001405 0.017727 -0.007213 92 82 64
-0.056008 0.018276 0.002587 46 46 46
-0.031794 0.020347 0.008787 53 53 53
-0.001476 -0.050903 0.022987 172 174 173
-0.006500 0.000932 -0.056213 159 161 160
-0.054162 0.015367 0.006487 8 8 8
-0.006509 0.001029 -0.056213 2 2 4
-0.005088 -0.045446 0.023187 172 173 175
-0.051899 0.027971 -0.003013 45 25 9
-0.036643 -0.014573 -0.017613 156 157 156
0.034471 0.016730 -0.009613 123 113 86
-0.018172 0.026471 -0.002113 13 13 15
0.007840 0.013235 0.004787 129 118 90
-0.034163 -0.007419 -0.016313 21 20 25
-0.006512 0.000899 -0.056213 155 156 158
-0.053937 0.019532 -0.003113 45 47 47
-0.002051 -0.024699 0.023487 168 172 171
0.056202 -0.040105 0.027387 161 161 161
0.047274 0.010338 -0.001313 55 44 29
0.029503 -0.003652 0.026687 144 144 136
-0.043826 0.036917 0.005187 34 34 36
-0.044123 0.020505 0.008087 8 8 10
-0.037660 0.014508 0.010487 10 11 13
0.013866 -0.018788 0.022887 167 169 168
-0.006440 0.001025 -0.056213 15 15 17
-0.066866 -0.002982 0.010087 163 165 164
0.027162 0.024041 -0.017713 149 146 148
-0.033072 -0.021863 0.008887 149 151 150
0.082193 -0.036000 0.025687 145 145 145
-0.006407 0.000997 -0.056213 74 77 74
-0.006494 0.000908 -0.056213 158 160 159
-0.043482 0.035152 0.005587 28 28 30
0.068659 -0.019929 0.004687 59 60 59
0.020110 0.021223 -0.014113 118 103 74
-0.038945 -0.004669 -0.016413 160 162 161
-0.034741 -0.011692 0.010787 128 129 131
-0.036274 -0.038002 0.022187 161 162 164
0.032650 0.008421 0.005287 53 95 50
0.009812 -0.007945 0.021487 158 160 159
-0.025590 -0.006504 0.018887 148 152 153
0.061624 0.000156 0.024387 126 126 126
0.085862 -0.048031 0.025487 139 139 139
-0.006290 0.000980 -0.056213 65 44 30
-0.007569 0.020655 -0.006413 7 7 10
-0.037809 0.028868 0.008187 18 19 21
0.027987 0.005562 0.013387 143 134 113
-0.006510 0.000893 -0.056213 156 157 159
-0.032595 -0.039190 0.021887 163 164 166
-0.006513 0.001020 -0.056213 35 35 33
-0.051515 0.027343 -0.002013 11 7 3
-0.052172 0.035265 -0.005413 38 22 9
-0.043561 0.017892 0.008387 10 10 12
-0.008406 -0.033276 0.022987 169 169 172
-0.051288 0.031939 -0.001913 39 22 12
0.004935 0.014389 -0.001413 125 111 85
0.045317 0.016392 -0.010613 118 99 83
-0.037416 -0.027176 -0.002313 166 167 169
0.036326 0.019825 -0.014013 136 120 97
0.010730 0.020742 -0.014113 123 107 81
0.086795 -0.052072 0.025487 137 137 137
0.023346 0.016202 -0.006713 31 45 30
0.039292 -0.040374 0.027287 164 166 165
-0.006510 0.001009 -0.056213 138 140 137
0.090530 -0.047646 0.025887 137 137 137
-0.039053 -0.020040 -0.017013 158 158 158
0.015755 -0.006629 0.023187 159 161 160
0.059604 -0.033351 0.025687 144 144 144
0.031204 0.018527 -0.014613 126 109 81
0.004619 -0.040466 0.023487 170 172 171
-0.037007 -0.024806 -0.001013 160 162 164
0.045074 0.015426 -0.009813 124 109 89
0.015441 0.019955 -0.010813 117 101 75
-0.006473 0.000900 -0.056213 41 42 44
-0.033931 0.021302 0.008287 12 13 17
-0.036842 0.009401 0.014487 11 13 17
0.027422 0.013142 -0.002313 35 71 37
-0.025635 -0.047414 0.020787 172 173 175
0.009632 -0.047316 0.022787 170 172 171
0.012780 0.020676 -0.016513 125 109 83
0.025073 0.016641 -0.006813 32 46 31
-0.034435 0.009002 0.016987 55 58 54
-0.006512 0.001024 -0.056213 34 34 37
-0.006511 0.000967 -0.056213 141 143 142
-0.723733 0.421313 0.543687 129 130 129
-0.037164 -0.014760 -0.017513 155 159 158
0.032006 -0.024400 0.026987 163 165 164
0.037234 0.016385 -0.009313 42 61 32
0.050644 0.030827 -0.003513 146 147 150
-0.035121 -0.042308 0.021087 164 165 167
-0.026862 0.016635 0.012587 6 5 10
0.004842 0.012092 0.006187 135 121 91
0.008528 0.025427 -0.020213 93 82 65
0.004017 0.019087 -0.009713 103 88 68
0.007027 0.006481 0.016787 47 31 18
-0.051905 -0.002796 0.011287 153 154 156
0.009551 -0.021504 0.022387 168 170 169
0.009891 -0.022461 0.022587 168 170 169
0.010184 0.024405 -0.019113 104 89 68
-0.034176 -0.010023 -0.016513 41 40 45
-0.006504 0.000938 -0.056213 161 163 162
0.016395 0.013978 0.002887 132 119 93
-0.568707 0.406494 0.543687 9 2 0
-0.006516 0.000966 -0.056213 129 128 129
0.009281 -0.003380 0.021787 154 156 155
-0.052370 0.021582 -0.004313 3 3 5
0.018088 0.023119 -0.017913 125 108 82
0.004578 -0.031097 0.023187 169 170 172
-0.035990 -0.022533 -0.017213 46 50 50
-0.065775 0.002983 0.011287 148 150 149
-0.041602 0.026649 0.009087 31 31 33
0.024519 -0.004033 0.025187 164 166 162
-0.040211 -0.017951 0.000487 141 145 148
0.024653 0.024870 -0.017913 147 148 149
0.045299 -0.015784 0.029887 55 55 53
-0.017025 0.026726 -0.018613 16 15 20
0.058858 0.004600 0.018087 149 149 146
0.018325 0.021271 -0.014013 124 110 80
-0.035202 -0.013452 0.010087 123 124 125
0.031710 -0.049381 0.026687 166 165 165
-0.006509 0.000923 -0.056213 158 160 159
-0.035679 -0.016641 -0.017913 38 39 43
-0.014073 -0.014770 0.020887 155 159 160
0.066778 -0.044105 0.023487 153 153 153
0.047479 -0.047489 0.026687 160 160 160
-0.006522 0.000974 -0.056213 145 146 148
0.068587 -0.018442 0.005487 130 130 130
0.042293 -0.035636 0.026987 163 165 164
-0.006515 0.000893 -0.056213 157 156 156
-0.006505 0.000962 -0.056213 153 155 154
0.003374 0.023373 -0.016013 112 109 104
0.006493 0.022931 -0.018113 61 49 38
-0.040359 -0.015591 0.001287 141 145 146
-0.001672 0.027007 -0.018413 110 112 109
-0.069670 0.000928 0.010787 158 160 159
0.073240 -0.048597 0.023887 145 145 145
-0.035329 -0.001847 0.010087 15 16 20
0.004897 0.023130 -0.016313 96 85 68
-0.022295 0.019979 0.010987 9 7 4
-0.006507 0.000897 -0.056213 156 157 159
0.003073 -0.018564 0.021987 166 170 171
-0.006509 0.000990 -0.056213 88 81 67
0.020502 -0.011787 0.024287 164 166 165
-0.036576 -0.019122 0.006887 122 124 123
0.060457 -0.041556 0.025587 157 157 157
0.051395 -0.020937 0.030187 134 136 135
0.045982 0.015103 -0.009713 120 105 85
-0.002308 -0.006023 0.021487 152 154 153
-0.006510 0.001006 -0.056213 136 137 131
-0.023228 -0.013706 0.019187 153 157 158
-0.039110 -0.018002 -0.017213 158 158 158
0.065785 -0.010915 0.012187 76 76 76
-0.001718 0.016684 -0.003513 118 119 114
-0.006511 0.000986 -0.056213 123 118 109
0.028512 0.010181 0.000287 63 87 52
0.045508 0.022558 -0.012713 141 141 141
0.060327 -0.012402 0.023387 114 114 114
0.069228 -0.020469 0.020287 135 135 135
-0.063282 0.019035 0.001787 66 56 46
-0.052256 0.033414 0.007487 6 6 8
-0.006504 0.001022 -0.056213 2 2 4
0.057448 0.038957 -0.002513 119 117 122
-0.002414 0.027442 -0.018613 111 113 112
0.023969 0.027075 -0.018313 143 143 145
0.020865 0.025776 -0.018313 148 148 146
-0.004019 -0.033384 0.023587 168 170 172
-0.033853 -0.000341 0.010487 12 13 17
0.020747 -0.023166 0.025487 167 169 168
-0.066467 0.007584 0.009787 122 120 107
0.089632 -0.048991 0.025787 137 137 137
-0.007969 0.021748 -0.017613 12 13 15
0.061428 0.006605 0.010087 148 148 148
-0.036472 -0.016944 0.007687 122 123 124
-0.006363 0.001003 -0.056213 125 107 81
-0.006512 0.000913 -0.056213 157 159 158
-0.006501 0.000932 -0.056213 159 161 160
-0.049414 0.022293 0.008687 5 5 7
0.028028 0.022650 -0.017313 137 125 101
-0.014480 -0.049654 0.021987 174 175 177
-0.032906 -0.020090 -0.015913 150 154 155
-0.039062 -0.010886 -0.016913 159 161 160
-0.006419 0.001015 -0.056213 66 66 66
-0.004425 0.015454 0.002487 133 135 133
-0.006903 -0.040314 0.023487 171 172 174
-0.039300 0.029148 0.007987 17 17 19
0.006958 -0.020376 0.022087 168 170 169
0.002905 -0.047197 0.023087 172 174 173
-0.006512 0.001019 -0.056213 34 34 32
-0.036855 -0.026445 0.002987 147 149 147
-0.036589 -0.043240 0.017487 164 168 169
0.006224 -0.044935 0.023087 171 172 174
0.061976 -0.039391 0.024987 161 161 161
-0.038926 -0.022683 -0.016713 157 159 158
0.006827 -0.027135 0.023087 169 171 170
0.012121 0.024247 -0.018913 107 93 70
-0.039678 -0.020984 -0.001113 147 151 149
-0.005961 0.019368 -0.006813 11 12 11
0.044681 0.014802 -0.008613 124 108 84
-0.032491 -0.018315 -0.015113 150 154 152
0.021561 0.002109 0.021687 71 52 40
0.064360 -0.015624 0.005487 126 126 126
-0.006497 0.000952 -0.056213 162 164 163
0.047444 0.018198 -0.012213 126 109 91
0.088146 -0.032226 0.025987 142 142 142
0.003015 0.021398 -0.012713 53 50 38
-0.051992 0.024852 -0.001813 2 2 4
-0.038244 -0.008290 -0.016813 159 161 160
-0.004932 -0.030308 0.023487 167 171 172
-0.006506 0.000932 -0.056213 159 161 160
-0.053275 0.028373 0.007887 1 1 3
-0.033529 -0.015980 -0.016013 154 156 155
-0.053468 0.029656 0.007487 2 2 4
0.019797 0.008940 0.004787 46 63 43
-0.057805 0.010302 0.013187 149 151 150
0.028208 -0.038327 0.026987 165 167 166
-0.006423 0.001015 -0.056213 18 18 18
-0.006514 0.000910 -0.056213 157 158 161
-0.006517 0.000984 -0.056213 144 145 140
-0.038499 -0.017092 -0.017413 158 158 158
-0.006473 0.000895 -0.056213 73 76 76
-0.006508 0.000983 -0.056213 158 160 159
-0.012174 -0.016112 0.020987 160 164 165
-0.003356 0.025268 -0.016913 43 43 43
0.019567 -0.033196 0.025687 167 169 168
0.082193 -0.036623 0.025687 143 143 143
-0.006438 0.000957 -0.056213 32 33 37
-0.006503 0.001021 -0.056213 2 2 4
0.063765 -0.018838 0.022487 135 135 135
0.055289 -0.001756 0.026587 142 144 143
-0.050866 0.022628 -0.001413 1 1 3
0.059252 -0.008902 0.024487 111 111 111
0.066743 -0.012834 0.011387 58 58 58
-0.034292 -0.024602 0.007987 147 148 150
-0.038783 -0.030588 -0.001913 160 162 161
0.087376 -0.048402 0.025587 138 138 138
-0.006521 0.000907 -0.056213 155 156 158
0.008224 -0.049229 0.022487 170 172 171
-0.023251 0.022937 0.003087 9 10 12
-0.033850 -0.029063 0.008387 154 155 157
0.010151 0.023091 -0.018213 101 85 62
-0.006507 0.001027 -0.056213 2 2 4
-0.007150 0.025761 -0.018113 39 36 39
0.025699 0.017943 -0.016713 56 65 41
-0.038531 -0.020488 -0.017013 156 158 157
0.059599 -0.028450 0.025487 96 96 96
-0.030668 -0.000475 0.017387 84 85 89
0.067765 -0.018090 0.005487 127 127 127
0.061904 -0.013911 0.006687 128 128 128
-0.002229 0.010143 0.012987 152 154 152
-0.032486 -0.046176 0.018587 166 173 173
0.016374 0.016334 -0.005013 120 104 79
-0.065559 0.001826 0.011187 150 152 151
-0.050923 0.027313 -0.001213 2 2 4
-0.051797 0.010976 0.013287 155 157 156
0.017832 0.024115 -0.018313 122 106 83
-0.006376 0.000969 -0.056213 143 134 107
-0.006301 -0.002550 0.019887 148 151 150
-0.039601 0.034329 0.005587 32 32 34
-0.048689 0.015012 0.009287 12 12 14
0.033216 0.004327 0.021587 172 176 160
0.003201 0.009097 0.014187 153 153 152
0.024356 0.006989 0.008787 93 93 62
0.055676 0.005058 0.016187 130 128 113
0.019810 0.017202 -0.009013 101 87 68
-0.006938 0.023601 -0.017713 19 19 21
