ply
format ascii 1.0
element vertex 1216
property float x
property float y
property float z
property uchar red
property uchar green
property uchar blue
end_header
-0.116784 -0.078017 0.113908 122 123 125
-0.233236 -0.056911 0.117308 107 107 109
0.082052 0.011673 -0.067492 208 207 212
0.049864 0.040541 -0.062392 40 42 18
0.085293 0.009950 -0.000892 138 140 135
-0.040062 0.038706 0.026208 109 122 40
0.115127 -0.019703 -0.029192 139 139 139
0.093619 -0.037774 -0.031792 141 141 139
0.019449 -0.079629 0.051808 148 150 147
0.130875 -0.039230 -0.030992 130 130 132
-0.018248 0.049499 -0.001092 112 125 43
-0.087325 -0.063089 0.114208 93 95 94
-0.106892 0.026651 0.056008 83 94 26
-0.020041 0.037386 0.028108 109 122 40
0.062164 0.038347 -0.080892 119 117 121
0.081094 0.008479 -0.060992 215 215 217
0.061404 0.030869 -0.086692 118 114 113
0.028400 0.011783 -0.118592 110 110 112
0.082475 -0.017561 -0.009292 150 150 148
0.003910 0.005181 0.045208 78 90 24
0.028402 0.011825 -0.118592 89 82 87
-0.100781 -0.119380 0.105308 122 123 128
0.081395 0.014411 -0.001592 130 133 126
-0.136044 -0.035728 0.112408 112 114 113
0.054747 0.035953 -0.078292 134 134 132
0.028170 0.011858 -0.118592 103 104 100
0.057386 0.032682 -0.079392 128 127 125
0.028295 0.011827 -0.118592 113 126 44
-0.121627 0.085726 0.020408 112 112 104
0.061390 0.021266 -0.088792 91 85 85
-0.185382 -0.017495 0.091808 87 96 40
-0.015252 0.011715 0.057208 70 81 19
-0.063553 0.098544 0.005808 138 138 136
0.084188 -0.006769 -0.006692 144 146 141
0.104202 -0.044139 -0.031392 138 138 138
0.052941 0.026220 -0.077592 124 123 117
0.028272 0.011857 -0.118592 102 114 38
0.077598 0.010259 -0.065692 213 214 216
0.109748 -0.042418 -0.031492 137 137 137
0.030159 0.048644 -0.066092 62 67 26
0.056290 0.039553 -0.053392 42 45 18
-0.153298 -0.065953 0.110908 115 115 117
0.110261 -0.013922 -0.027992 138 138 138
-0.133681 -0.111578 0.102008 118 119 124
0.028172 0.011814 -0.118592 55 61 17
0.008471 0.048746 0.000808 113 126 44
0.113613 -0.008558 -0.028092 133 133 133
-0.166307 -0.020446 0.092808 93 100 51
0.031098 0.008321 0.019408 125 140 56
-0.060951 -0.033777 0.120608 75 80 77
0.084091 0.009629 -0.062392 210 210 212
-0.111617 0.016357 0.069508 86 96 34
-0.088564 -0.045776 0.117608 92 94 93
-0.095365 0.012816 0.076008 84 95 29
-0.018775 0.037456 0.028508 109 122 40
-0.108384 0.051330 0.048108 60 69 22
-0.025476 -0.000812 0.069608 72 83 25
-0.153286 0.064287 0.046008 57 62 21
0.112406 -0.034671 -0.030792 138 138 138
0.059365 0.028738 -0.081492 118 114 113
-0.046553 0.044409 0.018908 107 120 40
0.028359 0.011818 -0.118592 147 147 145
0.028340 0.011735 -0.118592 150 150 148
0.028346 0.011812 -0.118592 90 95 57
-0.140546 0.076647 0.042508 28 24 27
0.061264 0.031660 -0.086592 118 114 115
-0.099927 -0.013363 0.090708 75 86 26
-0.166745 0.010244 0.073808 65 74 20
0.023858 0.044449 -0.067192 106 119 40
0.047708 0.047130 -0.066992 34 35 18
0.133318 -0.039047 -0.031592 131 129 132
0.005661 0.040185 0.022608 53 61 1
0.028253 0.011847 -0.118592 106 117 40
-0.079284 -0.079595 0.111208 97 98 100
-0.040884 -0.097345 0.131908 104 104 104
0.024804 0.012256 0.019308 93 105 28
-0.061286 -0.018261 0.100308 74 83 27
0.054980 0.019429 -0.080692 135 136 134
0.089303 -0.025860 -0.020692 141 141 139
-0.114900 0.087907 0.016308 119 119 111
-0.094339 0.074394 0.027908 130 132 121
0.022497 -0.035177 0.057608 140 142 137
-0.081826 -0.074003 0.113808 84 85 87
-0.101191 0.083047 0.017808 119 121 110
0.028362 0.011811 -0.118592 108 107 103
-0.010836 0.016921 0.052508 68 77 22
-0.208083 -0.061887 0.114608 107 107 109
-0.159295 -0.073954 0.111308 116 116 118
0.058402 0.025270 -0.081892 131 130 128
-0.099396 -0.001482 0.085408 70 81 22
-0.016328 0.046363 0.002808 112 125 45
0.057610 0.032682 -0.079392 123 122 120
-0.068131 0.060484 0.037808 78 80 59
-0.144420 0.062379 0.045908 58 64 20
0.019688 0.048872 0.002708 108 121 40
0.060951 0.035997 -0.080292 125 125 121
0.051461 -0.081921 0.040308 147 147 145
-0.163971 0.014935 0.070008 65 73 22
0.028365 0.011812 -0.118592 106 103 100
-0.075151 0.072995 0.032008 137 139 128
0.060477 0.030111 -0.086092 121 120 118
0.053770 0.041288 -0.073792 131 131 129
-0.118548 0.078904 0.023308 114 114 104
-0.150258 -0.080743 0.107608 116 117 119
-0.107123 0.058731 0.048508 62 68 24
0.114006 -0.032216 -0.030692 138 138 140
-0.036565 0.095528 0.001808 92 93 87
-0.047748 -0.124286 0.126408 89 90 94
0.039873 -0.053713 0.043008 146 148 145
-0.094618 -0.053942 0.116308 104 106 104
0.088845 -0.017500 -0.026492 110 110 108
-0.003628 0.045724 0.006408 110 123 40
0.051875 0.018404 -0.079492 96 96 101
0.102571 0.003005 -0.022792 134 134 132
-0.014371 0.004620 0.059108 80 90 30
-0.046965 -0.066869 0.139708 72 74 73
-0.082105 -0.013438 0.094708 72 83 23
0.080113 -0.020049 0.012008 143 145 141
0.028345 0.011813 -0.118592 75 80 33
0.040533 -0.070299 0.043608 147 147 145
0.088271 0.011958 -0.069492 130 115 124
-0.141238 -0.050070 0.113508 114 116 115
0.056052 -0.064493 0.035608 148 148 146
-0.213191 -0.037548 0.112708 106 106 106
-0.130529 -0.083005 0.108908 118 119 121
-0.195114 -0.131574 0.101808 112 113 118
-0.109906 0.068226 0.031508 118 120 115
0.058153 0.017556 -0.085992 196 196 198
0.056988 0.038744 -0.078592 126 126 126
0.028169 0.011729 -0.118592 105 103 108
-0.091734 -0.023398 0.101208 78 89 29
0.054537 0.001253 0.022708 134 136 131
0.078171 0.009192 -0.062192 216 217 219
-0.115025 -0.079509 0.113208 122 123 125
-0.023569 0.043546 0.011108 105 119 33
-0.121502 0.077296 0.025108 120 120 110
0.023466 0.047150 0.006408 105 119 41
-0.200131 -0.036417 0.111508 106 106 106
0.072191 -0.037138 0.024208 149 149 147
0.063191 0.031691 -0.087592 110 107 108
0.028401 0.011783 -0.118592 110 110 112
0.062947 0.030984 -0.087492 113 109 113
0.049796 -0.010757 0.037008 138 141 134
0.077944 -0.008616 -0.005892 143 145 142
0.060579 0.019978 -0.090492 114 108 114
0.053997 0.040499 -0.073692 135 134 132
0.082711 -0.052055 -0.020492 148 148 148
0.028336 0.011826 -0.118592 46 47 16
0.088610 -0.011811 -0.014492 150 149 148
0.056903 0.036982 -0.049192 46 51 16
0.041442 -0.076357 0.043408 145 148 144
0.028175 0.011784 -0.118592 71 80 27
-0.115605 0.027217 0.054908 89 100 32
0.004577 0.061643 -0.004492 108 121 39
0.055320 0.023934 -0.078692 135 135 133
-0.002664 0.056457 -0.004992 111 124 42
0.055645 0.035402 -0.045492 82 92 24
-0.006211 0.057224 -0.004692 110 123 41
0.051485 0.042474 -0.066892 35 36 20
0.052419 0.017961 0.002608 130 141 58
-0.062208 0.004501 0.091808 58 66 16
0.028378 0.011782 -0.118592 214 212 212
0.054013 0.032225 -0.041192 114 126 44
-0.021138 0.069179 -0.000592 102 114 38
0.040516 -0.002395 0.039408 127 132 126
0.035304 -0.051607 0.043908 146 146 144
0.116223 -0.016320 -0.028592 138 138 138
0.087214 -0.010428 -0.008592 142 142 138
0.019748 0.039237 -0.061992 117 131 45
-0.155639 -0.061655 0.111108 116 116 118
0.129114 -0.036170 -0.030492 132 132 134
0.024047 -0.058181 0.049308 147 147 145
-0.083884 0.013176 0.074708 89 100 32
0.083104 -0.032475 -0.012892 150 152 149
0.028173 0.011811 -0.118592 70 79 30
-0.003795 -0.102511 0.105608 132 132 130
0.052553 0.023231 -0.078492 137 138 133
0.071067 0.010973 -0.066292 221 222 224
-0.087536 0.002414 0.085008 66 78 20
0.006713 0.016262 0.040608 73 81 25
0.028272 0.011863 -0.118592 85 95 32
0.081816 0.014179 -0.067992 208 207 212
-0.078079 -0.062235 0.114308 93 94 96
0.036875 -0.084337 0.044408 144 146 143
-0.222654 -0.096924 0.110908 112 111 117
-0.181104 -0.007075 0.087208 73 82 27
-0.098029 -0.126782 0.104208 124 122 128
-0.061041 -0.109877 0.099708 115 117 120
0.059458 0.018369 -0.088792 173 173 175
0.107664 -0.004337 -0.028592 132 132 133
0.088691 -0.018735 -0.026992 105 113 109
0.028367 0.011787 -0.118592 138 138 136
-0.097196 0.012444 0.075408 84 96 28
0.062888 0.032466 -0.087492 112 107 111
0.020087 -0.047630 0.052008 144 146 143
-0.001133 -0.042896 0.092608 127 128 123
0.018771 0.041763 -0.064992 112 126 41
-0.087214 0.042036 0.052908 54 55 15
0.055118 0.032970 -0.078992 134 134 132
-0.067406 0.067570 0.035208 86 88 73
0.065011 -0.022733 0.017708 113 113 111
0.081987 0.008703 -0.061092 213 213 215
-0.031712 0.052073 -0.000092 98 106 40
0.028370 0.011823 -0.118592 144 143 141
0.135223 -0.005364 -0.028592 124 124 124
0.058994 0.010504 0.010908 123 125 120
0.084092 -0.067455 0.020708 149 149 147
-0.187063 -0.015803 0.091108 82 91 36
-0.149182 0.009484 0.076208 69 78 23
-0.033407 0.006998 0.072008 75 84 28
0.028173 0.011728 -0.118592 106 105 111
0.054980 0.020945 -0.080692 120 120 118
-0.142334 0.055839 0.046008 61 67 23
-0.037401 0.050393 0.006908 87 97 23
0.059836 0.016404 -0.085792 211 212 214
0.082404 0.019588 -0.067892 205 204 209
0.028292 0.011830 -0.118592 117 129 49
-0.151745 -0.128512 0.099008 124 123 128
-0.088556 0.083047 0.018808 133 134 126
0.028340 0.011825 -0.118592 45 45 19
0.028340 0.011743 -0.118592 150 152 149
-0.119491 -0.117087 0.102108 120 121 125
-0.202850 -0.119652 0.103608 113 112 118
0.114857 -0.024983 -0.029992 139 139 139
0.051946 0.034600 -0.073692 140 142 137
0.088948 0.002649 -0.014592 90 91 85
-0.092901 0.080786 0.021108 134 136 125
0.088997 -0.033817 -0.026792 131 129 131
-0.067928 0.090712 0.010408 134 135 130
0.057782 0.033732 -0.043592 93 103 29
0.028259 0.011859 -0.118592 86 98 37
-0.092901 0.076521 0.025208 130 132 121
0.052840 0.034329 -0.074392 129 129 127
0.045141 0.035380 0.003308 75 84 27
0.129687 -0.021492 -0.028492 135 135 135
-0.071389 0.036229 0.044608 104 114 34
0.061591 0.026058 -0.083892 127 128 125
-0.018215 0.037735 0.028508 110 123 41
-0.105390 0.068771 0.034508 124 125 119
0.092020 -0.040711 -0.032392 143 143 143
-0.114448 -0.108153 0.107408 120 121 125
0.074608 0.010550 -0.065192 217 218 220
0.062058 0.020006 -0.091292 108 103 107
-0.045380 -0.133956 0.131008 125 128 125
0.028388 0.011835 -0.118592 127 123 122
0.063632 0.024573 -0.089792 106 106 107
0.055559 0.017106 -0.084492 135 136 134
-0.127096 -0.105710 0.105208 119 120 124
0.035622 -0.094676 0.044108 145 145 143
-0.091359 0.041605 0.052308 58 66 19
-0.091894 0.069110 0.037008 124 125 117
0.001275 0.061513 -0.004292 111 124 42
0.062869 0.030839 -0.037692 104 117 38
0.021948 0.030004 0.018708 77 90 27
-0.093833 0.071593 0.032808 127 128 120
-0.001375 0.042067 0.011108 109 122 42
-0.110722 -0.075112 0.115608 121 122 124
-0.052531 -0.110705 0.119908 111 112 117
0.025218 0.049626 0.002908 104 117 39
0.106060 0.000899 -0.030792 131 131 132
-0.178120 -0.064006 0.114308 112 112 115
0.086849 0.016511 -0.068792 200 198 204
0.081141 -0.071368 0.020608 148 148 146
-0.032662 0.037577 0.027608 108 121 42
0.060787 0.016486 -0.086092 208 209 209
-0.019896 0.041418 0.016008 109 122 40
0.040033 0.027718 0.003208 81 91 29
0.031908 -0.000953 0.044008 119 122 116
-0.171653 -0.091647 0.107008 116 117 119
-0.149724 0.013527 0.072808 64 73 20
-0.139388 -0.019271 0.090308 79 88 33
0.048883 0.037325 -0.050392 85 94 26
-0.095530 0.027181 0.054508 66 72 13
-0.020122 0.085745 0.001908 89 97 42
-0.087266 -0.046249 0.117708 93 95 94
0.059736 0.039200 -0.079992 125 126 125
0.041660 0.035873 -0.047392 105 118 39
-0.038054 -0.078814 0.132008 105 105 105
-0.013616 0.049080 -0.000292 112 125 43
-0.081679 -0.009395 0.090808 72 83 25
0.125706 -0.031192 -0.030392 133 133 135
0.089598 0.007379 -0.018692 134 137 130
-0.081156 -0.094225 0.105208 110 111 116
0.054816 0.031159 -0.078992 134 134 132
0.109417 -0.042750 -0.031492 137 137 137
0.102948 -0.005250 -0.028292 135 135 133
0.028339 0.011754 -0.118592 150 150 148
0.052932 0.037735 -0.073292 66 68 61
-0.136779 -0.070780 0.112208 116 117 119
0.089990 -0.002074 -0.008492 144 146 141
-0.144930 0.032646 0.048208 86 96 33
0.028175 0.011839 -0.118592 110 111 105
-0.102409 0.094327 0.010308 117 118 113
0.117791 -0.014495 -0.028392 137 137 137
-0.209618 -0.114217 0.105208 112 111 117
0.053737 0.033076 -0.078792 133 133 131
0.062770 0.026242 -0.087492 120 116 117
0.081206 0.011376 -0.066892 210 210 212
0.078202 0.012866 -0.000192 131 133 128
-0.002336 0.023248 0.045308 70 79 22
0.079522 0.010568 -0.065992 211 211 213
0.086800 0.009806 -0.066992 176 175 181
-0.190334 -0.118396 0.102908 115 116 121
0.045244 -0.033018 0.041508 149 150 147
0.118055 -0.029467 -0.030492 137 137 137
0.085694 0.013395 -0.068392 202 201 206
0.028339 0.011825 -0.118592 47 46 19
-0.118160 -0.007810 0.086708 75 84 24
0.081713 0.016629 -0.066492 210 210 212
0.028384 0.011850 -0.118592 124 120 119
-0.004307 0.064276 -0.002992 109 124 39
0.061504 0.029112 -0.084392 125 121 120
-0.040884 -0.096393 0.131908 103 103 103
0.137348 -0.007290 -0.028392 124 124 124
0.040802 -0.049450 0.043108 147 147 145
0.028173 0.011830 -0.118592 58 63 23
0.060467 0.027777 -0.083892 129 125 124
0.102976 -0.028139 -0.030092 141 141 141
0.035583 0.044162 -0.064392 47 51 16
0.053986 0.022486 -0.078992 136 136 134
-0.097174 -0.029234 0.105708 89 100 42
0.057372 0.039133 -0.078692 125 125 127
0.093529 -0.037335 -0.031692 141 141 139
-0.027018 0.067207 -0.000492 91 102 40
0.071504 -0.008815 -0.004792 141 143 138
0.121589 0.000005 -0.032792 89 89 91
0.085770 0.015872 -0.068492 201 200 205
0.055966 0.040398 -0.078192 125 125 125
-0.012384 0.043395 0.015708 99 116 36
0.026392 0.050854 0.001708 104 119 38
-0.197500 -0.056894 0.114208 108 109 111
-0.087594 0.071213 0.033308 136 137 129
0.073576 -0.016955 0.003108 117 119 118
-0.006184 -0.053237 0.101808 124 126 123
0.063545 0.027555 -0.087592 117 113 114
0.100415 -0.020079 -0.029092 143 143 143
-0.105457 0.055951 0.048808 62 68 22
0.126758 -0.015069 -0.028192 135 135 135
-0.186560 -0.075431 0.112908 111 112 114
0.014175 0.046254 0.006608 106 119 37
0.028339 0.011825 -0.118592 46 45 19
0.026200 0.022818 0.013908 79 89 30
0.121804 -0.010867 -0.028492 133 133 133
-0.085933 0.079032 0.023008 135 136 128
0.060849 0.029430 -0.086092 102 96 96
-0.039282 0.089119 0.005108 86 87 82
0.043817 0.046798 -0.067192 38 40 17
-0.010523 0.010076 0.054008 74 85 26
-0.185701 -0.073855 0.113408 111 112 114
0.085389 0.016921 -0.068492 201 200 205
0.028340 0.011730 -0.118592 149 149 149
-0.055416 -0.083474 0.099108 36 37 39
0.024366 -0.062011 0.049308 146 146 144
-0.021452 0.053286 -0.002992 111 124 42
0.028338 0.011756 -0.118592 150 150 148
0.000677 0.052071 -0.002692 111 124 42
-0.081009 -0.097906 0.104908 109 112 117
0.089186 -0.038813 -0.031992 111 110 113
0.122503 -0.020008 -0.029292 137 137 137
-0.105983 0.072465 0.030008 120 122 111
0.056678 0.038735 -0.078492 125 125 125
0.075573 0.016612 -0.065592 216 217 219
0.040103 0.004362 0.030408 120 122 119
0.068452 0.013615 -0.067592 223 224 226
-0.120532 -0.115162 0.102408 120 121 125
0.116685 -0.005288 -0.028992 128 128 128
0.013271 0.039666 0.026908 46 51 10
-0.058746 0.092920 0.008108 140 140 138
0.046995 0.032852 -0.041592 116 130 45
-0.203179 -0.109977 0.106808 115 114 120
0.131663 0.000006 -0.031592 113 113 115
-0.111236 0.059886 0.048108 60 66 20
-0.111773 -0.012347 0.088808 75 88 25
0.097904 0.005651 -0.055592 111 112 114
0.028386 0.011856 -0.118592 120 118 119
0.028338 0.011855 -0.118592 136 139 136
0.028411 0.011812 -0.118592 195 194 199
-0.031552 0.081318 0.004208 78 79 65
-0.076432 0.093455 0.009708 132 132 130
-0.102128 -0.091239 0.109908 123 124 128
0.028172 0.011847 -0.118592 103 104 96
0.043262 -0.065435 0.043108 147 147 145
0.028320 0.011811 -0.118592 92 106 34
0.028332 0.011804 -0.118592 109 111 108
0.032961 0.046521 -0.064892 51 55 18
0.121009 -0.028004 -0.030392 138 138 138
-0.128517 -0.023988 0.097208 89 100 42
0.061302 0.031238 -0.080892 128 127 125
-0.149164 -0.102849 0.104608 117 118 122
-0.168690 -0.041597 0.113108 110 112 111
-0.017263 0.039817 0.022108 109 121 39
0.054774 -0.044961 0.036708 147 149 146
-0.104231 -0.114297 0.106108 121 122 127
-0.162578 -0.059344 0.112108 113 115 114
-0.115526 0.051117 0.047208 61 67 21
0.028171 0.011770 -0.118592 101 103 102
0.002584 -0.053441 0.085408 133 133 131
0.028352 0.011803 -0.118592 151 152 154
-0.022035 0.069404 -0.000592 94 107 34
0.070739 -0.038707 0.024808 148 151 147
0.086056 0.016158 -0.068492 201 200 205
0.016416 -0.086429 0.053508 157 159 157
0.109916 -0.012027 -0.027992 137 137 137
-0.081147 0.025963 0.055708 99 109 36
-0.079396 -0.117464 0.099908 122 122 123
-0.131154 0.007195 0.079108 72 81 24
-0.015908 0.055438 -0.003692 108 121 40
-0.132449 0.063378 0.047108 61 67 23
0.055975 0.037027 -0.078292 129 129 127
-0.030437 0.047402 0.004808 100 114 31
0.030697 -0.038253 0.045708 146 145 144
-0.002959 0.024806 0.045308 70 78 24
0.082418 -0.007885 -0.006392 143 145 140
0.028341 0.011831 -0.118592 43 46 23
0.019748 -0.058455 0.052308 145 147 144
-0.072677 0.091814 0.010208 129 130 125
-0.001126 0.057065 -0.005092 113 126 44
0.060461 0.037883 -0.080092 122 122 120
-0.148033 0.071707 0.044908 58 63 22
-0.154472 0.070535 0.045108 58 63 22
0.036611 0.018210 0.007508 91 101 34
-0.040406 0.085161 0.007608 90 91 83
0.081873 -0.002363 -0.006192 144 146 141
-0.139926 0.060651 0.046408 58 64 21
-0.010568 0.008760 0.054208 73 85 23
0.022848 0.043557 -0.066892 110 124 43
0.118459 -0.019398 -0.029092 138 138 138
-0.050848 0.065793 0.024308 86 93 41
-0.005716 0.043093 0.016608 76 89 16
0.021231 0.041534 -0.064292 115 129 44
-0.116359 -0.022598 0.096208 84 96 31
0.020027 0.039057 -0.061692 118 132 44
0.077475 -0.072262 0.023008 148 148 146
-0.025951 -0.054547 0.126808 114 116 111
-0.000047 0.057712 -0.005092 112 125 46
-0.076028 0.024908 0.054908 98 111 35
-0.203795 -0.072417 0.114308 108 109 111
0.024241 0.044317 -0.067092 107 120 40
0.078450 0.012262 -0.066892 213 213 215
0.062242 0.017781 -0.088892 198 197 202
-0.069209 0.062663 0.038108 80 81 66
0.070173 -0.031857 0.023808 150 149 146
0.028384 0.011829 -0.118592 136 132 131
-0.182014 -0.030516 0.108008 107 109 108
0.058426 0.032724 -0.079592 131 130 128
0.050862 0.045819 -0.067192 40 42 27
0.077096 0.013697 -0.067992 214 214 216
0.028336 0.011840 -0.118592 37 38 21
0.106070 -0.034274 -0.030592 140 140 140
-0.097108 0.090279 0.010908 121 122 116
-0.103324 -0.058078 0.116708 117 118 122
-0.149856 -0.058820 0.110408 115 116 118
0.063255 0.026032 -0.087692 120 114 116
0.046167 0.018822 0.005608 120 134 47
0.119086 -0.031164 -0.030792 138 138 138
0.094020 -0.012275 -0.028992 141 141 142
-0.100162 0.089406 0.011508 120 121 115
0.087597 -0.076051 0.017208 148 150 147
-0.091259 -0.114128 0.105808 120 121 126
0.111520 -0.000814 -0.030492 94 95 96
-0.010154 -0.002324 0.061508 89 102 33
0.135785 -0.028993 -0.030792 129 129 131
0.028361 0.011808 -0.118592 134 137 135
-0.132527 0.026177 0.054308 90 101 33
0.028390 0.011831 -0.118592 123 119 118
0.116075 -0.004418 -0.029092 129 129 129
0.028360 0.011804 -0.118592 227 228 230
-0.069677 0.037801 0.042808 100 114 32
-0.040114 0.095339 0.001208 129 131 126
0.065178 0.031763 -0.088292 102 101 100
0.056907 0.040186 -0.078492 124 124 124
0.060193 -0.033052 0.027708 147 148 145
0.023203 0.044745 -0.067492 106 119 40
-0.104095 0.087161 0.013208 115 116 108
-0.056248 0.079458 0.021108 93 95 84
0.062351 0.018191 -0.089092 198 197 202
-0.141531 -0.057590 0.112108 116 117 119
0.082563 -0.001306 -0.006092 144 146 141
0.028174 0.011839 -0.118592 110 111 105
0.047830 0.034398 -0.045592 106 119 39
-0.070291 0.039556 0.042308 91 100 35
0.082045 -0.052437 -0.015692 149 149 150
0.028173 0.011818 -0.118592 54 59 18
0.105867 -0.008042 -0.028092 136 136 136
0.096880 -0.009986 -0.028592 140 140 139
0.028464 0.025856 0.011708 82 92 31
-0.008607 0.061509 -0.003292 112 125 43
-0.208461 -0.073229 0.114108 107 108 110
0.048893 0.041449 -0.065192 40 42 21
-0.181309 -0.062710 0.114408 112 112 114
0.028337 0.011834 -0.118592 39 41 21
0.101606 -0.020079 -0.029092 143 143 143
0.054394 0.020485 -0.080492 137 135 133
0.027670 0.046116 -0.066892 64 75 23
0.098311 0.006778 -0.056192 107 108 110
0.062419 0.028702 -0.086992 119 114 113
0.028337 0.011818 -0.118592 80 89 29
-0.134593 0.067865 0.046408 58 64 20
-0.017718 -0.031101 0.113508 107 109 105
0.093338 -0.010230 -0.028992 141 141 140
0.061802 0.012877 -0.070192 228 227 229
0.083970 0.008600 -0.061192 211 211 213
-0.124666 0.057105 0.047208 63 69 25
0.103221 -0.035673 -0.030792 140 140 140
0.002414 -0.074298 0.089908 133 133 131
-0.106106 0.016683 0.068308 79 90 21
-0.115446 0.096509 0.014908 108 108 107
0.040674 -0.001342 0.037608 125 131 125
-0.052201 -0.087526 0.117608 65 66 70
0.062101 0.014990 -0.070292 222 223 225
0.037461 -0.058051 0.043808 146 148 145
0.056569 0.019845 -0.084992 133 132 130
-0.061463 -0.071006 0.109208 82 83 85
-0.058002 0.076524 0.024008 88 89 81
-0.068650 0.084123 0.016908 138 139 134
0.028339 0.011829 -0.118592 39 41 20
0.069246 -0.037515 0.025308 148 150 147
0.031625 -0.087049 0.045308 146 145 143
-0.051691 -0.061356 0.120108 29 30 32
-0.155270 0.035127 0.047808 81 91 31
0.028306 0.011819 -0.118592 102 113 47
0.092464 -0.069853 0.015508 149 149 147
0.028336 0.011861 -0.118592 24 23 19
-0.124563 -0.077399 0.112308 118 119 121
0.052037 0.005518 0.017608 124 129 125
-0.110730 0.098824 0.011908 108 108 106
0.028347 0.011820 -0.118592 49 52 30
0.062343 0.033218 -0.080692 127 126 124
-0.021062 0.085895 0.001408 89 98 43
0.084070 0.010898 -0.067692 204 205 206
0.059968 0.027897 -0.083192 127 126 124
-0.135749 0.054352 0.046308 59 65 21
0.035401 0.011990 0.016408 127 141 54
-0.083210 0.068621 0.038108 123 124 115
0.050883 0.042889 -0.066692 35 36 19
0.020652 0.045772 -0.067992 95 106 30
0.028347 0.011815 -0.118592 71 75 58
0.109357 -0.020626 -0.028992 140 140 140
-0.091106 0.064679 0.041508 123 124 118
0.046179 0.041056 -0.064792 43 46 19
-0.111703 0.075845 0.024308 118 120 109
-0.112869 -0.113624 0.104908 120 121 125
0.062015 0.023629 -0.088992 117 111 111
0.026955 0.030894 0.014008 79 91 29
-0.211185 -0.061444 0.114608 107 107 109
0.082994 -0.068192 0.020608 149 149 147
0.074853 0.016318 -0.065492 217 218 220
0.038769 0.039801 -0.059192 77 87 24
0.114169 -0.006563 -0.028592 131 131 131
0.082812 -0.025403 -0.017892 152 152 150
0.112752 -0.011656 -0.028092 136 136 136
0.068944 -0.045956 0.025208 148 151 147
0.112580 -0.009074 -0.028092 133 133 133
0.055898 0.038178 -0.078292 124 124 124
0.129833 -0.010920 -0.027592 133 133 133
-0.024448 0.047384 0.000808 109 122 42
0.123202 -0.000952 -0.030692 117 117 117
0.028171 0.011744 -0.118592 108 107 112
-0.139722 0.058399 0.046208 62 68 25
-0.150643 -0.083071 0.107008 116 117 119
0.114718 -0.038277 -0.031492 137 137 138
0.059154 0.020078 -0.087492 96 96 93
0.028385 0.011861 -0.118592 116 114 115
-0.232229 -0.058227 0.117208 106 106 108
0.041276 0.044506 -0.066792 45 48 20
-0.097811 0.052855 0.051808 60 66 20
-0.185375 -0.092504 0.107008 111 112 116
0.066675 -0.019032 0.011908 142 145 139
0.088277 0.009241 -0.067492 128 128 141
0.060241 0.033776 -0.080092 129 128 126
0.045431 0.038095 -0.052692 87 97 28
0.078883 -0.061011 0.024708 148 150 147
-0.103726 0.012072 0.073108 86 97 31
0.056358 0.017396 -0.085092 131 133 132
0.122413 -0.006331 -0.028892 129 129 129
-0.086384 0.057942 0.055108 13 14 2
0.120263 -0.018069 -0.028992 137 137 137
0.084728 -0.024835 0.015908 150 150 148
0.118088 -0.004212 -0.029292 128 128 128
0.056254 -0.047591 0.035108 148 148 146
0.066917 0.008198 0.005508 133 135 130
-0.012475 0.060582 -0.002892 107 122 41
0.090564 -0.041898 -0.032592 120 118 124
0.107085 -0.031695 -0.030392 140 140 140
0.056946 0.017564 -0.085592 130 133 131
-0.229758 -0.104155 0.111408 109 108 114
-0.136475 0.064728 0.046408 60 66 22
0.028170 0.011831 -0.118592 55 61 19
0.028176 0.011856 -0.118592 103 103 101
0.029233 0.014534 0.015308 94 106 33
-0.126652 -0.080502 0.110208 118 119 121
0.028170 0.011850 -0.118592 104 105 97
0.061891 0.025827 -0.087092 124 117 117
0.060732 0.038477 -0.080292 122 118 122
0.028262 0.011779 -0.118592 77 78 66
0.028171 0.011775 -0.118592 101 101 101
-0.007858 -0.002363 0.062008 95 108 37
-0.056491 -0.007962 0.092508 69 78 24
0.088589 0.010601 -0.067392 166 161 173
0.046165 0.047678 -0.067192 35 36 18
-0.066205 -0.120199 0.084908 118 118 123
0.060524 0.037669 -0.080192 122 122 120
0.062504 0.038492 -0.080992 117 115 118
-0.117320 0.012074 0.074708 83 91 33
-0.091659 0.091080 0.010608 126 127 122
0.062391 -0.080620 0.026408 146 148 145
0.022743 0.042465 -0.065892 112 127 40
0.047667 -0.040290 0.041408 146 148 145
0.061276 0.020567 -0.090492 92 86 89
0.121997 -0.024941 -0.030092 137 137 137
-0.122824 0.073967 0.026908 122 122 114
-0.160946 0.009503 0.074608 67 76 24
0.028175 0.011799 -0.118592 60 68 19
0.088014 -0.020583 -0.026692 99 102 99
-0.102189 0.085451 0.015108 115 116 108
0.028269 0.011857 -0.118592 95 106 33
-0.106071 0.066246 0.047208 55 54 54
0.045287 0.031764 -0.040692 119 131 49
-0.114169 -0.001449 0.084908 72 81 23
-0.103743 -0.031550 0.111208 97 103 80
-0.107183 0.008272 0.082008 58 67 13
0.053119 0.034042 -0.074792 44 44 41
-0.108906 0.067490 0.032608 117 118 112
-0.088372 0.097810 0.006808 120 120 118
0.028335 0.011804 -0.118592 107 109 104
0.021416 0.028201 0.018908 78 89 29
0.062583 0.025635 -0.087392 120 116 117
0.086500 -0.023553 -0.018792 149 149 147
-0.223462 -0.062553 0.115308 106 106 108
-0.039658 0.039629 0.022508 104 117 35
0.084276 -0.050064 -0.020692 149 149 147
-0.218191 -0.093640 0.110408 110 109 115
-0.071133 0.016471 0.074208 86 97 31
0.085345 -0.050182 -0.021092 149 149 147
-0.111438 -0.121161 0.103308 121 122 126
-0.062144 0.038418 0.035708 107 120 41
0.028197 -0.070031 0.046808 145 145 143
0.056104 0.029998 -0.031392 122 136 52
-0.090539 -0.093629 0.108508 124 125 129
0.020278 0.033945 0.020508 75 85 25
0.037787 -0.080140 0.044108 144 146 143
0.039341 0.011987 0.014408 127 142 55
0.081915 0.018228 -0.066392 209 209 211
0.028170 0.011738 -0.118592 107 106 112
0.120335 -0.035623 -0.031192 135 135 135
0.052666 0.024072 -0.002792 97 111 28
-0.078643 -0.043976 0.119508 79 81 80
-0.098723 -0.112183 0.107708 122 123 128
-0.008260 0.044640 0.006808 110 123 43
0.050913 -0.081248 0.040708 147 147 145
0.103871 -0.043807 -0.031392 138 138 138
-0.148427 0.023534 0.054108 86 96 32
-0.063375 -0.036610 0.123408 82 82 88
-0.078090 0.068013 0.038908 98 98 88
0.116741 -0.023546 -0.029792 139 139 139
-0.003875 0.034471 0.034808 109 122 43
-0.106223 0.038163 0.047008 61 67 21
0.075386 0.017031 -0.002692 126 128 125
-0.054386 0.066699 0.026708 79 83 52
0.103312 -0.029729 -0.030292 141 141 141
0.066758 -0.026014 0.022208 148 148 146
0.101700 -0.022517 -0.029392 142 142 142
0.039580 -0.093165 0.043208 144 147 143
0.059930 -0.005584 0.009708 140 142 137
-0.173258 -0.083604 0.109308 115 116 120
0.060612 0.033402 -0.085892 118 113 117
-0.111000 -0.080790 0.113108 122 123 125
-0.123985 -0.065710 0.114108 117 118 120
-0.151848 -0.091293 0.105308 118 117 122
0.087253 -0.049897 0.017608 150 150 148
0.039155 0.036232 -0.048692 107 118 40
0.028405 0.011783 -0.118592 94 94 96
0.034419 0.026281 0.006808 82 92 31
0.050604 0.033002 -0.000892 76 87 27
-0.086811 0.094142 0.008508 123 124 119
0.051937 -0.000283 0.031808 133 135 130
0.067258 0.017059 -0.068992 216 217 219
-0.028696 0.032874 0.038108 108 121 42
-0.127815 0.011706 0.076808 67 76 22
-0.115320 0.067933 0.046608 22 20 18
0.066783 -0.040524 0.025308 148 150 147
-0.097708 0.058119 0.052108 60 66 22
0.004814 0.056614 -0.004592 111 123 44
-0.131215 0.053537 0.046808 60 66 22
0.083400 0.009502 -0.061892 211 211 213
-0.041445 -0.124668 0.130508 119 119 119
-0.200081 -0.031701 0.109708 104 104 104
0.028172 0.011749 -0.118592 108 108 110
-0.053715 -0.125210 0.113008 130 128 133
0.018052 -0.086102 0.053508 81 83 81
-0.107483 0.027774 0.053808 83 95 25
-0.137517 0.064133 0.046508 59 65 21
0.110654 -0.018511 -0.028692 140 140 140
-0.208222 -0.078109 0.113008 108 108 110
0.138099 -0.021086 -0.029592 131 131 133
0.064376 0.028573 -0.087892 111 107 108
0.028389 0.011834 -0.118592 127 123 122
0.104146 -0.009246 -0.028092 137 137 137
0.028841 -0.005734 0.051408 124 129 123
-0.123186 0.010954 0.079008 67 76 20
0.017926 0.008871 0.031608 69 79 20
0.060656 0.029945 -0.080892 132 127 125
-0.108289 0.085726 0.015608 111 112 104
-0.126195 0.031257 0.049908 82 93 27
0.125103 -0.011604 -0.028292 133 133 133
0.028174 0.011837 -0.118592 94 96 100
-0.158717 -0.080018 0.109008 115 116 118
0.083367 -0.059708 -0.009992 149 148 146
-0.064360 -0.045962 0.126008 81 82 85
0.027924 0.038506 -0.060292 114 126 44
-0.216100 -0.084441 0.111308 107 106 112
0.052628 0.034763 -0.046192 99 111 37
-0.232792 -0.036159 0.114508 103 103 103
0.108787 -0.016242 -0.028292 140 140 140
0.102969 -0.036453 -0.030892 140 140 140
-0.072289 -0.022077 0.106308 75 87 28
0.058061 0.020573 -0.086092 133 129 128
-0.004723 0.054229 -0.004592 114 126 44
-0.058555 0.035840 0.036108 106 119 39
0.028357 0.011797 -0.118592 225 226 228
0.028256 0.011844 -0.118592 107 123 39
0.028338 0.011751 -0.118592 150 150 148
0.081890 -0.049051 0.019808 149 151 148
0.050105 0.040389 -0.061192 39 41 17
0.054187 0.034375 -0.001892 73 82 25
0.038302 0.029087 0.004708 81 90 29
-0.138469 0.054326 0.046208 59 65 21
0.036294 -0.011322 0.045208 134 140 133
0.081437 -0.034734 -0.017592 150 150 148
-0.107416 -0.002285 0.085808 70 81 21
-0.131481 -0.004071 0.083808 72 81 26
0.039680 0.037507 -0.052592 102 114 38
-0.198098 -0.075908 0.113008 109 110 112
-0.075674 -0.111926 0.098208 121 123 122
-0.039805 -0.125646 0.129708 120 120 120
-0.034883 0.073186 0.005708 82 90 45
0.028347 0.011817 -0.118592 72 74 53
-0.053170 0.092178 0.006208 132 132 130
-0.076797 -0.054529 0.118408 95 95 98
0.031924 -0.068682 0.044708 145 144 143
0.117578 -0.042868 -0.032092 133 133 133
0.105429 -0.001111 -0.029592 134 129 131
0.058490 -0.006595 0.021108 139 141 136
-0.100041 0.073498 0.027108 119 121 110
0.028348 0.011795 -0.118592 109 110 102
-0.112091 0.011706 0.075608 83 93 34
-0.124220 0.061578 0.047408 61 67 23
-0.152094 -0.018874 0.090308 82 93 32
-0.122924 -0.116795 0.101608 120 121 125
0.063734 0.032952 -0.087992 105 103 108
-0.121428 0.082682 0.021708 114 114 104
-0.048058 -0.137932 0.127408 80 81 84
0.093048 -0.017088 -0.029392 143 143 143
0.028289 0.011789 -0.118592 70 72 38
-0.031182 -0.120430 0.125308 123 124 120
-0.010581 -0.063538 0.118408 136 137 133
0.059588 0.019680 -0.088992 114 112 113
0.057906 0.037321 -0.078792 130 130 128
-0.022419 0.052697 -0.002792 112 125 43
-0.126439 -0.063402 0.113808 117 118 120
0.043289 -0.084672 0.043408 146 146 144
0.005105 0.052477 -0.002792 114 127 45
-0.033730 0.034326 0.035808 107 120 41
-0.067989 -0.084462 0.097608 116 118 115
0.092172 -0.074571 0.016508 149 149 147
-0.009497 0.046217 0.003108 111 124 42
0.055006 0.040716 -0.054392 42 44 20
0.028336 0.011814 -0.118592 103 115 42
0.088941 -0.043368 -0.029692 137 137 136
0.047976 0.041229 -0.055392 46 49 18
0.034627 -0.020415 0.042408 138 140 135
0.062199 0.021405 -0.090392 85 78 80
-0.054373 -0.032998 0.121308 96 96 95
-0.228566 -0.093454 0.111908 110 109 114
0.038254 0.038919 -0.058892 91 102 33
0.028171 0.011861 -0.118592 102 102 100
0.071674 -0.068324 0.026108 148 148 146
0.037614 0.002019 0.036108 116 122 119
0.063671 0.026749 -0.087792 115 112 113
-0.030391 -0.005976 0.075208 71 82 21
0.028173 0.011850 -0.118592 108 109 101
0.028341 0.011808 -0.118592 51 51 50
0.047800 0.035301 -0.048692 101 112 36
-0.071734 -0.106296 0.097708 121 122 126
-0.132339 -0.102528 0.104808 118 119 123
0.060168 0.035096 -0.080092 127 126 124
0.026476 0.040923 -0.063492 110 125 41
0.079596 -0.028585 0.020008 149 149 147
-0.004223 0.035177 0.033708 107 120 41
0.014368 0.037471 0.027008 44 50 4
0.039399 0.015462 0.012108 130 143 56
0.084090 -0.037962 -0.020692 150 150 148
0.028383 0.011829 -0.118592 132 128 127
0.078536 0.007492 -0.000992 138 140 135
-0.047397 0.024424 0.052808 106 118 42
0.021845 0.055522 -0.002892 117 128 49
0.028364 0.011806 -0.118592 208 212 214
0.088598 -0.038431 -0.024692 143 143 141
-0.084966 0.077295 0.024508 134 136 125
0.100108 -0.007848 -0.028192 138 138 136
-0.080855 0.085045 0.016708 129 130 124
0.023268 0.037760 0.018308 72 83 25
0.028338 0.011823 -0.118592 48 51 22
0.061447 0.026600 -0.010092 114 127 40
0.001731 0.011409 0.045208 72 83 27
-0.028308 0.091200 0.000808 87 88 81
-0.047847 0.080672 0.015208 92 94 85
-0.149419 0.027274 0.051908 85 95 32
0.057123 0.021310 -0.084792 133 131 129
-0.119246 -0.066898 0.115008 118 119 121
-0.058023 0.092438 0.008108 143 143 141
-0.107608 0.094173 0.012008 112 112 110
0.081437 -0.053557 -0.017592 148 148 148
-0.057707 0.084101 0.015908 136 137 130
0.065286 0.031352 -0.088392 90 86 87
0.077862 0.000355 -0.005592 141 143 138
0.031442 0.038780 0.011908 73 82 29
0.062180 0.022092 -0.089192 116 113 113
-0.068938 0.087355 0.013108 139 140 133
-0.147773 0.036229 0.046708 80 90 29
-0.186595 -0.128421 0.100808 114 115 120
0.060511 -0.019273 0.017308 141 144 137
-0.129284 -0.013099 0.088508 75 84 27
0.060082 0.029658 -0.080892 130 129 126
0.132142 -0.008821 -0.027692 130 130 130
-0.188472 -0.087832 0.107108 110 111 113
-0.051571 0.084703 0.014208 101 102 95
0.025814 0.045428 -0.067192 83 93 32
0.023568 0.040332 -0.062592 115 129 44
-0.083551 -0.078032 0.112808 95 96 100
-0.157982 -0.103055 0.105008 116 115 120
0.090783 0.007861 -0.011092 86 87 81
-0.018431 0.049690 -0.001192 110 123 41
-0.016119 -0.001442 0.063508 80 92 25
0.028172 0.011824 -0.118592 56 61 21
-0.140722 -0.034131 0.111008 112 114 113
0.033090 0.044453 -0.064592 54 59 18
-0.043566 0.092068 0.002808 135 137 132
0.042004 0.044060 0.006408 66 78 22
0.028270 0.011857 -0.118592 94 106 31
0.081700 -0.039286 -0.020292 150 150 148
0.090312 0.008116 -0.006392 109 114 109
-0.094339 0.074115 0.027908 131 133 122
-0.052413 -0.106602 0.106908 43 47 50
-0.115079 -0.102212 0.108408 120 121 125
0.028173 0.011850 -0.118592 109 110 102
0.059743 0.033595 -0.079892 129 128 126
-0.163351 -0.128835 0.099508 120 119 125
0.088205 0.012521 -0.069392 184 167 180
-0.241667 -0.056897 0.118808 106 106 108
-0.144732 0.037675 0.045908 69 76 21
0.028290 0.011827 -0.118592 119 130 44
0.012648 0.034923 0.030208 47 56 13
-0.013614 0.042318 0.018908 107 122 39
0.061102 0.030929 -0.080792 130 129 127
0.093093 0.008935 -0.012992 133 136 129
0.051552 0.035147 -0.073292 89 88 83
-0.046486 0.087416 0.009808 104 105 95
0.028402 0.011835 -0.118592 70 64 66
0.063229 0.030093 -0.087292 101 96 96
0.130775 -0.038011 -0.030792 130 130 132
0.058135 0.027916 -0.078992 134 133 131
0.071675 -0.031735 0.023408 149 149 147
-0.058908 0.071289 0.027808 88 89 75
0.055668 0.036106 -0.078292 130 130 128
-0.155152 -0.003286 0.083608 72 81 24
0.061337 -0.009274 0.011408 139 144 138
0.022296 0.042192 -0.065492 112 126 41
0.060901 0.020353 -0.090492 104 98 99
-0.220901 -0.028522 0.108908 105 105 105
0.028337 0.011754 -0.118592 150 150 148
-0.189024 -0.050363 0.114608 109 111 110
0.077930 -0.032910 0.022008 149 149 147
0.078304 -0.079616 0.022308 148 148 146
0.017796 0.043246 0.011908 110 121 44
-0.155711 0.034866 0.048208 80 90 29
0.116136 -0.042170 -0.031892 135 135 138
-0.132373 0.018560 0.061508 91 101 38
0.028172 0.011743 -0.118592 108 107 113
-0.135146 0.003009 0.080308 71 80 23
0.028340 0.011850 -0.118592 142 143 138
0.028340 0.011825 -0.118592 45 44 17
0.022760 -0.073653 0.049608 146 146 144
-0.053731 0.098621 0.004908 138 138 136
-0.229004 -0.096083 0.111908 110 109 114
0.070888 0.014520 -0.066992 221 222 224
0.085546 -0.069687 0.019108 149 149 147
0.096423 -0.018853 -0.029192 143 143 141
0.028403 0.011816 -0.118592 197 197 198
0.082871 -0.030433 0.018308 149 151 148
0.065575 0.015969 -0.069592 219 220 222
0.056613 0.017915 -0.085392 130 130 129
0.082645 -0.032065 -0.013392 150 153 149
0.019553 -0.019718 0.063108 136 138 133
-0.169498 -0.075280 0.112508 110 115 117
0.045978 0.041199 -0.065092 43 46 20
-0.066405 -0.081650 0.096808 128 133 130
0.102427 -0.000643 -0.025492 135 136 134
-0.133652 0.027410 0.053408 89 100 35
0.052999 0.018196 -0.080292 142 141 136
0.060454 0.030137 -0.080792 128 128 125
0.080024 0.016866 -0.066092 212 212 214
0.056519 0.037883 -0.078392 141 141 141
0.022172 0.045595 0.008608 105 119 40
-0.033017 0.038821 0.023908 108 121 42
-0.053249 0.043604 0.024708 100 111 34
0.084407 0.001411 -0.005392 142 144 139
0.089278 -0.010267 -0.009392 145 144 142
0.084911 0.009394 -0.061892 209 209 211
0.028173 0.011739 -0.118592 109 108 114
0.056106 -0.030844 0.032708 146 148 145
-0.019574 0.000555 0.064808 78 88 24
-0.236581 -0.083084 0.115508 106 106 108
0.059590 0.021801 -0.087292 128 124 123
-0.211817 -0.022047 0.103308 99 98 96
0.028170 0.011796 -0.118592 63 71 22
0.028173 0.011777 -0.118592 101 101 101
-0.011033 -0.118663 0.113108 131 131 129
0.067592 0.006644 0.003208 135 137 133
-0.103602 -0.126831 0.103608 122 123 128
-0.097293 0.047525 0.051108 61 69 22
0.041811 -0.006123 0.040508 133 136 129
0.061651 0.025707 -0.087092 123 119 118
-0.127598 0.039305 0.046308 60 66 18
0.013541 0.051118 -0.001592 114 127 45
-0.014712 0.052697 -0.002792 111 124 42
-0.028296 -0.057936 0.128908 112 114 108
-0.079283 0.075889 0.027508 131 133 122
0.061634 0.028916 -0.084392 121 122 119
0.134217 -0.010550 -0.027692 131 131 131
0.016845 0.041044 0.014308 107 118 39
0.051890 0.019130 -0.079592 137 139 136
0.064048 -0.074995 0.025308 147 147 145
0.056093 0.030301 -0.078892 134 134 132
-0.190609 -0.054296 0.114408 109 111 110
0.055958 0.021907 -0.079192 135 135 133
0.077812 -0.002577 -0.006192 142 144 139
-0.037103 0.042096 0.015608 106 119 37
-0.172992 -0.043130 0.114008 110 112 111
0.028371 0.011828 -0.118592 132 131 129
0.055878 0.015788 -0.084092 215 215 219
0.054076 0.016912 -0.083592 133 132 132
-0.026493 0.086745 0.001308 85 87 71
0.055980 -0.054647 0.035208 150 149 147
0.005918 0.060040 -0.004692 109 122 41
-0.027203 0.058300 -0.001992 86 100 26
0.027227 -0.031833 0.051108 137 142 136
-0.083492 0.090647 0.011108 129 130 125
-0.046524 0.084489 0.012008 96 97 88
-0.026325 0.036896 0.028508 108 121 39
-0.203490 -0.122666 0.103008 112 111 117
0.101231 -0.007998 -0.028292 139 139 137
0.061594 0.030356 -0.034292 115 127 45
0.083161 0.015064 -0.002092 131 132 127
0.028172 0.011775 -0.118592 101 101 101
-0.019093 0.037730 0.026908 105 118 35
-0.058768 0.020956 0.061508 101 112 43
0.028383 0.011864 -0.118592 116 114 117
0.087564 0.008891 -0.064592 199 198 203
-0.161211 -0.124939 0.099908 121 120 126
0.054715 -0.076453 0.038108 147 147 145
0.028172 0.011817 -0.118592 54 59 18
0.045580 0.040754 -0.059092 48 49 18
0.083120 -0.065568 0.021608 149 149 147
0.058199 0.013198 0.009608 113 119 111
0.032425 0.004180 0.040108 106 111 106
-0.058333 0.055553 0.027308 84 92 34
0.060305 0.034889 -0.080192 127 126 124
0.024049 -0.064200 0.049208 146 146 144
-0.115272 -0.078784 0.113608 122 123 125
0.040980 0.021249 0.003408 86 97 31
-0.121453 -0.117808 0.101908 120 121 125
0.069066 -0.059982 0.027608 148 150 147
0.028174 0.011835 -0.118592 18 18 10
-0.177510 -0.012824 0.089508 77 86 29
-0.092799 0.045543 0.052508 60 67 25
0.028171 0.011849 -0.118592 105 106 98
0.077532 0.021804 -0.014892 114 116 113
0.037389 0.035360 -0.046892 114 128 43
-0.129166 0.041186 0.046308 60 66 23
0.054646 0.040006 -0.078092 129 129 129
0.108602 -0.003465 -0.028692 133 133 133
0.028172 0.011787 -0.118592 69 77 26
0.089960 0.000577 -0.007792 142 144 140
0.039916 -0.069990 0.043608 147 147 145
0.088377 -0.003188 -0.007992 144 146 144
0.124310 -0.009691 -0.028392 132 132 132
0.093478 0.005019 -0.020292 137 140 133
0.028173 0.011765 -0.118592 105 105 107
0.054694 0.030730 -0.077292 137 137 135
0.028363 0.011814 -0.118592 134 136 129
0.052050 0.031362 -0.036792 118 132 47
0.062946 0.015961 0.004808 116 116 113
-0.120834 0.081427 0.022408 115 115 105
0.059441 0.024811 -0.082392 131 130 128
0.047677 0.039861 -0.054392 47 51 19
0.052550 -0.009103 0.035708 140 142 137
0.055852 0.019142 -0.084692 130 126 125
0.033722 -0.021723 0.042808 139 141 136
-0.013828 0.048139 0.000308 113 126 44
0.086593 -0.045871 -0.021792 149 149 147
0.049304 0.040860 -0.064392 42 44 22
0.094279 -0.039260 -0.031792 141 141 139
0.087697 -0.049363 -0.022092 148 148 146
-0.015063 0.043556 0.015308 106 115 38
0.061559 0.017208 -0.087292 205 204 209
0.122007 -0.037945 -0.031492 134 134 136
-0.133534 0.068875 0.046608 58 64 20
0.028171 0.011760 -0.118592 103 103 105
-0.106730 -0.067369 0.116408 117 118 120
0.062433 0.038349 -0.080992 119 117 120
0.059732 0.027964 -0.020592 82 93 27
0.060625 0.031661 -0.086192 119 117 120
0.055900 0.016861 -0.084392 160 161 159
0.019459 0.017831 0.020908 83 90 41
0.024719 0.041024 -0.063892 113 126 44
-0.057288 -0.082843 0.098608 34 38 36
0.106526 -0.025276 -0.029692 141 141 141
0.028170 0.011850 -0.118592 104 105 97
0.078150 0.011869 -0.066692 212 212 214
-0.197734 -0.081888 0.110408 109 111 113
-0.060142 -0.080839 0.103708 59 60 63
-0.149013 0.061188 0.046108 57 62 21
-0.090708 -0.036307 0.117408 99 101 101
0.022415 -0.020557 0.060108 135 140 134
-0.026887 0.094518 -0.000292 88 89 83
0.028337 0.011833 -0.118592 39 44 21
-0.056977 -0.114877 0.083208 52 53 59
-0.041860 0.073611 0.012108 88 91 77
0.083782 0.015593 -0.068392 204 203 208
0.021636 0.055885 -0.003092 116 126 47
0.039926 0.047356 -0.067092 44 46 23
0.028389 0.011835 -0.118592 128 124 123
0.028170 0.011753 -0.118592 105 103 106
0.035950 -0.085016 0.044508 144 146 143
0.057303 0.024327 -0.078892 134 133 131
0.052175 0.031367 -0.074992 140 141 135
0.024202 0.052850 -0.001092 107 120 40
-0.146994 0.014615 0.072608 65 74 21
-0.139014 -0.116810 0.100208 121 120 126
0.088509 -0.054022 0.018108 150 150 148
0.028395 0.011782 -0.118592 112 113 116
0.041384 0.042671 -0.064292 50 51 20
0.077172 -0.080812 0.022908 149 148 146
-0.131462 0.072602 0.044808 17 16 15
-0.142973 -0.027669 0.106508 106 105 108
-0.062097 0.028394 0.046908 108 120 44
-0.175407 -0.107305 0.105008 116 115 120
0.086994 -0.050156 0.017608 150 150 148
-0.028637 0.035885 0.030908 107 120 40
0.082983 0.018623 -0.067892 206 205 210
-0.211820 -0.100733 0.108908 112 111 117
-0.238172 -0.064792 0.118108 105 105 107
-0.238946 -0.079136 0.116808 106 106 108
-0.137689 0.075194 0.042708 20 20 19
0.028177 0.011809 -0.118592 78 86 29
-0.054773 -0.110859 0.098508 85 87 91
0.028336 0.011804 -0.118592 108 110 107
0.029950 0.042679 0.011608 67 78 20
-0.089708 0.063784 0.042508 122 123 117
0.028173 0.011764 -0.118592 104 104 106
0.061668 0.022073 -0.088592 122 115 117
0.028339 0.011852 -0.118592 131 132 125
0.107521 -0.028476 -0.030092 140 140 140
-0.097330 0.070885 0.033208 126 128 117
0.041100 0.047955 -0.067492 41 43 19
0.107834 -0.032986 -0.030492 141 141 141
-0.052482 -0.070774 0.121108 28 30 31
-0.067962 -0.103080 0.099408 114 115 119
-0.123090 0.058366 0.047208 62 68 24
-0.022991 0.053725 -0.002992 111 124 42
-0.143060 0.071085 0.044908 59 64 23
0.052869 0.029984 -0.076092 132 132 129
0.099046 -0.035172 -0.030792 141 141 139
0.028176 0.011805 -0.118592 83 93 32
-0.118337 -0.087411 0.108108 121 122 126
0.060639 0.028852 -0.083992 118 114 113
0.058769 0.017843 -0.087092 199 201 203
0.107348 0.000547 -0.033192 130 128 126
0.031078 0.038996 -0.061592 101 114 34
0.014343 -0.024712 0.073008 105 110 106
-0.049127 0.035945 0.034908 109 122 42
0.062682 0.027818 -0.087192 119 115 116
-0.046299 -0.063260 0.140808 62 63 64
-0.143789 -0.061378 0.111608 116 117 119
0.064889 0.026680 -0.088292 113 109 110
-0.145353 0.056044 0.045608 58 63 22
0.092315 -0.008697 -0.028992 140 140 140
-0.067020 0.079867 0.022508 137 138 130
-0.141780 0.022981 0.055708 87 98 32
0.028386 0.011860 -0.118592 119 117 120
0.030461 0.035931 0.012608 76 86 25
-0.083819 0.092597 0.009508 124 125 120
0.059744 0.030041 -0.080692 130 130 128
-0.081506 0.076234 0.026408 133 135 124
0.095922 -0.026706 -0.030292 143 143 143
-0.223631 -0.119772 0.106708 109 108 114
0.061868 -0.022713 0.019708 112 112 110
0.027397 0.039726 -0.062092 111 127 43
0.074926 -0.068317 0.025108 148 148 146
0.088812 -0.032199 0.014208 150 150 148
0.059956 0.020325 -0.088092 94 90 89
-0.075446 -0.094854 0.102108 111 112 116
-0.073057 0.060689 0.040408 74 76 63
0.053688 0.027860 -0.077392 139 139 137
0.055125 0.032690 -0.079092 133 133 131
0.020993 0.042830 -0.066292 110 123 43
-0.020966 -0.000577 0.066108 78 85 28
-0.021814 -0.107048 0.122608 126 126 124
0.057758 0.034327 -0.078992 119 118 116
0.134420 -0.035178 -0.031092 131 129 132
-0.002688 0.064140 -0.003292 110 122 40
-0.032874 -0.001167 0.074908 70 80 24
0.058546 0.016320 -0.085492 212 212 214
0.061850 0.019693 -0.091292 114 113 115
-0.086549 -0.002299 0.086008 70 81 24
0.059900 0.030162 -0.080592 130 130 128
-0.117784 -0.030695 0.111308 99 105 83
0.028334 0.011824 -0.118592 52 56 22
0.043250 -0.000963 0.036608 128 130 125
-0.186183 -0.087534 0.107408 111 112 116
-0.110254 0.082788 0.018308 116 117 109
0.088500 -0.031506 -0.030092 105 105 103
0.132898 -0.032216 -0.030692 130 130 132
0.089273 -0.023050 -0.030192 146 143 146
0.081260 0.013224 -0.067692 209 208 213
0.116439 -0.039047 -0.031592 135 135 135
-0.089719 0.009059 0.080208 85 96 26
-0.131738 -0.012931 0.087108 50 60 7
-0.203948 -0.050000 0.114908 107 107 107
0.051977 0.022111 -0.078692 137 139 132
0.053655 0.039387 -0.073692 134 137 133
0.060978 0.030618 -0.086392 120 116 115
0.085964 -0.032984 0.015808 150 150 148
0.057167 0.018879 -0.086192 106 103 100
-0.151984 -0.085212 0.106008 116 117 121
-0.051249 0.056561 0.022608 88 98 36
0.103374 -0.011802 -0.028192 140 140 138
0.055190 0.037400 -0.050192 47 50 19
-0.035816 0.068631 0.006608 85 91 42
-0.044535 -0.112170 0.133008 111 110 110
0.053457 0.031072 -0.076192 136 136 134
-0.077272 0.026455 0.053708 102 112 38
-0.128140 -0.082697 0.109208 118 119 121
0.054800 0.037229 -0.078092 131 131 129
0.028171 0.011769 -0.118592 101 103 102
0.089830 -0.070766 0.017008 149 149 147
-0.120766 -0.036623 0.114608 114 116 115
0.082790 0.019009 -0.067892 205 204 209
-0.039007 -0.088816 0.132008 100 100 100
-0.051524 -0.091509 0.110508 38 39 45
0.111031 -0.010968 -0.028092 136 136 136
0.134212 -0.008236 -0.027992 127 127 127
-0.020020 -0.084206 0.122808 126 126 124
0.047075 0.040896 -0.055592 43 47 17
0.017165 0.031126 0.023108 77 86 32
0.108984 -0.023794 -0.029592 140 140 140
0.028162 0.046478 -0.066792 61 69 22
0.054347 0.032524 -0.042792 105 117 40
-0.109238 0.048684 0.047608 62 70 23
-0.229222 -0.070084 0.116508 106 106 108
-0.127343 -0.083171 0.109308 118 119 121
0.034265 0.039187 -0.061192 94 106 34
0.017425 0.042228 -0.064892 111 125 40
0.077118 0.009036 -0.000092 135 137 132
-0.129519 0.067439 0.047008 57 61 18
-0.127314 0.028017 0.052908 89 100 32
0.061084 0.022372 -0.088392 121 117 115
0.046355 0.034805 -0.046492 106 119 40
0.052155 -0.091874 0.038908 146 146 144
-0.215563 -0.126730 0.104808 110 109 115
0.067843 0.018160 -0.002192 116 118 115
0.028337 0.011822 -0.118592 48 52 19
0.012983 -0.030274 0.071808 89 91 86
0.067322 0.001687 -0.001092 139 141 136
-0.222649 -0.031343 0.110108 104 104 104
0.036545 0.036514 -0.049392 111 124 42
-0.138289 -0.012859 0.086508 75 84 27
-0.174451 -0.022696 0.099408 96 99 69
0.037325 0.006027 0.031308 107 109 104
0.064945 -0.072982 0.025608 147 150 146
0.003940 -0.081014 0.083808 136 136 134
0.053706 0.039224 -0.052692 44 47 18
0.062334 0.032420 -0.087292 112 110 113
-0.154224 0.052710 0.046008 57 62 21
0.028172 0.011796 -0.118592 61 69 20
0.083248 -0.038909 0.017308 149 151 148
0.042573 0.045591 -0.067092 41 43 20
0.044471 -0.078848 0.042908 145 147 144
0.028356 0.011799 -0.118592 224 223 225
0.108386 -0.025783 -0.029692 141 141 143
0.045236 -0.012185 0.038608 140 144 136
-0.051993 -0.103528 0.121008 108 109 113
-0.158190 0.021384 0.056808 82 95 38
0.089855 -0.000955 -0.018892 97 100 92
-0.019120 -0.136448 0.118308 130 130 128
-0.079149 0.072328 0.033208 136 138 127
-0.077781 0.098487 0.006408 129 130 129
-0.089425 0.062042 0.043808 117 120 115
0.109399 -0.008753 -0.027992 134 134 134
0.093832 -0.025320 -0.030392 143 143 143
0.086994 -0.030169 -0.020192 149 149 147
0.078768 0.015749 -0.001492 127 129 126
-0.096324 0.075232 0.026008 130 132 121
0.022778 0.057939 -0.003992 117 127 40
0.033108 0.036180 -0.049592 113 126 44
0.028344 0.011815 -0.118592 63 71 28
0.028178 0.011838 -0.118592 98 100 94
-0.159250 -0.101182 0.105508 117 116 121
0.013111 0.055552 -0.003392 109 121 41
-0.088828 0.035771 0.052408 60 62 14
0.057612 0.026640 -0.011292 89 100 33
-0.054519 -0.114273 0.084708 52 54 58
-0.061873 0.085880 0.014508 137 138 133
-0.020532 -0.127169 0.118608 129 129 127
-0.043662 0.088634 0.007008 98 92 89
