ply
format ascii 1.0
element vertex 1220
property float x
property float y
property float z
property uchar red
property uchar green
property uchar blue
end_header
0.007383 0.007707 0.008404 54 116 58
0.054966 -0.026646 0.021504 180 202 213
-0.013026 -0.018646 -0.011796 57 132 48
0.017138 -0.028203 -0.001796 231 211 155
0.039763 -0.008026 0.022204 18 28 83
0.084483 0.043998 0.049104 60 60 61
-0.017202 -0.004629 -0.055696 81 117 60
0.088733 0.057339 0.033804 62 62 62
0.047638 -0.035632 0.012804 38 49 131
-0.040994 0.024438 -0.014596 79 96 97
0.020773 0.001016 0.016504 120 168 158
-0.034433 0.027113 -0.008096 52 55 71
0.021677 0.036962 0.029704 189 218 216
-0.019452 -0.009429 -0.011996 127 200 84
-0.041684 -0.004533 -0.021496 98 183 80
-0.017195 -0.004594 -0.055696 94 177 77
-0.025579 0.031545 0.000504 17 11 68
-0.013339 0.012501 0.001204 53 76 107
0.099740 -0.014096 0.045904 135 152 165
-0.033493 -0.018275 -0.024896 0 74 24
-0.029455 0.019408 -0.006996 38 93 63
-0.013455 -0.010868 -0.008696 21 97 52
0.084799 0.044970 0.047804 64 63 68
-0.017199 -0.004643 -0.055696 77 136 51
0.085471 0.043583 0.049504 59 58 63
-0.017202 -0.004601 -0.055696 64 130 83
-0.017185 -0.004535 -0.055696 70 78 89
-0.074857 0.009940 0.007504 107 124 134
-0.004287 0.010374 0.003504 65 103 149
-0.013216 -0.023810 -0.014696 34 117 53
0.056866 0.053992 0.036304 69 69 71
-0.029021 -0.005873 -0.016396 123 171 161
-0.017207 -0.004615 -0.055696 70 149 62
-0.030182 0.024820 -0.007396 57 64 85
-0.014027 -0.023909 -0.016096 122 174 69
-0.030158 -0.014764 -0.020596 137 184 77
0.076485 -0.011877 0.033004 84 96 115
-0.034772 -0.022092 -0.027196 91 157 70
-0.017199 -0.004597 -0.055696 87 136 128
0.106150 -0.030707 0.050604 66 34 29
-0.026228 0.006682 0.001904 12 61 34
0.046009 -0.010421 0.029004 31 40 105
-0.032256 0.016441 -0.013196 10 25 116
0.017341 -0.015442 0.001804 255 255 238
-0.028050 -0.021371 -0.023096 121 166 73
-0.030815 -0.013642 -0.020796 133 181 70
-0.017204 -0.004593 -0.055696 148 170 184
0.079669 0.017574 0.061104 80 97 127
-0.017211 -0.004528 -0.055696 43 42 38
0.026844 0.041594 0.034304 130 146 149
0.034644 -0.028395 0.009404 157 176 183
0.051844 -0.031676 0.018004 133 147 162
-0.031415 -0.016535 -0.022196 118 177 76
0.034056 -0.031944 0.007304 24 50 123
-0.020436 -0.018385 -0.016996 77 167 71
-0.068153 0.009780 0.006804 125 143 153
0.081034 -0.074123 0.052104 61 53 52
-0.014560 -0.000200 0.008704 62 101 148
-0.017204 -0.004605 -0.055696 37 127 59
-0.036326 -0.006492 -0.018896 34 126 64
0.076466 -0.031621 0.029304 78 19 18
-0.032669 -0.021180 -0.025696 59 149 73
-0.062447 0.008576 0.007304 123 143 154
0.021117 -0.008692 0.029904 58 72 75
-0.024294 0.014906 -0.003396 64 173 96
-0.007272 0.009458 0.002504 69 115 152
-0.016924 0.019685 -0.002296 95 125 131
-0.017111 -0.004567 -0.055696 6 55 33
0.018207 0.006911 0.011604 43 97 47
-0.001587 -0.024924 -0.011596 195 188 135
0.053941 -0.029083 0.020404 152 171 186
-0.007442 0.006995 0.003504 135 178 224
-0.006860 0.016471 0.001104 29 37 107
0.112848 0.023563 0.070004 92 85 75
-0.017044 -0.004598 -0.055696 133 152 157
0.027507 0.035366 0.031904 153 144 144
0.036224 0.055166 0.033104 55 56 58
-0.017191 -0.004614 -0.055696 88 155 59
-0.057051 0.004403 0.014004 118 142 151
-0.036601 -0.002205 0.023604 75 105 109
-0.039916 0.022109 -0.015396 75 91 62
-0.017186 -0.004623 -0.055696 8 61 22
-0.017051 -0.004548 -0.055696 159 165 169
-0.017184 -0.004644 -0.055696 104 161 67
0.086728 0.018377 0.061804 118 133 157
0.084784 0.018585 0.060604 84 103 129
-0.001199 0.014850 0.004104 102 98 162
-0.021726 0.008523 0.001804 0 109 42
0.094295 0.050361 0.041004 63 63 63
0.032717 -0.003080 0.025204 83 113 121
-0.038987 -0.013251 -0.024596 124 176 66
-0.017074 -0.004544 -0.055696 70 79 95
-0.017202 -0.004545 -0.055696 88 98 110
0.044699 -0.004912 0.021704 31 58 153
0.021044 0.055486 0.031604 52 56 59
0.021390 -0.018287 0.001804 173 174 146
0.004000 -0.021617 -0.006596 194 189 159
-0.027242 -0.013753 -0.019296 110 171 65
-0.041073 0.020775 -0.016396 112 133 20
0.119936 0.032185 0.066104 68 68 66
0.030726 0.007350 0.018304 49 103 52
-0.020362 -0.018385 -0.016996 83 159 63
0.082198 0.026980 0.057404 115 121 145
0.010384 -0.003537 0.025604 60 82 68
-0.038726 -0.018931 -0.026996 105 153 53
-0.031710 0.015692 -0.012896 15 35 130
0.065307 -0.006106 0.031004 143 156 177
-0.017201 -0.004547 -0.055696 91 101 113
-0.015201 -0.019879 -0.013696 113 172 60
0.088865 -0.063105 0.050704 23 9 11
-0.035920 -0.017744 -0.026596 30 123 51
-0.017183 -0.004612 -0.055696 121 164 71
-0.015555 0.000973 0.008104 65 93 137
-0.017546 -0.026614 -0.018296 116 167 79
-0.590800 -0.290966 0.544204 110 156 58
0.079126 -0.073726 0.051804 62 55 51
-0.042525 0.019721 -0.017696 22 29 70
0.046933 -0.009721 0.028104 28 43 104
-0.042814 -0.006015 -0.021896 108 153 65
-0.017180 -0.004617 -0.055696 107 170 66
0.119634 0.008967 0.072104 161 152 135
0.007295 -0.003082 0.025104 61 91 68
0.030930 0.046977 0.036904 57 58 64
-0.017201 -0.004609 -0.055696 58 139 56
-0.017113 -0.004569 -0.055696 16 59 41
-0.009815 -0.028426 -0.013996 126 125 72
-0.017070 -0.004528 -0.055696 47 54 81
-0.017017 -0.004602 -0.055696 99 106 112
-0.002934 0.043567 0.017504 39 34 71
-0.034595 -0.005244 -0.018096 28 119 72
-0.048192 0.019902 -0.018196 10 10 28
-0.017202 -0.004540 -0.055696 77 81 91
-0.022135 -0.016727 -0.016396 65 138 92
-0.047576 0.022113 -0.017896 14 17 37
0.035063 0.026669 0.035204 156 164 170
-0.004544 -0.028085 -0.013896 200 186 140
0.095410 0.051564 0.039304 63 63 63
-0.034684 0.014579 -0.013196 19 39 133
0.075323 0.039436 0.053104 65 66 71
0.029356 -0.007988 0.028604 84 104 115
0.107126 -0.068557 0.048704 80 67 66
-0.017184 -0.004589 -0.055696 119 174 72
-0.017097 -0.004531 -0.055696 58 67 54
0.068027 -0.058817 0.046804 20 10 11
0.011884 0.014649 0.010904 125 145 143
0.012898 0.003497 0.010904 21 52 49
0.061313 -0.014124 0.036804 102 118 137
-0.017214 -0.004638 -0.055696 114 166 148
-0.016688 0.008526 0.002304 14 45 43
0.072221 -0.005644 0.033804 157 173 186
0.063826 -0.009782 0.029104 46 61 114
-0.030645 -0.023799 -0.024696 110 169 76
-0.017188 -0.004512 -0.055696 8 6 28
0.021133 -0.005902 0.028504 57 80 71
0.091819 0.057910 0.033404 54 54 54
-0.038091 0.014287 -0.011996 155 188 44
0.108913 -0.006066 0.052104 219 192 163
0.024969 -0.051586 0.021704 70 71 70
-0.015583 -0.016337 -0.013196 34 109 31
-0.038707 0.010042 -0.004396 26 36 112
0.126154 0.003833 0.079404 113 137 133
-0.014259 0.037266 0.010004 19 12 64
-0.001362 0.027318 0.011704 49 45 74
0.023236 0.002092 0.014804 121 167 157
0.091069 0.046605 0.045204 59 59 59
-0.003869 -0.022590 -0.010496 178 181 117
-0.024028 -0.025333 -0.021796 83 161 80
-0.007045 -0.021229 -0.011596 192 187 133
-0.017198 -0.004569 -0.055696 136 157 167
0.048184 -0.012516 0.032604 21 21 60
0.037811 -0.007605 0.022804 24 37 88
0.006104 -0.000790 0.018804 22 40 45
-0.041913 0.010249 -0.005996 65 86 135
-0.053331 0.006337 0.014504 93 121 131
-0.030346 -0.020003 -0.023996 125 171 70
-0.037099 -0.014440 -0.024396 121 180 71
0.125604 0.006065 0.078404 64 97 68
0.052761 0.040125 0.045304 66 66 68
-0.033693 0.031175 -0.004196 16 12 71
-0.044120 0.018483 -0.018296 12 21 91
-0.028435 -0.018495 -0.022696 1 64 8
-0.017179 -0.004643 -0.055696 110 168 69
-0.032308 0.021465 -0.009596 51 75 102
0.082160 0.058249 0.033404 65 65 65
-0.032975 -0.023371 -0.026296 92 162 72
-0.038420 0.017003 -0.015896 139 158 0
0.091418 -0.012878 0.042904 145 164 178
0.010901 -0.003986 0.027604 38 60 45
0.081941 -0.034834 0.029704 77 24 21
-0.017105 -0.004565 -0.055696 10 62 40
-0.030477 -0.010957 -0.018196 131 189 76
0.053417 0.057950 0.033704 65 66 68
0.012375 0.036674 0.024704 51 83 77
0.057225 0.040116 0.047504 70 70 68
0.000484 0.029191 0.012904 58 59 52
-0.049121 -0.000288 0.013204 90 109 119
0.050617 0.023773 0.047304 80 48 22
0.046607 -0.031439 0.014104 165 181 197
-0.017199 -0.004596 -0.055696 136 184 156
0.065179 -0.020039 0.036404 35 42 70
0.030321 0.042670 0.036404 93 101 108
-0.017206 -0.004519 -0.055696 37 36 34
0.083890 0.054932 0.034804 56 56 56
-0.035877 -0.012052 -0.023096 5 65 35
-0.017119 -0.023617 -0.017296 125 175 69
0.084259 -0.068532 0.052704 98 76 65
0.096537 -0.037309 0.037704 84 31 24
-0.012034 -0.019615 -0.011896 51 142 58
-0.022776 -0.016140 -0.016096 52 100 71
-0.034065 -0.011459 -0.020396 69 138 54
-0.017040 -0.004597 -0.055696 79 94 96
-0.017186 -0.004589 -0.055696 84 153 54
-0.017206 -0.004520 -0.055696 37 34 32
-0.026524 0.007080 0.001704 9 63 32
-0.017216 -0.004553 -0.055696 99 110 121
-0.031137 0.028978 -0.003496 52 62 53
-0.037231 0.008233 -0.000396 13 23 76
-0.032504 -0.003874 -0.017596 104 141 134
-0.035340 0.011862 -0.009696 8 24 123
-0.001254 0.007674 0.005204 128 187 241
-0.017180 -0.004648 -0.055696 95 159 63
-0.039462 -0.003358 -0.019496 178 223 209
0.133391 0.029741 0.069004 70 70 68
0.009285 -0.028912 -0.007696 168 166 125
0.008710 0.015143 0.009604 126 144 144
-0.017200 -0.004606 -0.055696 53 136 54
-0.044903 0.017628 -0.018296 40 53 138
-0.001890 -0.013633 -0.006296 174 185 151
-0.028680 -0.018882 -0.019996 130 197 95
0.092391 0.053832 0.036604 61 61 61
-0.017180 -0.004628 -0.055696 84 149 53
-0.044234 0.013770 -0.013196 35 41 127
0.010016 -0.029917 -0.007696 140 131 115
-0.031667 -0.016998 -0.022496 118 180 79
-0.033703 -0.020180 -0.026396 32 117 56
-0.021838 -0.026181 -0.020296 64 125 75
0.013887 -0.022461 -0.002096 171 131 50
0.014663 -0.054825 0.021704 66 63 60
-0.008609 -0.031540 -0.014696 65 61 49
-0.017208 -0.004550 -0.055696 92 101 116
-0.017180 -0.004631 -0.055696 104 151 61
-0.019915 -0.023686 -0.018996 123 173 70
0.023409 -0.028390 0.001104 192 184 136
-0.017216 -0.004641 -0.055696 131 180 160
0.067466 -0.072770 0.050004 61 57 56
-0.017213 -0.004577 -0.055696 141 158 174
-0.016994 -0.004633 -0.055696 38 20 24
-0.017213 -0.004620 -0.055696 150 171 185
-0.017202 -0.004593 -0.055696 146 172 185
-0.024725 0.020662 -0.005796 124 161 167
-0.019899 -0.007969 -0.011496 232 255 255
0.018021 0.042861 0.029504 110 137 140
-0.015941 -0.020096 -0.014396 128 184 76
-0.024281 -0.017564 -0.018096 69 153 60
-0.035761 -0.020517 -0.027096 115 166 65
-0.041719 -0.006337 -0.021896 76 121 51
-0.026894 -0.002486 0.024404 9 13 38
0.102615 -0.004028 0.049804 204 179 155
0.089428 0.032738 0.060604 67 67 69
0.101169 -0.012775 0.046304 148 162 171
-0.000823 -0.014688 -0.006196 113 121 87
0.046784 -0.006864 0.023004 23 30 104
0.037592 0.010147 0.022704 141 143 140
-0.019011 -0.024859 -0.018896 131 175 77
0.014927 -0.002339 0.024204 53 82 68
-0.017200 -0.004584 -0.055696 147 166 181
0.117354 0.035447 0.063404 68 68 68
-0.040722 -0.012208 -0.024496 122 172 66
-0.020032 -0.005141 0.013504 17 32 56
-0.024028 -0.012200 -0.015396 60 165 75
0.033223 -0.028347 0.010304 126 143 140
-0.017217 -0.004556 -0.055696 101 113 125
-0.028589 -0.004306 -0.017096 122 149 150
-0.017183 -0.004593 -0.055696 103 172 66
-0.078046 0.021512 0.006704 79 89 101
0.104110 0.049080 0.042704 68 68 68
0.073885 0.017908 0.059404 71 85 114
-0.025232 0.018665 -0.005596 49 132 86
0.056322 -0.005556 0.026304 141 167 192
-0.016993 -0.004578 -0.055696 151 141 123
-0.017126 -0.004548 -0.055696 41 137 75
-0.004364 -0.021121 -0.009796 181 190 121
-0.017215 -0.004631 -0.055696 148 172 184
-0.017026 0.017184 -0.002696 159 192 195
-0.048167 0.011369 -0.008296 35 44 132
0.034372 -0.032454 0.007104 27 48 120
-0.006325 -0.021473 -0.011396 199 199 156
-0.007940 -0.025551 -0.014496 174 194 169
0.044105 0.026627 0.038204 168 157 140
0.049453 0.056724 0.033404 61 62 64
-0.014951 -0.017942 -0.013496 127 177 65
-0.007438 -0.001053 0.008804 26 30 79
-0.017069 -0.004578 -0.055696 24 44 57
-0.029457 -0.019614 -0.023796 125 169 67
-0.017217 -0.004586 -0.055696 147 164 180
-0.031163 0.029241 -0.003396 60 68 61
0.028903 -0.017419 0.007804 165 174 176
0.039478 0.003427 0.024104 128 156 140
0.020992 -0.001947 0.022304 39 85 62
-0.017021 -0.004627 -0.055696 94 101 132
-0.014210 0.009228 0.001104 48 73 106
-0.026571 -0.020906 -0.022396 130 178 73
-0.017186 -0.004589 -0.055696 82 149 59
0.004911 -0.001365 0.018604 13 35 42
0.034606 -0.000785 0.021804 41 67 65
-0.017179 -0.004638 -0.055696 69 109 60
-0.012420 0.000226 0.009504 32 61 111
-0.017174 -0.004631 -0.055696 111 158 58
-0.074182 0.017621 0.008504 96 111 121
0.079608 0.043553 0.049004 70 70 72
0.109534 0.014836 0.067704 92 99 93
0.114439 0.042529 0.052604 65 65 65
-0.028320 -0.001556 0.024804 17 21 40
0.000451 0.007463 0.005904 124 181 234
0.042777 0.029340 0.037804 149 133 139
0.008437 0.030727 0.025804 117 134 141
-0.021346 0.029564 0.002604 20 11 63
-0.017059 -0.004593 -0.055696 122 142 150
0.008804 0.050253 0.031204 83 99 108
0.018389 0.015181 0.013204 72 79 77
-0.026922 -0.020540 -0.022496 123 173 74
0.058002 -0.011636 0.032104 25 31 78
-0.038150 0.015815 -0.015396 75 104 164
-0.017180 -0.004527 -0.055696 61 69 80
-0.017199 -0.004639 -0.055696 107 150 59
-0.076448 0.007926 0.005304 116 134 144
0.054314 -0.034819 0.017804 161 175 195
-0.041758 0.011037 -0.006496 136 155 16
-0.079289 0.021741 0.006404 79 90 100
0.045208 0.036453 0.041604 120 119 115
-0.003439 0.002879 0.005804 85 115 181
0.042282 0.052900 0.035404 61 62 64
-0.572157 0.054278 0.490004 138 155 171
-0.024278 0.021526 -0.005596 108 140 153
-0.017203 -0.004603 -0.055696 52 133 64
-0.009523 0.016518 -0.000196 116 118 185
-0.017199 -0.004564 -0.055696 120 134 145
-0.017216 -0.004584 -0.055696 146 163 179
0.092002 -0.075083 0.052004 72 62 53
0.060062 -0.072404 0.052304 66 65 62
0.110635 0.039486 0.058604 70 70 68
0.103229 0.027883 0.065604 72 70 71
0.110223 -0.004632 0.053404 144 124 114
0.037703 -0.026647 0.010104 162 173 177
-0.046456 0.018502 -0.018496 13 18 79
-0.013341 -0.012168 -0.009496 92 165 61
-0.007930 0.016142 0.000504 48 54 118
0.070654 0.037213 0.052704 60 59 64
-0.000488 -0.028488 -0.010896 191 186 145
-0.017184 -0.004610 -0.055696 29 67 4
-0.017204 -0.004601 -0.055696 142 175 178
0.071858 -0.044442 0.023604 45 24 22
-0.019508 -0.023157 -0.018796 123 170 69
0.002286 0.024197 0.011904 28 26 75
0.112487 0.039307 0.058704 68 68 68
-0.012728 0.011064 0.000704 69 114 151
0.028473 0.031741 0.031204 135 141 146
-0.005209 -0.027711 -0.013996 198 186 136
-0.070056 0.017138 0.007804 89 103 114
-0.017191 -0.004628 -0.055696 87 144 50
-0.017207 -0.004608 -0.055696 139 179 177
-0.017205 -0.004602 -0.055696 146 174 181
0.002341 0.006551 0.006704 86 132 174
-0.029692 -0.004968 -0.017096 156 197 189
0.137422 0.008389 0.078704 102 136 101
-0.030365 -0.020798 -0.024096 131 176 75
0.051397 0.010066 0.030104 135 138 151
0.073956 0.056795 0.034004 65 63 70
-0.048306 0.022112 -0.017796 12 15 37
0.051791 0.050671 0.038704 68 69 71
-0.005236 0.035848 0.013804 42 38 79
-0.063203 0.008569 0.006704 123 143 154
-0.014201 0.030321 0.005904 25 17 60
0.085541 0.047480 0.044304 60 60 60
-0.022825 -0.013871 -0.014096 107 195 96
-0.043544 -0.009449 -0.022196 125 212 115
0.081406 -0.034219 0.029804 82 28 26
0.006185 0.015639 0.008804 122 142 152
-0.042395 -0.007854 -0.022196 120 179 72
-0.037032 0.014919 -0.014696 68 91 167
-0.029879 -0.008560 -0.017196 120 164 75
-0.047016 0.006939 0.014104 81 99 113
0.068072 0.035622 0.052304 62 59 64
0.146318 0.011968 0.083004 168 163 144
-0.017200 -0.004582 -0.055696 145 166 178
-0.001737 -0.011255 -0.005796 192 186 156
-0.024362 -0.013784 -0.016496 0 94 47
-0.041948 -0.006641 -0.022196 42 84 30
0.034238 0.056637 0.032304 58 59 61
-0.017857 0.000335 0.007704 50 74 119
0.009205 0.034901 0.023904 106 131 130
-0.037376 -0.009892 -0.021396 64 168 74
-0.032483 0.013653 -0.009596 21 36 137
0.018178 0.036378 0.027204 108 134 135
-0.024433 -0.011991 -0.015696 97 189 97
0.017564 0.054055 0.031204 54 55 59
-0.017183 -0.004630 -0.055696 112 157 62
-0.017215 -0.004584 -0.055696 145 165 179
-0.017202 -0.004594 -0.055696 145 173 185
-0.075819 0.021605 0.007504 82 92 102
-0.033326 -0.015510 -0.022596 74 162 70
0.129599 0.029449 0.068804 67 67 65
0.062625 0.055421 0.034504 70 70 72
0.040512 0.025798 0.037304 145 154 161
-0.017213 -0.004523 -0.055696 45 44 39
0.090534 0.037667 0.057804 72 74 73
0.063802 0.041518 0.048904 66 66 68
-0.006630 -0.031098 -0.014896 65 60 56
-0.590176 0.040443 0.498404 140 157 173
0.038822 -0.025741 0.011604 199 197 118
-0.016150 0.009979 0.001504 23 51 51
0.075491 -0.031364 0.029004 95 37 39
0.021027 -0.009494 0.029704 68 83 86
-0.013844 -0.026313 -0.015696 132 181 83
-0.032182 0.023552 -0.008896 99 129 150
0.039743 0.026119 0.037204 170 175 182
0.006101 0.020538 0.011404 75 85 87
-0.040109 -0.009815 -0.021896 112 215 113
0.006982 0.040692 0.025604 87 106 107
0.008410 -0.016151 -0.004296 183 190 165
-0.043344 0.015521 -0.014096 40 46 143
-0.017126 -0.004627 -0.055696 14 81 24
-0.038324 0.008808 -0.001896 24 32 97
-0.036917 0.012037 -0.009696 8 28 123
-0.017199 -0.004604 -0.055696 98 151 65
-0.035719 0.014161 -0.012096 71 96 69
0.056196 -0.021174 0.035904 58 65 62
-0.028160 -0.019345 -0.019696 129 203 110
-0.029797 -0.014311 -0.020296 135 184 75
0.007129 0.010706 0.008704 88 153 112
-0.005021 -0.028721 -0.013896 211 202 152
-0.017214 -0.004525 -0.055696 42 41 37
0.077887 -0.030376 0.030004 84 32 29
0.022347 0.034068 0.028704 53 96 85
-0.026512 0.014955 -0.003796 49 128 63
-0.076583 0.006156 0.005804 113 131 141
-0.022556 -0.017410 -0.016596 82 130 108
-0.033473 -0.012744 -0.021496 83 125 44
-0.017043 -0.004641 -0.055696 135 124 99
-0.018837 -0.022721 -0.018096 98 161 66
-0.017116 -0.004585 -0.055696 119 152 153
-0.049600 0.013331 -0.012296 35 45 122
0.006936 0.043069 0.026504 114 141 142
-0.025432 0.007299 0.001704 17 107 54
-0.030401 -0.023628 -0.024296 112 170 75
0.088354 0.053832 0.036604 63 63 63
-0.030364 0.012880 -0.003796 41 148 78
0.004557 -0.026196 -0.009596 177 147 88
-0.032752 0.005888 0.021004 18 55 39
0.089257 -0.036627 0.032404 92 40 30
-0.021784 0.002291 0.014104 61 77 114
0.097936 0.048082 0.044004 66 66 66
-0.058053 0.005185 0.013904 128 152 159
-0.000325 0.004029 0.006504 102 175 239
-0.017182 -0.004588 -0.055696 125 177 67
0.041391 -0.005948 0.022004 23 29 106
0.021719 -0.020255 0.001004 188 193 155
-0.017204 -0.004529 -0.055696 30 31 31
0.095583 0.051560 0.039604 65 65 65
-0.017208 -0.004547 -0.055696 88 95 108
-0.051880 0.001088 0.014004 91 112 121
-0.018992 0.013927 -0.001296 51 153 87
0.085178 -0.063227 0.052804 80 60 50
-0.016150 -0.015366 -0.013196 0 59 30
-0.017181 -0.004525 -0.055696 63 70 80
0.009704 -0.025549 -0.004996 153 152 84
-0.017086 -0.004606 -0.055696 76 146 89
-0.052726 0.000831 0.014104 98 120 134
-0.016880 -0.005123 0.011304 14 19 55
-0.026796 0.025173 -0.005396 58 60 83
-0.038276 -0.014792 -0.024596 119 175 67
-0.007617 -0.031319 -0.014796 66 61 49
-0.044547 0.017058 -0.018296 61 93 43
-0.043735 -0.009449 -0.022196 125 212 115
-0.017208 -0.004606 -0.055696 147 173 184
0.087128 -0.005942 0.043104 168 186 200
-0.016915 0.011835 0.000404 65 165 105
0.046806 -0.025931 0.018504 183 193 201
-0.083144 0.034207 0.013004 40 40 48
-0.018855 -0.015561 -0.014296 18 102 43
0.073889 0.055087 0.035304 58 57 62
0.059253 0.024276 0.050604 174 158 165
-0.042335 0.015027 -0.013796 36 43 146
0.004772 -0.026499 -0.009696 194 177 131
-0.037368 -0.010455 -0.022996 0 47 18
-0.000575 0.001107 0.006904 69 164 223
0.010066 -0.024196 -0.004496 166 174 107
-0.011823 0.042031 0.012404 50 52 67
-0.017217 -0.004614 -0.055696 149 168 184
0.134017 0.008526 0.077504 75 114 82
-0.017182 -0.004597 -0.055696 104 196 109
-0.017146 -0.004520 -0.055696 84 97 106
0.044521 -0.029492 0.014604 198 210 208
-0.023033 -0.023070 -0.021196 50 147 74
-0.042801 -0.009969 -0.023296 6 65 23
-0.024191 -0.021788 -0.020996 55 135 57
0.014984 0.033686 0.025504 173 192 202
0.016305 0.051463 0.031804 57 58 62
-0.045330 0.006823 0.014204 86 106 117
-0.017213 -0.004558 -0.055696 109 120 133
0.016401 -0.030780 -0.004196 187 172 127
-0.012009 -0.000612 0.010004 31 51 90
-0.040355 0.016178 -0.016596 19 41 129
-0.014776 0.022453 0.000504 57 69 87
-0.034189 -0.010516 -0.019996 113 192 81
-0.017188 -0.004608 -0.055696 120 169 62
-0.017137 -0.004512 -0.055696 53 60 50
-0.017181 -0.004648 -0.055696 96 159 63
0.004661 0.004004 0.010904 135 187 180
0.046943 0.049148 0.039504 68 69 71
0.088544 -0.019260 0.039304 40 49 110
-0.017167 -0.004561 -0.055696 91 109 123
-0.016502 -0.021380 -0.015096 130 203 97
-0.008461 -0.007705 -0.007796 112 138 152
-0.017202 -0.004623 -0.055696 74 121 101
0.099420 0.039941 0.057004 63 63 65
-0.010417 -0.003967 0.012204 22 22 50
0.003268 -0.007675 0.028804 62 77 73
-0.025417 -0.006558 -0.014596 151 205 196
0.061734 -0.067621 0.051504 72 64 62
-0.017188 -0.004636 -0.055696 111 156 62
-0.010907 0.019538 -0.000296 98 117 127
-0.044624 0.020951 -0.017696 62 70 77
-0.033422 0.012160 -0.006496 24 39 114
-0.031967 0.016409 -0.013096 13 23 106
-0.034828 -0.007597 -0.019096 35 135 54
0.015887 0.041719 0.028604 62 100 91
0.067105 0.027068 0.049804 139 126 150
-0.054599 0.010539 -0.004696 4 14 73
0.036217 0.052034 0.035404 51 52 56
-0.017196 -0.004626 -0.055696 19 79 27
-0.078342 0.028680 0.011604 66 77 86
0.047971 0.055012 0.034404 61 61 63
-0.032397 -0.017049 -0.022696 106 176 78
-0.034377 0.031650 -0.004496 16 9 77
-0.021606 -0.025275 -0.019996 90 138 97
-0.017016 0.030044 0.004804 26 20 64
-0.032419 -0.020133 -0.025396 75 138 52
-0.034196 0.009598 0.000004 13 87 41
-0.031559 -0.011119 -0.018896 132 201 88
0.125858 0.008675 0.074004 103 142 107
-0.017206 -0.004536 -0.055696 42 43 48
0.097933 -0.023296 0.045504 23 30 82
-0.023867 0.008649 0.001404 11 123 54
-0.007960 -0.018780 -0.010296 161 141 82
-0.013892 0.008665 0.001004 60 86 127
-0.038676 -0.011101 -0.024096 94 159 61
-0.017201 -0.004625 -0.055696 11 67 28
0.101585 0.027979 0.065104 69 69 64
-0.017190 -0.004602 -0.055696 86 145 53
0.008193 0.007378 0.008604 54 112 54
-0.020191 -0.020545 -0.017296 113 204 100
0.043573 -0.002057 0.023504 136 156 167
-0.025567 -0.012897 -0.016096 117 216 117
-0.017546 -0.011043 -0.011196 141 187 83
-0.033256 -0.022972 -0.026396 86 159 78
-0.017041 -0.004597 -0.055696 141 154 160
-0.002397 0.015410 0.003404 33 41 110
-0.033506 -0.013561 -0.022096 106 165 74
0.146602 0.008313 0.080604 162 162 150
-0.032080 -0.008376 -0.018296 136 186 70
0.106604 -0.015826 0.047604 151 161 163
0.086320 -0.070800 0.052704 79 65 63
-0.030431 -0.004746 -0.017296 132 174 166
-0.030179 0.015480 -0.012296 19 39 130
-0.017215 -0.004544 -0.055696 45 44 49
-0.007297 -0.021313 -0.011596 200 188 136
0.044316 -0.015139 0.030704 61 68 70
-0.017171 -0.004543 -0.055696 34 47 117
-0.017209 -0.004641 -0.055696 39 120 49
-0.029143 0.031034 -0.002196 112 123 169
-0.026718 0.017098 -0.004796 54 161 90
-0.017194 -0.004586 -0.055696 40 125 61
-0.031710 -0.003725 -0.017396 115 145 143
-0.035256 0.011970 -0.007596 26 40 136
0.088987 -0.026286 0.046904 77 73 82
0.084794 -0.057165 0.047004 31 11 13
0.068377 -0.030292 0.027104 70 43 44
-0.011694 -0.028940 -0.014996 85 157 76
0.096555 0.028598 0.063204 70 70 72
-0.048722 0.016518 -0.016096 7 13 74
-0.017211 -0.004596 -0.055696 146 168 182
0.091692 0.049703 0.041804 56 56 56
0.097939 0.012794 0.069904 103 113 111
-0.017186 -0.004609 -0.055696 122 169 62
-0.010992 -0.023832 -0.011596 69 76 54
0.006900 -0.021045 -0.004596 132 108 26
-0.034785 -0.004815 -0.017996 95 142 133
0.016539 -0.016263 0.001004 163 155 116
-0.015626 -0.021748 -0.014396 127 205 101
-0.028971 -0.012687 -0.019096 10 87 31
0.009102 -0.014897 -0.002696 166 171 141
-0.014460 -0.030819 -0.015796 66 61 49
-0.037792 0.015608 -0.015196 95 127 184
-0.077305 0.028022 0.011304 68 76 87
0.008290 0.018693 0.009804 82 85 84
0.093328 -0.021738 0.042104 32 46 100
-0.034582 0.016556 -0.014396 136 159 6
0.004341 -0.024497 -0.007096 209 189 134
-0.017209 -0.004549 -0.055696 91 101 113
0.011632 0.000344 0.018804 62 125 77
-0.027913 0.009272 0.000404 11 116 55
-0.017103 -0.004606 -0.055696 93 186 106
0.010565 0.041248 0.026604 117 135 134
0.038788 -0.013782 0.028804 57 66 73
-0.008003 -0.024118 -0.013696 154 186 173
0.068725 0.001731 0.034604 155 154 149
-0.017187 -0.004519 -0.055696 20 20 40
0.097231 -0.021878 0.042904 25 33 112
-0.017212 -0.004546 -0.055696 61 67 75
-0.024804 0.022792 -0.005896 90 106 122
-0.042946 0.023816 -0.015696 21 43 75
0.073720 0.057371 0.033604 60 59 64
0.076455 0.051501 0.039504 67 66 71
-0.028465 -0.014159 -0.019596 132 179 71
-0.041271 0.014506 -0.012996 84 113 129
-0.070697 0.010710 0.007704 111 129 139
0.009294 0.007680 0.008904 46 107 53
-0.011111 -0.011636 -0.007096 66 90 61
-0.027867 0.018576 -0.006196 52 124 69
-0.017193 -0.004573 -0.055696 172 199 207
-0.044122 0.011336 -0.007296 136 162 64
-0.047936 0.021969 -0.017896 14 16 41
0.015181 0.017572 0.011704 78 74 73
-0.038121 -0.016592 -0.024996 89 200 97
-0.008483 -0.025637 -0.013696 157 186 181
0.019403 -0.007545 0.029704 58 76 71
-0.039024 -0.015433 -0.024796 89 167 65
-0.017199 -0.004556 -0.055696 103 117 130
-0.041389 -0.009157 -0.021996 99 174 69
0.123369 0.037591 0.061804 65 65 63
0.000563 0.028702 0.012704 49 50 49
-0.035280 0.006501 0.002104 8 65 34
0.104790 -0.020598 0.043104 172 182 194
0.069310 -0.010645 0.029904 153 171 192
-0.017107 -0.004565 -0.055696 20 64 44
-0.005789 0.006392 0.003904 52 74 130
0.007628 -0.016249 -0.004296 177 186 159
-0.017206 -0.004622 -0.055696 112 177 130
-0.036475 -0.017466 -0.026596 31 111 44
0.005485 -0.013433 -0.003596 138 137 113
-0.023558 -0.003659 0.016104 28 38 67
-0.017331 0.021312 -0.002296 92 108 125
-0.017183 -0.004529 -0.055696 64 71 83
-0.025721 -0.022578 -0.021996 132 178 81
0.065877 0.039317 0.050804 74 74 76
-0.026479 -0.025475 -0.022496 110 170 80
-0.010952 -0.029588 -0.014696 70 142 85
-0.061629 0.009098 0.007504 125 142 156
-0.016983 -0.004636 -0.055696 46 26 25
-0.017191 -0.004640 -0.055696 111 159 59
0.054532 0.053976 0.036004 70 70 72
-0.038462 -0.006460 -0.020796 127 183 72
0.046733 0.048337 0.040004 73 74 76
-0.023289 -0.005551 0.014604 155 187 202
-0.017195 -0.004583 -0.055696 146 169 173
-0.610432 0.037677 0.503604 142 159 175
0.094645 0.020482 0.061204 139 161 183
-0.003918 -0.007447 0.015204 53 66 68
-0.044420 -0.006571 -0.022296 127 175 64
0.047607 -0.014017 0.032504 28 30 55
0.027551 0.038881 0.034004 123 133 136
0.003931 -0.020846 -0.006096 194 166 77
-0.072352 0.020521 0.007804 79 89 101
0.029779 0.032117 0.032104 116 134 133
0.071375 0.045794 0.045504 69 70 74
-0.007487 -0.021862 -0.011696 194 182 124
0.061565 0.040410 0.049104 65 65 65
-0.085465 0.034918 0.013104 33 33 42
-0.003347 -0.025222 -0.012896 190 188 115
-0.029440 -0.023144 -0.023996 128 175 76
-0.017189 -0.004569 -0.055696 110 129 136
-0.017197 -0.004614 -0.055696 80 152 57
0.019969 -0.023211 0.000804 234 221 168
0.012204 -0.030529 -0.005996 194 194 140
-0.061772 -0.000331 0.012504 175 209 212
0.044386 -0.024891 0.017804 172 185 181
0.030582 -0.004781 0.028504 90 111 117
-0.007326 0.017044 0.000904 69 82 118
-0.001899 -0.029082 -0.014496 82 81 64
0.056688 0.048009 0.042104 64 64 66
0.037654 -0.003892 0.020504 32 62 153
0.038737 0.038782 0.039404 152 154 156
-0.017191 -0.004518 -0.055696 4 4 20
-0.003106 -0.010518 -0.005596 163 177 171
-0.038286 -0.011716 -0.023496 37 100 5
0.111541 -0.069276 0.048904 54 44 42
-0.017183 -0.004644 -0.055696 101 162 65
0.017066 -0.017835 0.000804 176 163 122
-0.017176 -0.004554 -0.055696 85 103 111
0.045728 0.040046 0.043004 86 87 92
-0.034440 -0.022626 -0.027296 25 117 41
0.093952 -0.001705 0.046804 193 181 161
-0.039382 0.022968 -0.014096 97 116 135
-0.013521 -0.030556 -0.015496 67 62 54
0.095100 -0.018519 0.041704 152 173 189
-0.031997 -0.023342 -0.025896 88 157 67
-0.022768 0.024098 -0.003696 60 64 81
0.036916 -0.004763 0.021104 31 46 119
0.068867 0.041982 0.049504 67 68 70
-0.023561 -0.021351 -0.020096 61 106 104
-0.039730 -0.014786 -0.024796 113 176 70
-0.040655 -0.014753 -0.024896 114 175 69
0.080257 -0.001004 0.039504 180 171 165
-0.045519 -0.008978 -0.021896 106 180 80
-0.038623 -0.009926 -0.021596 104 203 101
-0.041759 0.013377 -0.010296 132 158 23
0.041950 0.011077 0.025204 65 68 71
0.034297 0.040769 0.037904 118 122 125
0.040048 0.054445 0.033804 57 58 60
-0.005474 0.024966 0.008804 27 19 71
-0.017180 -0.004604 -0.055696 114 161 59
-0.006026 0.015748 0.001504 70 107 149
-0.017215 -0.004602 -0.055696 147 169 183
0.039282 -0.011156 0.028104 22 26 60
-0.017134 -0.004547 -0.055696 17 34 126
-0.028339 -0.011420 -0.017196 130 191 83
0.006473 -0.029860 -0.009796 189 181 124
-0.017204 -0.004545 -0.055696 84 94 106
-0.023835 0.014517 -0.003096 51 153 87
-0.003710 0.029525 0.011504 38 37 57
0.102401 -0.019124 0.043304 156 170 186
-0.017179 -0.004549 -0.055696 84 99 110
-0.017102 -0.004573 -0.055696 35 51 94
-0.001083 -0.028199 -0.011596 161 165 97
0.093694 0.052935 0.038004 64 64 64
-0.045256 0.014100 -0.012996 14 26 112
-0.017188 -0.004637 -0.055696 113 156 64
-0.033069 -0.020494 -0.025696 39 134 57
0.009200 -0.021861 -0.003896 201 183 96
-0.024564 0.006042 0.002604 14 61 39
-0.017194 -0.004601 -0.055696 80 141 54
-0.041519 0.007117 -0.000696 21 26 85
-0.043441 0.007496 -0.000396 22 29 78
-0.046979 0.016887 -0.016796 17 23 88
-0.017027 -0.004640 -0.055696 162 153 120
-0.017086 -0.004588 -0.055696 79 102 115
-0.017063 -0.004591 -0.055696 58 76 78
0.062990 0.054261 0.035904 72 72 74
0.099248 0.040964 0.054804 73 73 73
0.137652 0.010967 0.078904 116 138 108
0.108311 0.034702 0.063204 71 71 71
0.086302 0.051373 0.039904 61 61 61
-0.021025 -0.015626 -0.015496 39 113 35
-0.013920 -0.027532 -0.015696 131 183 82
0.057054 -0.018592 0.036104 60 63 68
-0.017176 -0.004640 -0.055696 108 162 59
-0.045011 0.009483 -0.004296 107 136 63
-0.037180 -0.010349 -0.021396 71 190 90
-0.034598 -0.006996 -0.018696 72 164 70
-0.018863 -0.018624 -0.015896 129 182 74
0.042638 0.055163 0.033604 65 66 68
-0.017120 -0.004582 -0.055696 89 118 122
-0.043844 -0.005951 -0.021896 125 176 76
0.051975 -0.030729 0.018904 128 146 156
0.078242 -0.017206 0.033704 33 38 104
-0.017099 -0.004584 -0.055696 35 44 70
0.007054 0.035860 0.024304 93 110 110
-0.033616 -0.018172 -0.024996 16 93 44
-0.017216 -0.004643 -0.055696 106 168 134
-0.030870 -0.008897 -0.018096 138 188 82
-0.033923 -0.000042 0.024504 61 81 92
-0.026269 -0.009289 -0.015996 143 192 79
-0.029188 0.034195 -0.000596 16 16 66
0.013479 -0.019298 -0.002096 179 175 125
0.002883 -0.010779 -0.003396 203 224 238
0.111388 -0.070795 0.049104 43 35 33
-0.000849 -0.018030 -0.007396 207 205 154
0.009304 0.037026 0.024204 61 92 87
-0.040053 0.007221 -0.000696 10 17 71
0.063370 -0.036437 0.022104 146 127 117
-0.017210 -0.004527 -0.055696 44 43 39
-0.044090 0.009776 -0.005996 83 101 6
0.079455 -0.025357 0.044304 28 29 58
-0.063507 0.003047 0.002604 139 162 170
-0.019805 0.014134 -0.001596 46 148 85
-0.061932 0.001650 0.002004 132 155 160
-0.017184 -0.004538 -0.055696 69 82 91
-0.017200 -0.004647 -0.055696 81 143 60
-0.007863 0.028076 0.008404 22 11 63
-0.035434 -0.020953 -0.027096 111 163 62
-0.035962 -0.013352 -0.023796 29 132 56
0.102141 0.050034 0.041404 69 69 69
-0.047639 0.021612 -0.017996 13 17 46
-0.003367 0.013966 0.003104 32 43 117
0.017668 0.049440 0.032304 54 59 63
0.086651 -0.063216 0.052404 101 74 67
0.021100 -0.033533 -0.001996 173 165 106
-0.001377 0.032648 0.014504 26 18 65
-0.017158 -0.004552 -0.055696 21 29 75
0.045841 -0.000843 0.023704 154 173 190
-0.015965 -0.006564 -0.008896 171 206 226
0.082036 0.017707 0.061804 106 122 150
-0.009583 0.030583 0.008304 36 33 87
-0.013625 -0.020458 -0.012996 125 181 69
-0.034843 0.015375 -0.013396 19 45 137
-0.024873 -0.020375 -0.021196 31 132 58
-0.012361 -0.021263 -0.012596 108 173 66
-0.013676 -0.000907 0.009204 47 75 122
0.003736 -0.023054 -0.006996 190 175 131
-0.005300 -0.007170 0.015004 48 64 68
0.052454 0.051272 0.037904 64 65 67
-0.034457 -0.006996 -0.018696 73 162 67
-0.071861 0.015178 0.008504 94 112 126
-0.035649 0.014952 -0.014296 87 113 183
0.006808 0.044849 0.026604 137 152 156
0.057922 -0.036645 0.017504 177 186 204
-0.017175 -0.004540 -0.055696 5 9 70
0.016009 -0.023689 -0.001796 203 190 151
-0.014266 -0.022650 -0.015196 0 70 32
-0.017208 -0.004578 -0.055696 142 159 175
0.002317 -0.021804 -0.006596 223 210 162
-0.033664 -0.014017 -0.022296 69 154 70
-0.030615 -0.004454 -0.017396 111 147 141
-0.017194 -0.004578 -0.055696 144 166 178
-0.032742 -0.015353 -0.022496 92 166 69
-0.017110 -0.004625 -0.055696 100 185 95
-0.037910 0.013492 -0.011496 107 132 200
-0.024649 0.013384 -0.002296 56 169 92
-0.033142 -0.012179 -0.020796 18 102 45
-0.025055 -0.017993 -0.018496 136 194 79
0.032756 -0.031656 0.009204 82 100 109
0.056384 0.030417 0.045004 98 69 51
-0.017194 -0.004581 -0.055696 138 170 175
0.012645 0.045188 0.028504 113 130 134
-0.018921 0.012157 -0.000296 79 135 66
0.046980 -0.022142 0.019204 193 207 210
-0.017205 -0.004642 -0.055696 63 130 50
0.028630 0.032530 0.031504 136 136 140
-0.027615 0.031678 -0.000596 15 8 68
0.057696 0.003567 0.030404 144 159 167
0.062320 -0.010874 0.030804 52 69 104
-0.017183 -0.004529 -0.055696 65 71 81
0.035967 -0.014161 0.027904 75 84 93
-0.039557 0.020793 -0.015896 105 122 22
-0.017216 -0.004601 -0.055696 148 170 184
0.111604 0.043705 0.051104 61 61 61
-0.011008 -0.018955 -0.011096 36 111 54
0.094640 0.050162 0.041304 64 64 64
-0.077830 0.020640 0.006604 83 93 105
-0.004155 0.043864 0.016904 32 27 62
-0.017202 -0.004559 -0.055696 107 121 132
-0.086324 0.030508 0.013704 48 48 58
-0.012406 0.009561 0.000704 97 149 192
-0.010452 -0.018735 -0.009596 63 61 21
-0.063292 0.009119 0.006504 123 144 155
-0.006192 0.015317 0.001204 81 123 155
-0.029647 -0.011512 -0.017896 128 196 88
-0.028588 -0.005196 -0.016596 158 195 191
-0.044168 0.022744 -0.016896 11 18 48
0.000511 0.008476 0.005704 108 172 210
-0.007303 0.031226 0.009704 46 44 92
-0.029712 0.015940 -0.012196 89 115 42
-0.011057 0.025526 0.006904 59 61 64
-0.042203 -0.009641 -0.022196 115 214 113
0.007700 -0.028445 -0.008796 166 169 85
-0.017204 -0.004550 -0.055696 92 101 116
-0.048309 0.013946 -0.012596 56 60 156
-0.017206 -0.004518 -0.055696 35 34 29
-0.030855 -0.000767 0.025304 53 64 84
0.046020 0.027507 0.040304 124 88 59
-0.032772 -0.018954 -0.024696 71 128 59
0.023780 -0.050231 0.021404 72 68 69
0.024310 -0.028691 0.001304 194 192 154
0.066495 -0.004456 0.031904 151 170 185
0.010617 -0.028116 -0.006296 191 187 135
0.094754 0.041302 0.054104 73 72 77
-0.017199 -0.004583 -0.055696 145 167 181
0.061006 -0.032613 0.023004 44 35 34
-0.025694 -0.019361 -0.018796 109 184 90
-0.017194 -0.004606 -0.055696 118 167 60
-0.017079 -0.004576 -0.055696 66 106 169
-0.017090 -0.004585 -0.055696 38 54 72
0.005550 -0.028759 -0.009896 202 195 148
0.009194 -0.031278 -0.008996 223 211 168
0.048665 -0.066507 0.042904 66 65 64
0.062240 0.034565 0.050004 108 102 98
-0.017056 -0.004596 -0.055696 230 250 255
-0.017215 -0.004644 -0.055696 56 130 68
0.021153 -0.012345 0.028904 70 85 92
-0.028295 -0.012754 -0.018796 10 80 31
-0.033956 0.018349 -0.013996 121 137 63
-0.002483 -0.029257 -0.014596 71 69 66
-0.041245 -0.010322 -0.023396 29 89 41
-0.017208 -0.004639 -0.055696 54 125 52
0.032146 0.047497 0.037204 65 66 71
0.068431 0.025174 0.050204 119 107 128
0.027980 -0.002286 0.026104 60 105 75
-0.031435 0.031859 -0.003496 30 28 87
-0.017198 -0.004582 -0.055696 144 168 175
-0.031629 0.015855 -0.012896 13 34 129
0.067100 0.055382 0.034704 62 62 64
-0.017183 -0.004591 -0.055696 97 165 68
-0.000575 0.014458 0.004304 138 107 160
-0.032671 -0.004960 -0.017896 144 191 187
0.110186 0.034023 0.063904 70 70 70
-0.017046 -0.004641 -0.055696 174 160 119
-0.017200 -0.004647 -0.055696 82 144 58
-0.032695 -0.016393 -0.022596 97 170 71
-0.009689 -0.018780 -0.010296 153 144 86
-0.017191 -0.004608 -0.055696 119 168 63
-0.007103 -0.009475 -0.006496 149 165 164
-0.017204 -0.004578 -0.055696 144 161 177
-0.029879 -0.008487 -0.017196 139 187 88
-0.006424 0.018441 0.001704 94 106 122
-0.036461 -0.006222 -0.020196 27 119 68
-0.012102 0.011757 0.000504 101 146 193
-0.017195 -0.004595 -0.055696 116 199 102
0.087600 -0.037055 0.031304 80 30 17
0.081593 0.028642 0.057204 121 123 136
-0.030319 -0.006874 -0.017196 111 182 79
0.115253 0.042126 0.053104 66 66 66
0.073663 0.038822 0.052604 62 61 65
-0.015925 -0.030285 -0.016496 64 60 48
-0.611706 0.038678 0.502804 140 157 173
0.056501 -0.005402 0.026504 136 160 195
-0.021594 -0.026506 -0.020096 73 130 88
-0.009874 -0.017291 -0.008096 103 119 96
-0.017025 -0.004589 -0.055696 83 99 140
-0.014027 0.019370 -0.001396 104 133 136
-0.008412 0.003769 0.003804 98 158 224
-0.017205 -0.004635 -0.055696 58 102 35
-0.017191 -0.004569 -0.055696 118 142 144
-0.017215 -0.004514 -0.055696 40 39 34
-0.017213 -0.004638 -0.055696 40 109 67
0.074767 0.052867 0.037604 64 64 64
-0.024471 -0.008711 -0.014196 66 128 109
-0.033911 -0.011613 -0.020296 37 97 37
-0.016670 0.006115 0.004904 57 82 114
-0.031071 -0.019218 -0.023996 69 144 60
0.075839 -0.014087 0.031604 162 178 202
-0.019489 -0.024680 -0.019096 125 174 82
-0.011772 0.028862 0.006904 18 9 66
-0.036654 0.017103 -0.014996 138 160 0
-0.017183 -0.004635 -0.055696 91 132 55
-0.028588 0.016585 -0.005096 39 139 74
-0.017193 -0.004630 -0.055696 107 156 58
0.087582 -0.069118 0.052304 74 65 58
0.102263 -0.071691 0.050204 41 32 33
-0.001455 -0.026721 -0.011696 146 154 64
0.057770 -0.010260 0.029004 17 26 94
0.098244 -0.074608 0.051904 64 59 52
-0.017199 -0.004593 -0.055696 142 177 177
0.009630 -0.007040 0.029104 48 67 58
0.080559 -0.042245 0.025704 70 19 18
-0.029561 -0.023386 -0.023996 124 174 83
-0.011809 0.018053 0.000204 68 77 103
0.077012 0.058319 0.033504 62 61 66
-0.018132 0.007192 0.002804 37 117 81
-0.049443 0.013702 -0.012396 31 42 129
-0.021771 -0.014523 -0.014996 0 27 8
0.047867 0.049946 0.039004 69 70 72
0.060096 0.044303 0.045604 65 66 70
-0.018402 -0.020062 -0.016096 107 181 74
-0.034414 0.011353 -0.005796 17 31 120
-0.017040 -0.004597 -0.055696 134 147 153
-0.017126 -0.004581 -0.055696 94 122 121
-0.017198 -0.004626 -0.055696 25 81 31
-0.017217 -0.004562 -0.055696 110 124 135
-0.028112 -0.021371 -0.023096 123 167 72
-0.005387 -0.030943 -0.014896 66 61 57
-0.001247 0.001672 0.006604 67 107 175
-0.033646 -0.010292 -0.019696 90 171 72
-0.007058 -0.005012 0.014004 14 23 64
0.034529 -0.029765 0.009104 155 174 183
0.050225 -0.014610 0.033304 25 26 53
-0.017178 -0.004532 -0.055696 14 19 71
0.035006 -0.027509 0.009704 156 172 166
0.095909 -0.027832 0.047704 35 30 61
0.079737 -0.043494 0.025404 64 13 12
-0.010205 -0.021726 -0.011396 104 140 115
0.060477 0.052574 0.037704 66 66 68
0.143829 0.002380 0.076204 166 172 165
-0.032247 -0.004817 -0.017696 152 199 193
0.017976 0.040167 0.029004 110 142 135
0.022136 0.005700 0.013804 47 94 67
0.014084 -0.019076 -0.001396 184 171 118
0.013991 0.013265 0.011904 125 150 144
-0.032207 0.004572 0.023504 23 54 46
0.103468 -0.063403 0.045304 137 110 85
-0.034817 -0.003705 0.024404 91 118 123
-0.017071 -0.004582 -0.055696 41 71 56
-0.041964 -0.002692 -0.021196 237 255 255
-0.017107 -0.004565 -0.055696 18 66 42
-0.031171 -0.022670 -0.025596 100 160 70
-0.050782 0.007488 0.014204 79 98 112
-0.016981 -0.004608 -0.055696 56 20 20
0.106007 0.044396 0.049104 61 61 61
-0.078577 0.022472 0.007004 79 89 101
0.102263 -0.072295 0.050204 45 41 41
-0.027801 -0.025534 -0.023096 109 173 85
-0.011763 0.026290 0.007004 45 46 58
-0.000205 -0.018305 -0.007396 211 205 153
0.083033 0.031227 0.058604 86 84 90
0.077345 0.049158 0.042504 66 64 69
-0.017193 -0.004579 -0.055696 141 170 176
-0.039163 0.006134 0.001904 17 25 71
0.059998 0.050841 0.039304 65 65 67
0.005553 0.004759 0.009104 64 131 81
-0.017072 -0.004545 -0.055696 75 76 95
-0.017203 -0.004611 -0.055696 38 123 50
-0.017182 -0.004623 -0.055696 20 69 31
-0.021313 -0.024131 -0.019596 34 118 55
-0.001909 -0.004093 0.012704 57 79 75
-0.029684 -0.015969 -0.020796 130 141 59
-0.017190 -0.004600 -0.055696 40 111 46
0.026728 0.011260 0.017504 125 140 132
-0.017216 -0.004516 -0.055696 38 37 32
-0.042901 -0.004728 -0.021696 127 187 71
-0.015073 -0.030146 -0.015896 66 125 51
-0.044403 0.003579 0.014904 86 108 121
0.120846 -0.003568 0.056304 147 146 141
0.071888 -0.037445 0.025704 51 14 14
-0.032354 -0.024053 -0.026196 105 170 78
-0.033016 -0.021638 -0.025796 39 131 57
-0.017184 -0.004598 -0.055696 22 73 34
-0.036393 -0.016926 -0.026296 0 73 26
-0.043799 -0.008364 -0.022196 107 176 67
-0.019802 0.032464 0.002804 29 23 71
-0.017188 -0.004584 -0.055696 118 173 71
-0.038069 -0.007781 -0.020896 120 178 68
-0.034689 -0.020353 -0.026796 40 123 53
-0.015784 -0.006211 -0.008796 153 186 202
-0.017054 -0.004593 -0.055696 75 94 101
-0.029424 -0.009739 -0.017696 139 179 84
-0.012411 -0.012784 -0.008996 51 148 64
-0.032963 -0.021638 -0.025896 37 129 54
-0.017193 -0.004640 -0.055696 109 157 58
-0.017211 -0.004618 -0.055696 95 160 77
-0.032975 -0.023539 -0.026296 96 167 79
-0.017213 -0.004633 -0.055696 147 173 184
-0.017192 -0.004587 -0.055696 56 145 60
0.019051 0.052926 0.032004 54 58 61
-0.017212 -0.004587 -0.055696 143 165 179
0.037118 0.040088 0.039104 132 138 141
-0.016880 -0.016013 -0.013496 24 114 57
0.037069 0.023562 0.038704 160 158 158
-0.018096 0.001170 0.007604 22 41 91
-0.005819 -0.027916 -0.014196 198 182 132
0.131359 0.023332 0.074504 73 73 71
-0.021803 0.014807 -0.002296 47 159 87
0.039093 0.012252 0.024204 69 68 64
0.057408 -0.011596 0.031604 22 30 73
-0.065340 0.004295 0.006704 136 156 165
-0.035548 0.018043 -0.014696 133 147 94
0.072522 0.052406 0.038604 63 62 68
-0.017194 -0.004605 -0.055696 118 167 60
-0.027629 -0.015318 -0.019396 136 186 79
0.065509 0.028316 0.049304 128 125 148
0.095387 0.041551 0.053704 73 71 77
-0.017053 -0.004546 -0.055696 155 171 171
-0.006547 0.005632 0.004104 25 46 103
-0.038081 -0.008422 -0.021096 115 174 63
-0.082404 0.028734 0.012504 64 72 81
-0.038261 -0.005213 -0.019896 48 153 69
0.056868 0.003711 0.030204 146 162 173
-0.025749 0.003845 0.021004 22 51 50
0.013583 0.002213 0.013304 146 171 182
-0.024069 -0.022726 -0.021596 128 180 76
-0.005152 0.022134 0.007904 74 83 96
0.004016 0.051022 0.026704 65 75 84
-0.017197 -0.004516 -0.055696 26 25 25
-0.030961 -0.017190 -0.021096 128 184 81
0.050978 0.052207 0.037104 70 71 73
-0.015314 -0.023183 -0.016196 68 143 49
-0.015768 -0.017577 -0.013896 134 184 75
-0.017217 -0.004535 -0.055696 44 43 43
-0.017213 -0.004597 -0.055696 146 168 182
-0.001633 0.028588 0.012204 38 32 53
0.097095 -0.017859 0.042304 161 177 192
-0.017215 -0.004522 -0.055696 40 39 34
0.009321 0.002707 0.011804 156 185 191
0.013995 -0.004778 0.027404 36 60 48
-0.042331 -0.007662 -0.022196 125 179 73
-0.017179 -0.004611 -0.055696 96 144 62
0.016484 0.028523 0.029304 118 149 143
-0.014005 -0.006653 -0.008896 149 176 192
-0.014759 0.016502 -0.001596 121 163 167
-0.032271 0.023641 -0.008896 90 119 143
0.000910 -0.025085 -0.008096 228 188 127
-0.014624 -0.018699 -0.013396 132 179 70
-0.017212 -0.004553 -0.055696 97 109 121
-0.017192 -0.004519 -0.055696 7 6 23
-0.034279 0.030578 -0.004496 25 25 45
-0.022721 -0.018164 -0.016996 79 121 99
-0.017212 -0.004517 -0.055696 46 45 40
-0.039850 0.017016 -0.016696 135 172 3
-0.060389 0.005509 0.013404 119 141 152
-0.017043 -0.004579 -0.055696 111 168 141
-0.028439 -0.007133 -0.016596 105 176 73
-0.062080 0.003710 0.011604 62 86 91
0.034891 -0.027899 0.009404 158 176 184
-0.017137 -0.004580 -0.055696 95 120 124
-0.046732 0.009511 -0.004196 60 70 117
-0.037522 -0.012856 -0.024296 122 174 64
-0.017181 -0.004611 -0.055696 109 72 10
0.003147 0.013324 0.005904 121 141 191
0.043484 -0.017717 0.029304 71 79 85
-0.085763 0.038601 0.012104 34 35 35
-0.024256 -0.019653 -0.018596 91 186 105
-0.017025 -0.004610 -0.055696 97 105 79
0.094915 -0.019260 0.041704 157 175 198
-0.041539 0.014137 -0.013096 95 121 184
0.070309 -0.040565 0.023704 50 22 24
0.047430 -0.029543 0.015904 138 159 162
-0.007884 -0.026283 -0.014596 166 197 179
0.043418 0.001667 0.024904 153 170 174
0.001594 -0.031083 -0.010396 144 125 78
-0.017197 -0.004551 -0.055696 94 106 118
-0.005273 0.004715 0.004804 91 143 202
-0.040538 0.010780 -0.005496 36 52 124
0.077644 0.056863 0.034104 63 62 65
-0.032892 -0.008010 -0.018396 134 183 77
-0.036919 -0.010546 -0.021396 63 151 92
0.083490 0.049049 0.042304 62 62 62
0.019544 0.014587 0.013904 78 83 79
0.072645 0.051926 0.039304 63 62 69
-0.037223 0.012625 -0.009996 15 28 128
-0.032319 -0.019273 -0.024896 68 94 27
-0.017216 -0.004586 -0.055696 145 164 179
-0.006204 0.032119 0.011104 65 64 87
-0.069363 0.011118 0.007404 108 125 135
-0.072644 0.015975 0.008704 100 112 126
0.002104 0.006551 0.006704 106 156 197
-0.030089 0.019441 -0.010596 69 87 76
0.008071 0.006522 0.008604 59 137 70
-0.037185 -0.016475 -0.024996 86 197 100
-0.009582 0.004629 0.003504 60 108 174
-0.036185 -0.021603 -0.027196 114 164 63
-0.017189 -0.004632 -0.055696 111 157 57
-0.017174 -0.004555 -0.055696 79 95 130
0.085240 0.054480 0.035704 56 56 56
0.079699 -0.035824 0.029304 73 20 16
0.094296 0.053976 0.036004 65 65 65
0.000271 -0.028851 -0.010696 185 181 144
-0.017183 -0.004610 -0.055696 72 104 45
0.006941 0.003663 0.010204 136 181 176
0.030522 -0.050494 0.022604 68 68 66
0.047998 0.039184 0.043604 91 92 96
-0.421581 0.029798 0.423404 181 221 215
0.030785 -0.053137 0.022304 66 65 63
-0.073859 0.010903 0.008004 104 121 131
-0.043182 0.001625 0.015604 78 105 114
-0.017178 -0.004621 -0.055696 111 204 108
-0.009255 0.038148 0.012204 24 19 67
-0.017194 -0.004618 -0.055696 93 163 64
-0.017146 -0.004549 -0.055696 80 90 155
-0.017205 -0.004612 -0.055696 51 135 56
-0.015002 0.033383 0.006504 60 61 73
0.046216 -0.003876 0.022304 153 182 223
-0.017181 -0.004572 -0.055696 129 148 151
-0.050752 0.009643 -0.005796 109 145 165
-0.032607 0.031679 -0.003896 20 12 77
-0.017204 -0.004537 -0.055696 49 49 54
-0.000746 0.003107 0.006704 103 140 214
-0.017124 -0.004582 -0.055696 72 101 104
-0.017126 -0.004553 -0.055696 23 128 62
0.017572 0.002091 0.013404 61 130 69
-0.017143 -0.004550 -0.055696 19 28 111
-0.068964 0.011985 0.007504 96 112 125
-0.020859 -0.019927 -0.017196 84 176 77
-0.077495 0.023630 0.008004 72 84 96
-0.016325 -0.016861 -0.013896 105 173 64
-0.022661 0.009223 0.000204 32 149 77
0.030206 -0.007660 0.028404 106 127 139
0.009836 -0.028888 -0.007196 150 148 60
-0.017216 -0.004607 -0.055696 151 170 185
0.026526 0.037188 0.033304 165 179 180
-0.033308 -0.022483 -0.026096 58 149 69
0.088497 0.058559 0.033604 56 56 56
-0.017208 -0.004593 -0.055696 146 168 182
0.037347 0.041905 0.039504 87 89 94
0.000475 -0.021743 -0.007296 194 182 124
-0.017206 -0.004546 -0.055696 85 95 107
-0.017202 -0.004545 -0.055696 86 96 108
0.006873 0.001489 0.015604 52 112 67
-0.035580 0.019799 -0.014096 102 114 58
-0.036256 -0.016081 -0.024796 55 161 73
-0.016990 -0.004607 -0.055696 122 83 53
-0.017180 -0.004617 -0.055696 107 170 66
0.025367 0.053581 0.033004 58 62 65
-0.076136 0.015300 0.008504 96 113 123
-0.041766 -0.007927 -0.022096 120 179 65
-0.018832 0.021374 -0.002996 110 126 142
-0.013060 0.004191 0.002104 109 161 213
0.011046 -0.017548 -0.003396 188 190 155
-0.013176 0.004286 0.002004 100 156 215
-0.029935 -0.011728 -0.017896 136 201 92
-0.077645 0.017545 0.006904 92 102 114
0.099878 0.050500 0.040604 65 65 65
-0.035975 -0.017965 -0.026596 38 125 56
-0.007023 -0.014524 -0.007896 141 148 110
0.020560 -0.032718 -0.001596 142 130 101
0.025725 0.029773 0.030004 172 187 195
-0.051097 0.007505 0.014304 81 100 114
0.051867 -0.008308 0.025104 17 22 98
-0.025197 -0.016576 -0.018496 136 190 83
-0.017204 -0.004577 -0.055696 142 159 175
0.005104 -0.030216 -0.010096 195 174 123
-0.039350 -0.016358 -0.024996 112 206 100
-0.037733 0.013913 -0.011696 118 141 206
-0.017210 -0.004592 -0.055696 145 167 181
-0.032710 -0.014734 -0.021596 136 183 78
-0.017215 -0.004635 -0.055696 143 171 184
-0.017192 -0.004585 -0.055696 50 136 63
0.008252 -0.015340 -0.002996 170 179 150
0.100356 0.034686 0.061804 73 70 73
0.084403 -0.024745 0.047004 93 105 130
-0.019422 -0.019383 -0.016696 101 175 67
-0.017103 -0.004527 -0.055696 64 71 56
-0.017200 -0.004537 -0.055696 60 64 75
0.002425 -0.022292 -0.006796 207 193 153
0.064625 -0.014341 0.032404 165 188 211
0.049366 0.055222 0.034204 71 71 73
-0.062279 0.007396 0.007404 124 144 155
-0.017217 -0.004613 -0.055696 151 170 185
-0.020785 0.006578 0.002504 18 101 51
-0.037554 -0.017543 -0.026796 85 142 55
-0.001646 -0.028594 -0.012696 194 188 146
-0.039083 -0.015080 -0.024796 95 165 63
