ply
format ascii 1.0
element vertex 1232
property float x
property float y
property float z
property uchar red
property uchar green
property uchar blue
end_header
-0.116319 -0.035964 0.002827 26 25 32
-0.129642 -0.015913 0.001827 44 43 49
-0.108715 -0.086619 0.022627 145 157 169
0.076334 -0.014453 0.031427 32 33 37
0.008248 0.075232 -0.000073 185 192 191
0.129878 -0.051240 0.048027 95 94 92
-0.140573 -0.024927 -0.003073 49 50 54
-0.091926 -0.017652 0.046127 107 109 108
-0.074628 -0.070043 0.027227 156 168 180
0.135894 -0.036727 0.045127 86 85 83
-0.033303 0.077455 -0.001373 167 172 175
0.060768 0.033230 -0.081473 181 144 92
0.119317 0.011767 0.032827 67 66 64
0.137765 -0.076051 0.044827 84 83 81
0.033231 0.035350 -0.074373 41 40 42
-0.036133 0.023555 0.059727 115 117 114
-0.063262 0.003001 0.049627 111 113 112
-0.077963 0.078525 -0.006573 127 133 131
-0.056937 -0.019783 0.048827 118 120 119
-0.101912 -0.044440 0.030127 146 158 170
0.146881 -0.022900 0.006027 17 16 20
0.038673 -0.014517 0.049527 85 84 90
-0.002240 -0.085684 0.034727 168 181 190
0.000051 0.006255 -0.138573 52 51 57
0.055609 0.035537 -0.087173 177 141 91
0.030672 0.028138 0.044427 13 15 15
0.117808 0.009526 0.034927 71 67 66
0.087353 0.015376 0.016527 10 10 9
0.019524 0.002472 0.058427 111 113 111
-0.133893 0.043000 0.001527 47 48 52
0.078170 0.021406 -0.055673 199 163 103
0.000192 0.006342 -0.138573 58 59 60
0.042746 -0.105017 0.038227 178 188 197
-0.126825 0.063030 0.017027 48 50 53
-0.039052 0.089353 -0.018173 164 167 171
-0.093112 -0.091672 0.027027 154 169 179
0.021063 0.015003 0.062427 105 104 104
-0.047598 -0.021369 0.049927 121 123 122
0.000262 0.006316 -0.138573 184 157 102
-0.002174 0.001392 0.056727 120 122 121
-0.062813 0.044532 0.057127 90 89 95
-0.133114 0.073219 -0.009073 40 41 45
-0.131215 0.039756 0.007127 46 47 52
-0.050796 0.026781 0.058127 108 110 109
-0.043562 0.071560 0.009527 163 167 170
0.014620 0.078398 -0.004473 215 219 228
0.012352 -0.042595 0.041027 133 145 148
-0.119037 -0.081559 0.002227 98 98 96
0.067404 0.025400 -0.067273 193 155 99
-0.006933 -0.046757 0.036727 161 171 180
0.000044 0.006272 -0.138573 52 53 58
0.035681 0.027849 -0.068573 211 176 112
0.170273 -0.026468 0.007227 83 82 80
-0.005187 0.071146 0.015227 203 205 205
-0.058393 -0.016232 0.048927 114 116 115
-0.128300 -0.021991 0.001527 40 41 46
0.078088 0.026102 -0.067673 176 141 87
0.059308 0.036253 -0.088273 173 139 94
-0.128489 0.047168 0.020927 47 48 53
-0.088080 0.047738 0.053027 92 92 96
-0.012209 0.078776 -0.006573 182 188 192
0.151044 0.002085 0.007127 13 13 14
-0.109920 -0.034644 0.036227 104 107 104
0.047613 -0.034433 0.033927 37 40 45
0.038853 0.030921 -0.074773 193 154 89
-0.013344 0.090306 -0.018773 175 184 188
-0.131899 -0.036427 0.000827 50 49 54
-0.103375 -0.067658 0.026827 146 158 170
-0.005329 -0.033636 0.050327 127 129 128
0.141169 0.004597 0.005527 11 10 15
0.103701 -0.097418 0.045627 156 164 167
-0.068320 -0.048870 0.031927 155 166 178
0.085495 -0.044119 0.047927 95 100 99
-0.143735 0.001321 -0.002273 50 51 56
-0.104157 -0.038026 0.030127 138 151 160
0.052238 0.032606 -0.081173 191 152 97
-0.109311 0.069956 0.009727 87 88 93
-0.042280 0.007679 0.053427 117 119 118
0.038842 0.035087 -0.085473 197 160 105
0.081770 -0.078630 0.045127 156 165 170
0.043400 -0.022333 0.034127 22 23 25
0.176395 -0.064582 0.014727 98 97 95
0.011763 0.078330 -0.005073 215 220 226
0.138602 -0.044437 0.042727 88 87 85
-0.091287 0.079853 -0.005073 97 101 103
0.000051 0.006249 -0.138573 52 51 57
0.067153 0.030116 -0.072973 182 145 90
-0.098680 -0.026340 0.045627 107 109 108
-0.036078 0.046863 0.059427 116 120 121
0.084703 0.008993 0.022727 70 70 70
0.033617 0.013004 0.031127 72 72 75
-0.002403 0.071939 0.006627 181 185 189
0.051955 0.031720 -0.076673 195 156 99
-0.135100 0.043446 -0.000773 47 48 52
0.036154 0.035328 -0.083873 200 164 109
0.044364 0.038085 -0.090573 183 151 104
-0.116314 -0.027148 0.019627 91 90 90
0.000220 0.006372 -0.138573 113 112 118
-0.049344 0.051294 0.051127 128 134 134
0.167811 -0.081215 0.018427 100 100 98
-0.037190 0.072933 0.008827 173 177 180
-0.130382 -0.078856 0.002627 93 93 91
-0.132123 0.001178 0.001627 46 47 52
-0.107451 -0.085177 0.024427 146 158 170
0.124983 -0.020793 0.003627 14 13 19
-0.060854 0.034273 0.055627 98 100 99
-0.060634 0.020563 0.054927 106 108 107
0.154694 -0.008273 0.008227 57 55 58
0.035920 0.038764 -0.088973 67 57 43
-0.091307 -0.007235 0.047727 107 109 108
-0.017849 -0.026726 0.049827 124 126 125
0.039264 0.034639 -0.085173 190 153 98
0.035877 0.042432 -0.085373 106 106 108
0.139818 -0.052350 0.041627 91 90 88
-0.145109 -0.050731 -0.000473 52 53 57
-0.046760 -0.048568 0.036127 151 165 176
-0.009239 -0.048599 0.036227 158 171 179
0.045921 -0.088209 0.040127 171 181 191
-0.074989 -0.077343 0.027327 157 169 181
-0.105691 -0.069491 0.026027 146 158 170
-0.086226 -0.000170 0.048227 107 109 108
0.054063 -0.089815 0.041227 174 184 194
-0.022006 0.059595 0.034727 183 192 194
0.000050 0.006366 -0.138573 39 40 45
0.081138 -0.026326 0.029327 41 40 46
0.075084 0.031591 -0.073673 176 140 89
0.056150 0.080520 -0.014173 157 161 164
0.123105 0.005626 0.021227 69 68 66
0.161377 -0.076975 0.029127 97 97 95
0.096848 -0.109297 0.043927 160 168 171
-0.088180 -0.043650 0.029627 145 157 169
-0.135230 -0.024581 -0.001173 48 50 53
-0.138281 -0.035370 -0.001773 50 51 55
0.130032 -0.041072 0.045727 80 81 79
-0.130304 0.079491 -0.012273 38 39 44
0.000049 0.006250 -0.138573 54 53 59
-0.079724 -0.045795 0.029327 143 155 167
-0.024198 -0.105069 0.031627 177 188 197
-0.008223 -0.053778 0.035827 155 169 177
0.064784 -0.109933 0.040627 176 185 192
0.174227 -0.002724 0.004327 72 72 73
0.162051 -0.088179 0.027527 100 100 98
0.095582 0.021188 -0.027973 209 174 106
-0.051805 -0.061501 0.035227 159 173 184
-0.085798 0.075054 0.003927 91 90 95
0.081933 0.028750 -0.071073 169 133 85
-0.133414 0.011871 0.002427 44 45 51
0.026371 0.068025 0.028127 145 150 152
-0.106205 0.014145 0.050927 98 100 99
0.054971 0.032840 -0.082073 184 147 92
0.151210 -0.088646 0.033527 100 99 97
0.116321 -0.033681 0.061327 89 89 89
0.090802 -0.102873 0.043627 158 165 171
0.056063 0.032751 -0.080373 181 144 89
0.156613 -0.048222 0.031927 91 91 89
0.082805 0.028366 -0.070673 163 125 79
-0.061402 -0.058837 0.033427 156 169 184
-0.141608 0.019267 -0.001573 46 47 52
0.083927 0.023614 0.021827 31 32 37
0.018975 0.076626 -0.002473 216 221 227
-0.015262 0.056021 0.044627 158 163 164
0.032056 0.065137 0.028027 121 122 126
-0.068777 0.083430 -0.013673 136 141 145
0.061270 0.085756 -0.018073 143 144 148
-0.112772 -0.012413 0.036527 93 96 93
-0.125943 0.083919 -0.016273 14 15 19
0.070083 0.002892 0.036827 17 18 22
0.066035 0.032979 -0.079373 177 142 95
-0.082268 -0.020753 0.045727 109 111 110
0.143526 -0.028561 0.052027 85 84 82
0.097955 -0.071812 0.048027 148 155 161
-0.040725 0.052369 0.049627 139 142 141
-0.112257 0.004479 0.044927 71 74 71
0.122447 -0.023144 0.062027 87 87 84
0.165364 -0.026819 0.011327 86 87 85
-0.113590 0.020865 0.044827 85 87 86
0.130098 -0.055264 0.047327 99 96 94
-0.102492 -0.045051 0.030027 146 158 170
0.059102 -0.004326 0.034927 10 11 15
0.158876 -0.049935 0.031227 94 94 92
-0.140136 0.062287 -0.007573 42 43 48
0.000212 0.006356 -0.138573 150 150 152
0.000047 0.006360 -0.138573 40 41 46
-0.136934 0.029565 0.000827 49 47 52
-0.039169 -0.069300 0.033427 163 177 188
0.045090 -0.092970 0.039527 172 180 189
-0.091784 0.008723 0.049427 102 104 103
0.051933 -0.029328 0.033027 41 42 46
-0.014093 0.077142 -0.002973 179 179 184
-0.096979 0.080249 -0.005273 98 96 101
-0.103849 0.050603 0.046727 80 84 87
0.029571 -0.017830 0.053127 110 112 111
-0.142539 0.030626 -0.000673 48 49 53
0.139724 -0.010874 0.004327 12 11 16
0.121445 -0.038094 0.057327 94 94 92
0.051616 0.006896 0.037527 8 9 14
-0.143377 -0.038978 -0.001873 51 52 56
0.066638 0.023564 -0.065273 202 166 109
0.150490 -0.077996 0.033827 97 96 94
-0.124946 0.056426 0.025427 71 70 77
-0.117224 -0.074221 0.003927 99 99 100
0.029422 -0.094524 0.036927 175 185 194
0.162609 0.010736 0.000427 12 13 13
-0.127440 0.049150 0.025027 43 45 48
-0.055804 -0.033730 0.047427 119 119 120
0.038939 0.037639 -0.090273 186 149 104
-0.131565 0.065905 -0.006173 45 46 50
0.044140 0.023795 0.029427 33 33 41
0.000048 0.006311 -0.138573 47 48 53
0.018727 0.077484 -0.004273 209 217 225
-0.110727 0.004091 0.048227 98 100 99
-0.005364 -0.025579 0.051527 123 125 124
-0.049248 0.056913 0.042827 144 150 150
0.038715 0.006556 0.033727 70 72 69
-0.035163 -0.051719 0.034627 158 169 181
0.025326 -0.062826 0.038627 159 169 178
0.133297 0.000532 0.004427 11 10 15
-0.049861 0.074813 0.003427 155 159 162
0.000240 0.006291 -0.138573 82 81 79
0.139679 0.017875 0.003727 11 11 13
0.003891 0.026190 0.063527 102 104 103
0.035955 0.041907 -0.086873 35 30 33
0.165858 -0.082942 0.022627 97 97 95
-0.126558 -0.046642 0.007827 89 89 87
0.043383 0.031409 -0.075073 191 150 88
-0.111439 0.010140 0.048827 94 96 95
0.043306 -0.056049 0.043427 151 162 168
0.062175 0.026619 0.026427 32 33 38
0.081775 0.003756 0.024227 75 77 76
0.051325 0.026863 -0.067373 206 173 113
0.058183 0.024408 -0.064673 205 169 107
0.080384 0.031115 -0.072973 170 133 88
-0.119414 -0.008033 0.008627 7 6 11
-0.081994 -0.069545 0.026827 154 166 178
0.046733 0.021122 -0.061273 211 176 108
0.134810 -0.008909 0.003727 13 12 17
-0.032687 -0.059606 0.033727 160 174 185
0.068257 0.022602 -0.064573 197 161 104
0.030272 0.037796 -0.048473 12 13 15
0.058891 0.038068 -0.090873 170 141 101
0.062187 0.035299 -0.087073 170 136 91
-0.131035 -0.074322 0.003627 94 94 92
0.074502 -0.085959 0.044427 165 174 181
0.046283 0.038176 -0.090573 179 146 101
0.000042 0.006242 -0.138573 51 50 56
-0.088288 0.063032 0.027427 108 112 113
-0.113793 0.023920 0.030627 139 146 147
0.062561 0.020294 -0.060973 214 176 111
-0.075698 0.080809 -0.009573 124 127 129
0.173077 -0.015687 0.003827 81 80 78
-0.113537 -0.020626 0.008627 153 162 165
0.039264 0.026988 -0.067873 210 176 112
-0.123550 0.015318 0.015527 27 27 34
-0.062392 0.038191 0.059327 35 37 36
-0.126047 -0.071020 0.005027 95 95 93
-0.010436 0.088666 -0.018173 185 192 198
0.031342 0.080531 -0.029773 36 40 43
-0.011558 -0.046243 0.036127 159 172 180
0.177476 -0.042865 0.010727 73 72 70
-0.081279 0.011954 0.049927 106 108 107
0.056124 0.023416 -0.063473 208 173 109
-0.113922 0.037113 0.048227 87 89 88
0.000048 0.006287 -0.138573 50 51 55
0.129663 0.014324 0.003127 10 9 14
0.044667 -0.001096 0.036527 8 9 13
0.139138 0.017063 0.003727 12 12 14
0.043269 0.038201 -0.090673 187 153 108
0.081728 -0.028539 0.029227 42 45 50
-0.058612 0.000855 0.049627 113 115 114
0.117165 -0.111932 0.045327 155 160 166
0.000219 0.006370 -0.138573 129 128 133
0.000043 0.006286 -0.138573 50 51 55
-0.016828 0.077749 -0.003773 180 184 187
-0.116415 -0.043607 0.008727 96 98 97
0.033268 0.033737 -0.076373 58 47 45
0.004348 -0.091943 0.034727 173 186 195
0.176739 -0.058881 0.015027 96 95 93
0.000046 0.006279 -0.138573 49 50 55
0.054720 0.029034 -0.071373 193 153 92
0.014702 0.060016 0.040527 141 144 145
-0.115326 0.045835 0.042627 132 139 144
0.009982 -0.083357 0.035327 169 182 191
-0.089987 0.084672 -0.010873 96 100 101
-0.109916 -0.024707 0.042227 105 106 105
-0.040582 0.076558 -0.000573 170 174 177
0.065461 0.029586 0.025227 33 34 39
0.049737 0.023242 -0.062973 212 177 111
-0.027023 0.083512 -0.012373 194 199 203
0.040731 0.032147 -0.079473 199 160 101
0.011263 0.079746 -0.007973 205 212 215
-0.129573 0.038941 0.015027 45 46 51
-0.120407 -0.019964 0.003527 5 6 10
-0.006802 -0.023379 0.051327 123 125 124
0.120001 0.005907 0.031027 68 69 67
0.094860 -0.078711 0.046827 154 161 167
-0.124925 0.005388 0.010527 29 29 39
-0.093358 -0.078012 0.028027 152 164 176
-0.119794 0.086863 -0.018473 68 69 71
-0.146250 0.026329 -0.001373 50 51 56
0.072460 -0.001706 0.035327 6 7 11
-0.028611 -0.042976 0.047627 90 101 113
0.056103 0.025351 -0.065373 213 177 117
-0.091969 0.073135 0.006827 91 92 94
-0.059639 0.068610 0.016927 142 145 147
0.065453 0.029280 -0.071773 181 142 85
-0.097365 0.063276 0.023627 85 86 87
0.080411 0.028812 -0.071273 169 133 85
0.000224 0.006370 -0.138573 112 111 116
-0.048606 -0.088484 0.034427 165 179 190
-0.092401 0.061454 0.030327 94 98 96
0.160834 -0.005761 0.008227 74 74 72
-0.020085 0.080469 -0.007573 179 182 184
0.113899 0.006901 0.039127 70 70 67
-0.061759 -0.020068 0.048327 119 121 118
0.000215 0.006362 -0.138573 141 141 143
0.010485 -0.010175 0.057427 116 118 117
-0.116513 -0.025895 0.001127 9 6 19
0.066809 -0.051346 0.047227 144 152 156
-0.103376 0.086408 -0.013473 92 93 97
0.000044 0.006374 -0.138573 36 36 44
0.099869 -0.076246 0.047627 149 156 162
-0.034165 -0.072014 0.032927 165 179 190
0.011736 0.009232 0.059727 109 112 110
0.127428 -0.083851 0.046527 108 107 103
0.009031 -0.065173 0.036127 160 173 181
-0.124389 0.034376 0.025927 28 29 34
0.012525 0.052886 0.048827 164 168 167
0.165157 0.004860 0.006627 70 70 68
-0.054901 0.078036 -0.004673 151 156 160
-0.018886 -0.085268 0.033327 171 183 195
0.000221 0.006376 -0.138573 98 97 103
-0.060016 0.019039 0.054127 111 113 112
0.013639 0.063893 0.023627 187 191 196
-0.120813 -0.071730 0.004327 98 98 96
-0.035105 -0.010092 0.052127 122 124 123
0.057553 -0.067200 0.043627 160 170 179
0.122253 -0.049225 0.053327 100 100 98
-0.034526 0.072941 0.008227 177 182 186
0.080465 0.021305 0.026627 34 33 43
0.000056 -0.026160 0.052827 120 125 124
0.000045 0.006276 -0.138573 48 49 54
0.051896 0.036619 -0.088773 176 142 96
0.000051 0.006281 -0.138573 51 52 57
-0.141803 0.052513 -0.003373 46 47 51
-0.132515 0.037601 0.006127 46 47 52
-0.136934 -0.060809 0.000827 51 50 55
0.000047 0.006254 -0.138573 51 53 57
0.085770 0.013885 0.022427 67 63 67
0.001042 0.084317 -0.013773 192 197 199
0.077548 -0.090028 0.044227 163 171 177
0.000211 0.006357 -0.138573 144 143 145
-0.130867 0.019967 0.005827 44 45 50
0.035939 0.040737 -0.087873 31 25 27
-0.134401 0.043424 0.000127 49 50 54
0.117502 -0.068453 0.052127 101 105 102
0.112633 -0.052358 0.061527 138 142 145
0.138357 -0.082731 0.044227 97 96 94
-0.138264 0.008332 -0.001273 47 48 53
-0.126037 -0.010447 0.005327 34 33 38
0.061080 0.027166 -0.069073 192 154 92
0.054763 0.033491 -0.083373 181 144 91
-0.104959 -0.095091 0.023927 148 160 172
-0.116069 0.089193 -0.018073 75 76 78
-0.025663 0.077768 -0.001773 173 178 181
0.115534 -0.079317 0.048927 148 150 157
0.056154 0.027730 0.025327 32 33 38
-0.000921 -0.090842 0.034527 175 185 195
0.118456 0.008859 0.034427 72 67 66
0.000046 0.006313 -0.138573 45 46 51
0.042740 0.026353 -0.066773 212 176 114
0.039682 -0.016269 0.049227 89 91 88
0.036126 0.040702 -0.089973 21 15 15
0.000045 0.006271 -0.138573 49 50 55
-0.068185 -0.087738 0.028427 158 170 182
0.113008 0.015967 0.003527 15 14 18
0.145681 -0.022605 0.005927 17 16 22
-0.057618 -0.055412 0.034827 158 172 185
-0.137120 0.063562 -0.008073 45 46 50
0.000187 0.006347 -0.138573 181 187 190
0.053419 0.021583 -0.061173 214 179 114
-0.056252 -0.040995 0.045427 101 101 110
0.112086 -0.004192 0.050327 81 81 79
-0.126034 0.016915 0.013227 34 34 41
-0.115182 0.048512 0.046827 159 161 170
-0.109498 0.060100 0.022427 78 80 85
-0.042831 0.027282 0.059327 111 113 110
0.018919 -0.104247 0.035427 176 186 195
0.000042 0.006259 -0.138573 53 54 59
-0.099151 0.049354 0.050527 83 84 86
0.000189 0.006332 -0.138573 13 14 16
0.003368 -0.019555 0.055127 124 126 125
0.170906 -0.035070 0.016627 90 89 87
0.007829 0.069966 0.012427 206 211 214
0.012707 0.082427 -0.010973 210 217 227
0.000047 0.006332 -0.138573 45 46 51
0.059392 0.036008 -0.087873 173 139 95
0.029874 -0.086887 0.037627 168 178 190
-0.119008 -0.009936 0.008127 6 7 13
0.000212 0.006356 -0.138573 151 151 153
0.131852 0.019846 0.001727 14 14 16
-0.005477 -0.000051 0.055427 120 122 121
0.044258 0.033794 -0.082973 190 151 94
-0.143889 0.001842 -0.002373 48 49 54
0.077506 -0.091712 0.044127 166 173 180
-0.128719 0.067766 -0.000873 44 45 49
-0.059717 -0.090396 0.031427 165 179 192
0.052250 0.023264 -0.062873 209 174 110
0.036380 -0.035498 0.050627 114 116 115
-0.006508 -0.095989 0.034327 174 188 196
0.141325 -0.070107 0.043127 90 89 87
-0.093253 -0.047967 0.030127 146 160 171
0.016356 -0.078886 0.036327 165 179 187
0.018989 0.079610 -0.007773 210 216 224
-0.126989 0.065631 0.011627 24 25 27
0.086216 -0.080282 0.044927 155 162 171
-0.115138 0.057009 0.040727 179 189 198
0.056617 -0.000759 0.036427 9 10 15
-0.057943 0.016433 0.053327 111 113 112
-0.008704 0.054945 0.045827 160 165 166
0.066544 0.033751 -0.083273 171 137 91
0.026854 -0.048734 0.042127 155 165 176
-0.067671 0.058872 0.037827 107 111 112
0.050344 0.027704 -0.069473 197 158 97
0.125502 -0.022296 0.061427 86 86 84
-0.105257 -0.064927 0.026327 147 159 171
-0.088657 -0.081548 0.027527 156 167 179
-0.130841 -0.055338 0.007327 89 89 87
-0.126753 -0.031729 0.000127 48 49 53
0.044592 -0.030085 0.041627 92 99 99
0.060239 -0.082838 0.042327 167 177 186
-0.065491 -0.021415 0.047827 116 116 115
-0.015273 0.001840 0.053427 119 121 120
0.000051 0.006353 -0.138573 41 42 47
0.000046 0.006265 -0.138573 50 51 56
0.000048 0.006348 -0.138573 41 42 47
-0.108956 0.054908 0.047027 153 163 171
0.032012 0.045608 0.056927 49 50 52
0.102613 -0.086816 0.046827 158 165 171
0.034888 0.046919 0.054327 65 70 69
-0.099227 0.060279 0.026727 84 85 89
0.157214 -0.094885 0.030827 102 101 99
-0.072571 0.057339 0.038327 116 116 123
0.033213 -0.039190 0.051027 116 118 109
-0.082295 0.071329 0.012927 104 108 109
-0.135519 -0.011455 -0.001673 49 47 52
-0.070510 -0.059559 0.029427 153 165 177
0.080971 0.021364 -0.050373 204 171 109
-0.058755 0.083843 -0.013773 144 148 151
0.000195 0.006334 -0.138573 12 13 17
-0.134115 0.009691 0.000927 47 48 52
-0.034516 0.083154 -0.012173 181 184 194
-0.060457 -0.101196 0.028127 168 179 191
-0.074024 0.060908 0.031627 118 119 124
0.019937 0.015394 0.062627 102 104 103
0.006393 -0.006835 0.057627 118 122 120
-0.144028 -0.015154 -0.002973 48 49 54
-0.077529 0.080663 -0.008973 128 134 134
-0.061768 0.008018 0.050527 112 114 113
0.046465 0.024130 -0.064073 210 175 108
-0.100607 0.071798 0.006927 88 92 97
0.040746 0.019764 -0.061473 217 182 114
-0.052653 0.069687 0.013827 148 152 155
0.035676 0.037876 -0.087973 69 57 46
-0.048392 -0.017824 0.050227 122 124 123
-0.032430 0.025478 0.060127 111 113 110
-0.034964 0.069893 0.015027 177 180 184
0.046373 0.036179 -0.088073 183 145 96
0.058616 0.037547 -0.090273 172 143 99
-0.114182 0.063060 0.020427 82 86 89
-0.115064 -0.027076 0.001627 15 15 22
0.000210 0.006320 -0.138573 37 39 37
0.049380 -0.021531 0.033227 34 35 39
0.068818 -0.057953 0.046927 146 158 163
0.166782 -0.055284 0.023227 96 96 94
-0.130123 -0.062724 0.006527 93 93 91
0.000046 0.006362 -0.138573 38 39 44
0.057423 0.031650 -0.075973 191 155 97
-0.043620 -0.051027 0.035527 150 164 175
0.152788 -0.054339 0.032727 95 95 93
0.017804 0.089572 -0.019173 184 193 198
-0.032859 0.079236 -0.005273 185 190 193
0.124362 0.012981 0.003227 11 10 15
-0.089092 0.006578 0.049027 102 104 103
0.041723 0.028237 -0.070673 199 159 97
0.017686 -0.081878 0.036327 166 179 187
0.048897 0.012455 0.033827 30 30 38
0.000197 0.006327 -0.138573 87 68 57
0.013363 -0.022619 0.055927 119 120 123
-0.070661 -0.062269 0.029027 153 165 177
0.145132 -0.001726 0.005927 11 10 15
0.071643 -0.066414 0.046027 153 162 169
0.027807 0.054865 0.041627 113 111 116
0.061484 0.020122 -0.060273 208 173 107
0.144218 0.021759 -0.013073 176 146 96
0.155873 -0.072484 0.031827 99 98 96
-0.067437 -0.065435 0.029727 157 169 181
0.001466 0.088758 -0.018373 180 187 193
-0.046248 0.072104 0.008227 158 164 167
0.032533 0.025663 -0.064173 201 166 100
0.064679 0.014346 0.032227 32 32 40
0.069408 -0.111871 0.042027 177 183 189
-0.110554 -0.062275 0.009127 95 98 95
0.169855 -0.007155 0.005227 74 74 72
-0.089974 -0.066120 0.027627 152 166 177
-0.036640 0.045933 0.060427 106 110 109
-0.042691 -0.094627 0.033127 169 183 194
-0.135195 -0.005486 -0.001473 48 49 53
0.041257 -0.070376 0.040527 164 174 185
0.047357 0.039067 -0.090873 183 151 110
-0.113283 0.078506 -0.004273 86 87 89
-0.080319 0.000175 0.048527 107 109 108
-0.088128 -0.045218 0.029527 146 158 170
0.061358 0.020809 -0.061373 212 177 114
-0.114278 -0.024470 0.026227 95 97 96
-0.138560 -0.077925 -0.002773 51 50 55
0.000046 0.006240 -0.138573 51 50 55
0.025620 -0.066408 0.038327 159 169 180
-0.046498 0.033246 0.058927 99 100 101
0.012917 0.055913 0.044227 130 134 133
-0.059114 -0.038245 0.045627 107 111 115
0.162998 -0.073654 0.027527 96 96 94
0.000044 0.006344 -0.138573 41 42 47
0.162146 -0.057512 0.029927 96 96 94
0.141871 0.018441 0.004027 14 15 15
0.035030 0.013675 0.031727 69 68 71
-0.139105 0.017973 -0.001473 47 48 53
-0.008146 -0.094616 0.034227 172 186 197
-0.130870 0.008155 0.005227 42 43 48
-0.129928 0.055478 0.006927 50 51 56
0.154056 -0.076289 0.032327 99 98 96
0.063378 0.033277 -0.081373 179 143 93
-0.114619 0.022705 0.024927 22 21 27
-0.057027 0.017196 0.053927 112 114 113
0.000050 0.006289 -0.138573 49 50 55
0.163620 -0.010114 0.007227 75 75 73
0.013326 -0.081957 0.035827 165 179 188
0.060218 0.029034 -0.071373 190 151 92
0.167271 -0.082017 0.019327 97 97 95
0.100511 -0.055570 0.051527 143 148 159
-0.033380 0.037699 0.065927 27 27 31
0.128653 -0.053267 0.048827 98 98 96
-0.017776 0.069606 0.017927 209 213 217
0.117532 0.015585 0.001827 22 21 26
-0.091797 -0.091299 0.026927 154 168 179
0.142791 -0.037377 0.040627 91 90 88
0.035883 0.031246 -0.074873 192 153 87
0.139862 -0.102662 0.042127 106 105 100
-0.008141 -0.101452 0.034127 176 188 196
0.000050 0.006256 -0.138573 50 49 55
0.000048 0.006330 -0.138573 47 48 53
0.088373 -0.069777 0.046527 149 159 163
0.000275 0.006320 -0.138573 179 147 96
-0.126113 -0.068104 0.005727 94 94 92
0.115924 -0.009922 0.003127 15 15 16
-0.054887 0.063701 0.026627 150 154 158
0.053688 0.034339 -0.084773 178 141 89
0.007082 -0.053592 0.037227 155 167 176
0.106360 0.029699 0.037827 65 64 64
0.082343 0.002212 0.024127 75 77 76
-0.097820 0.084917 -0.010473 98 104 107
-0.094494 -0.003731 0.048427 103 105 104
-0.086759 0.027562 0.051727 98 100 99
0.037867 0.065413 0.015527 105 106 108
0.040726 0.033590 -0.083173 194 155 96
0.148065 -0.049149 0.034827 92 92 90
-0.125605 0.086510 -0.019673 14 15 17
0.027746 0.057541 0.039027 115 114 117
0.036043 0.036173 -0.084973 181 154 111
0.000043 0.006374 -0.138573 35 35 43
-0.145077 -0.000742 -0.002473 50 51 56
0.142363 0.006515 0.005627 11 10 15
0.095873 -0.045713 0.053827 94 96 98
0.060345 0.033843 -0.082873 174 138 89
-0.055119 -0.066695 0.034227 159 173 182
0.000045 0.006347 -0.138573 41 42 47
0.052891 -0.092957 0.040727 172 180 191
0.034058 0.029246 -0.069973 198 160 97
-0.067471 -0.025952 0.047427 114 116 115
0.000043 0.006267 -0.138573 50 51 56
0.038971 0.059333 0.023827 89 90 92
-0.026526 -0.056476 0.034127 160 170 183
0.000051 0.006286 -0.138573 51 52 57
0.000240 0.006296 -0.138573 81 80 78
-0.050933 0.063493 0.026027 154 157 160
0.000236 0.006318 -0.138573 198 170 112
-0.007695 0.088047 -0.018073 179 188 195
0.045008 0.037427 -0.090173 182 148 100
0.034405 0.066307 0.007027 190 195 198
-0.118036 0.057559 0.037927 172 182 194
0.000215 0.006367 -0.138573 134 134 136
-0.140156 0.000530 -0.001973 49 50 54
0.033898 0.033560 -0.051073 12 12 12
0.132459 -0.009968 0.003527 11 10 15
0.014500 0.086411 -0.016373 194 199 202
0.123623 -0.014004 0.058427 83 84 82
0.034577 0.039602 -0.084873 35 35 37
-0.015655 -0.088101 0.033727 170 182 194
0.011471 0.062927 0.037927 134 137 138
0.058423 -0.086123 0.042027 170 180 189
0.000195 0.006332 -0.138573 12 13 13
0.051302 0.035152 -0.086273 180 143 91
0.128826 0.019570 0.001627 21 24 21
0.169855 -0.003328 0.005227 73 73 71
-0.010218 -0.049832 0.035927 156 169 177
-0.036751 -0.084024 0.032827 169 184 196
0.156430 -0.078589 0.031727 99 98 96
0.000047 0.006322 -0.138573 48 49 54
-0.079305 0.084931 -0.013173 113 118 121
0.150229 -0.056912 0.033527 95 95 93
-0.128107 0.007357 0.008327 38 39 44
0.031045 0.054346 -0.040573 23 21 26
-0.147937 -0.077499 -0.003873 54 53 58
-0.123565 0.007098 0.012327 30 31 36
-0.005156 0.071849 0.006427 173 175 181
-0.111490 0.040764 0.050727 93 96 92
-0.113630 -0.080858 0.002827 100 102 101
0.115921 -0.071502 0.050727 136 141 145
0.036603 0.033276 -0.080673 194 155 96
-0.077383 -0.061738 0.027727 151 163 175
0.140635 -0.078742 0.043127 90 89 87
0.046272 0.029476 -0.071573 196 156 94
0.018988 0.083029 -0.012773 207 214 222
0.029906 0.042054 -0.045873 16 17 20
-0.073166 -0.059363 0.028927 154 166 178
0.065758 0.021741 -0.062573 205 166 104
0.038124 0.032963 -0.080873 197 158 99
0.063859 0.034233 -0.083773 175 141 93
0.145160 -0.032826 0.038527 84 84 82
-0.130058 -0.021379 0.001127 41 43 48
0.008469 0.074146 0.003727 208 213 216
0.000211 0.006356 -0.138573 146 146 148
-0.028371 -0.099445 0.031427 174 185 200
0.003176 0.077552 -0.003173 176 181 186
-0.040415 0.072148 0.008327 169 174 177
-0.072267 0.091978 -0.017373 129 134 137
-0.022649 0.081067 -0.009973 187 196 199
0.151490 0.016538 0.007827 58 58 60
0.027558 0.013856 0.062427 96 98 97
0.029451 0.050134 0.047727 79 85 84
-0.090661 -0.072802 0.027727 152 164 176
0.142410 0.019560 -0.011273 170 138 86
0.050094 0.027370 -0.069273 192 160 96
0.159358 -0.088639 0.030027 100 100 98
-0.034350 0.075643 0.001827 173 178 182
-0.031501 -0.073505 0.032627 165 179 190
0.038098 -0.013518 0.050227 83 86 86
0.003216 0.083154 -0.012173 186 193 200
0.146433 -0.106287 0.036027 98 94 93
0.043212 0.036973 -0.089273 185 150 103
0.021522 0.049507 0.049627 115 119 117
0.046204 0.020700 -0.061173 213 178 110
-0.019084 0.019349 0.058827 114 114 114
-0.131584 0.063995 -0.003573 46 47 51
-0.055823 0.080299 -0.007873 145 154 153
0.042971 0.022485 -0.062473 212 177 111
0.014735 -0.062125 0.036827 155 170 180
0.028743 -0.002343 0.034827 60 57 65
0.000048 0.006243 -0.138573 52 51 56
-0.117453 0.071134 0.007927 79 81 80
-0.049172 0.040707 0.065327 52 51 51
0.088851 -0.048338 0.049027 140 149 156
0.037829 0.038344 0.047127 39 44 45
0.128134 -0.003525 0.004127 11 10 15
-0.011253 -0.005818 0.053327 121 122 121
0.000048 0.006253 -0.138573 51 50 56
0.034968 0.035068 -0.083773 79 60 36
-0.121407 0.082628 -0.014973 70 71 73
-0.017817 0.030546 0.061427 112 114 111
-0.116895 -0.082094 0.002227 99 99 97
-0.107703 0.017393 0.051027 95 97 96
-0.042680 0.086249 -0.016973 156 161 164
-0.023546 0.053419 0.055427 140 146 142
-0.134610 -0.012029 -0.001273 45 44 49
-0.126399 0.074258 -0.006573 29 27 32
0.113283 -0.003844 0.050527 79 79 79
-0.134522 0.024634 0.001627 49 50 54
0.143237 -0.009605 0.005127 12 11 16
0.166338 -0.080843 0.021027 99 99 97
0.139042 0.005422 0.005027 11 10 15
0.000044 0.006316 -0.138573 51 52 57
0.000046 0.006241 -0.138573 51 50 55
0.027192 0.056754 0.039827 107 112 113
-0.102570 0.054431 0.033927 61 65 70
0.176999 -0.028099 0.005927 86 85 83
0.000218 0.006374 -0.138573 116 117 121
0.000047 0.006272 -0.138573 49 50 55
0.056187 0.019727 -0.059973 214 178 115
-0.079479 -0.078977 0.026827 161 173 185
0.000049 0.006248 -0.138573 52 51 57
0.000048 0.006246 -0.138573 52 51 56
0.037338 0.037335 -0.087273 190 158 105
0.119900 -0.009269 0.055427 81 81 79
-0.046308 -0.043481 0.036927 152 166 175
0.162707 -0.065241 0.028527 98 98 96
0.075524 0.033463 -0.075073 172 138 90
0.000208 0.006279 -0.138573 65 72 72
-0.083767 0.049401 0.052327 89 88 90
0.148041 0.022186 -0.013473 170 137 92
-0.123345 -0.073144 0.004427 97 97 95
-0.038900 0.077246 -0.002773 177 180 181
-0.130028 0.026904 0.021327 10 11 16
-0.101006 0.085682 -0.011973 96 97 102
0.090055 -0.060390 0.047827 151 160 165
-0.036762 0.074241 0.003927 175 180 183
0.000046 0.006320 -0.138573 46 47 52
0.018714 -0.053460 0.039827 146 158 165
-0.065539 0.071269 0.014827 131 135 135
-0.094189 -0.000892 0.048527 104 106 105
0.000187 0.006359 -0.138573 196 199 204
-0.114330 -0.053489 0.008927 98 100 99
-0.045335 0.070669 0.010727 158 162 165
0.014268 0.056470 0.043727 133 131 138
0.000052 0.006372 -0.138573 37 38 43
0.000047 0.006299 -0.138573 49 50 55
-0.122730 0.023468 0.023327 72 74 79
0.171206 -0.011987 0.004527 77 77 75
-0.129117 0.004863 0.006327 39 40 44
0.036967 0.026727 -0.067373 207 172 106
0.131898 0.022178 -0.017173 189 152 100
-0.116695 -0.028791 0.001027 11 8 21
-0.078552 0.059183 0.032327 121 125 123
0.054888 0.037307 -0.090073 175 142 97
-0.122565 -0.014292 0.005427 89 92 102
0.046390 0.027779 -0.070073 198 158 96
0.172012 -0.066439 0.016827 98 97 95
0.060194 0.036551 -0.088573 171 138 95
-0.129164 -0.052963 0.007627 90 90 88
0.178590 -0.029572 0.006327 87 86 84
0.113215 -0.076333 0.048627 151 155 161
-0.056526 -0.000583 0.049827 114 116 115
0.029655 -0.079187 0.038327 168 178 187
0.120157 0.019146 -0.000073 36 36 38
0.064290 0.024175 0.027027 31 31 39
0.122437 -0.037305 0.057127 94 94 92
-0.005600 0.090989 -0.018773 171 179 182
0.137687 -0.107778 0.041527 107 106 102
0.001942 0.045913 0.060327 146 152 151
0.056336 0.019577 -0.059973 216 182 118
-0.017753 -0.002503 0.052627 121 123 122
-0.143222 0.018468 -0.001773 49 50 55
0.028397 0.069744 0.006027 202 202 206
-0.007019 0.070088 0.016927 200 205 206
0.042294 0.030566 -0.073773 200 159 97
0.067119 -0.026487 0.031827 42 43 47
0.011192 -0.049078 0.038827 153 164 171
-0.017495 0.083729 -0.013573 187 196 199
0.066496 -0.013309 0.032727 29 30 34
0.016905 -0.102075 0.035127 171 186 195
-0.141023 0.054647 -0.003873 46 47 51
-0.097208 0.085637 -0.011273 95 102 106
-0.079859 -0.023221 0.045827 109 111 110
0.166264 -0.054117 0.024227 96 96 94
0.047185 0.018484 -0.060273 218 183 117
0.034769 0.038467 -0.082573 38 36 33
-0.113385 0.087539 -0.016773 83 84 88
-0.082695 -0.036180 0.041327 105 108 107
-0.082273 -0.057110 0.028027 150 162 174
-0.063524 0.044513 0.057027 89 91 97
-0.116954 -0.018096 0.023427 80 83 82
0.003079 0.014163 0.060527 113 115 115
-0.069068 -0.066730 0.029027 158 169 181
-0.058397 0.014207 0.052427 113 115 114
-0.095244 0.085975 -0.012273 98 103 104
0.000231 0.006318 -0.138573 51 39 27
-0.089278 -0.003350 0.047927 105 107 106
-0.081100 -0.074939 0.026927 157 169 181
0.000052 0.006357 -0.138573 40 41 46
-0.011912 0.037700 0.071127 45 45 45
-0.051572 0.016912 0.055427 111 113 112
-0.090327 0.078422 -0.003473 90 94 95
0.000049 0.006335 -0.138573 46 47 52
-0.121918 -0.030305 -0.000273 10 11 16
0.163893 0.009439 0.001527 32 30 31
0.129166 -0.103204 0.043027 114 108 109
-0.134119 0.054118 -0.000973 48 49 53
0.036040 -0.031921 0.050727 105 111 113
-0.097682 -0.025657 0.045727 107 109 108
0.072655 -0.056459 0.047727 140 149 154
0.035110 0.031088 -0.073373 205 166 103
0.050895 0.031838 -0.076673 200 161 104
-0.007561 0.077378 -0.004473 182 192 193
-0.108140 -0.032905 0.040427 107 109 108
-0.132403 0.021716 0.004227 45 46 51
0.032441 0.027681 -0.065973 205 175 109
0.000050 0.006332 -0.138573 49 50 55
0.064533 0.033911 -0.083373 172 138 90
0.106389 -0.103592 0.044827 142 141 145
-0.051415 -0.063733 0.035027 159 173 184
-0.110868 0.071355 0.008427 82 86 89
0.000068 0.062683 0.031127 193 192 198
0.044688 0.026863 -0.067373 213 179 119
0.057751 0.023347 -0.063773 210 175 111
-0.072427 -0.057323 0.029427 153 165 177
0.061866 0.020791 -0.061473 214 175 109
0.121812 0.007142 0.020727 67 66 64
-0.130519 0.042035 0.008527 46 47 52
-0.060974 -0.084526 0.031327 163 177 188
-0.042432 0.076673 -0.001373 176 181 183
-0.096467 -0.065618 0.027927 149 161 173
0.014691 0.070304 0.009227 219 224 227
0.058726 0.033150 -0.081873 181 144 92
0.061441 0.017777 -0.058973 219 181 116
0.133201 -0.099179 0.043827 109 108 104
0.061747 0.000225 0.036827 6 7 10
-0.059350 -0.082409 0.032227 164 178 189
-0.084905 0.035505 0.051627 95 97 96
-0.034000 -0.012257 0.052027 121 123 122
-0.104361 0.091076 -0.015673 93 97 100
-0.038528 0.068000 0.017627 185 190 193
-0.054036 -0.035852 0.047427 115 120 123
0.000196 0.006328 -0.138573 43 37 32
-0.105875 -0.070024 0.025827 146 158 170
-0.131052 0.052957 0.005127 50 51 56
0.148539 -0.065710 0.034227 96 95 93
0.063162 0.035030 -0.086673 166 132 85
-0.039473 -0.072850 0.033327 164 178 189
-0.130858 -0.031357 -0.000273 48 49 53
-0.024725 -0.075648 0.033027 166 180 191
-0.114363 -0.009094 0.032927 91 93 92
0.000190 0.006323 -0.138573 21 21 29
-0.003295 -0.043486 0.038127 156 166 177
-0.011773 -0.075988 0.034427 164 176 188
-0.096529 -0.001620 0.048927 100 102 101
-0.096948 0.078179 -0.002473 89 93 94
-0.117579 -0.079184 0.002727 99 99 97
-0.116525 -0.016089 0.006427 8 7 10
0.000211 0.006346 -0.138573 36 25 21
0.055051 0.023536 -0.063573 209 174 110
-0.041074 0.040353 0.065527 54 56 53
0.045988 -0.067462 0.041727 154 169 176
0.034730 0.039335 -0.084473 34 31 31
0.165445 -0.099903 0.023727 104 103 101
-0.107631 -0.097247 0.020127 148 158 169
0.045479 0.027370 -0.069273 197 161 102
-0.081542 0.067521 0.021027 108 112 113
0.048267 0.034386 -0.083473 192 150 96
0.061826 0.035423 -0.087373 169 135 90
-0.064624 0.003720 0.049427 110 112 111
0.000047 0.006334 -0.138573 44 45 50
-0.084417 0.075353 0.003427 102 104 107
0.069757 0.028624 -0.070673 179 142 89
0.038180 0.028170 -0.070073 197 159 94
-0.068069 -0.036751 0.045227 107 111 110
-0.053540 0.023710 0.057227 110 112 111
-0.112695 -0.089337 0.009727 140 151 161
0.130028 0.012995 0.003527 11 10 15
-0.069787 0.091484 -0.018073 131 136 139
0.064129 0.021511 -0.062273 210 172 109
-0.127733 0.034565 0.023427 33 34 39
0.122742 -0.108509 0.043227 96 96 96
0.169887 -0.059587 0.019527 97 97 95
0.033501 0.085262 -0.025973 163 173 174
0.110666 0.014837 0.035627 66 66 64
0.043608 0.034443 -0.084573 195 156 101
0.030490 0.029170 -0.053173 31 31 34
-0.052284 0.066460 0.020627 157 161 165
-0.002578 0.074381 0.001427 169 173 173
0.051699 0.032701 -0.077673 191 152 95
-0.074178 -0.035753 0.043927 108 111 109
0.027453 0.083309 -0.018673 196 203 209
0.059199 0.036008 -0.087873 173 139 95
-0.026014 -0.071688 0.032927 164 178 189
0.140719 -0.108144 0.041027 106 102 99
0.000191 0.006331 -0.138573 22 23 25
-0.087948 0.060070 0.031027 99 103 104
-0.149184 0.036045 -0.001073 46 47 52
0.115502 -0.045136 0.058627 79 81 80
0.030995 0.024971 -0.062373 204 174 108
-0.122314 0.027044 0.024827 50 54 55
0.142785 -0.029716 0.043227 83 82 80
-0.071189 -0.078962 0.028027 160 172 184
-0.065245 -0.090306 0.029027 161 173 185
-0.058544 0.070923 0.013327 139 143 142
0.160435 -0.063005 0.030827 97 97 95
-0.031839 0.084777 -0.014173 195 203 206
-0.072492 0.075489 0.007127 105 109 110
0.164045 -0.089654 0.025727 99 99 97
-0.129961 0.046664 0.010127 47 48 53
-0.126663 -0.000431 0.007627 36 35 44
-0.037707 -0.088856 0.032727 170 182 197
0.073231 -0.017080 0.031727 33 34 39
-0.146198 -0.017749 -0.002873 49 50 55
0.036517 0.025098 -0.065273 208 173 105
-0.136238 -0.034158 -0.001473 50 51 55
0.000208 0.006343 -0.138573 45 41 40
0.036807 0.038165 -0.090173 161 140 93
0.161289 0.009853 0.007627 67 67 65
-0.125487 0.038090 0.025727 32 33 38
-0.019052 -0.050797 0.034827 158 170 182
0.168550 -0.073397 0.017727 100 101 99
0.174337 -0.040838 0.015227 90 89 87
0.144056 -0.105394 0.038827 95 91 90
-0.146067 -0.068906 -0.002273 51 50 55
-0.064916 -0.071240 0.029827 157 171 182
-0.144028 -0.022888 -0.002973 51 50 56
0.036501 0.039360 -0.091873 61 52 44
-0.122007 0.072574 0.000427 75 76 78
-0.018545 -0.028480 0.049627 126 128 127
0.134588 -0.047518 0.043827 87 86 84
-0.064696 0.081264 -0.010473 139 143 144
0.047793 0.040015 -0.091073 179 151 108
-0.069099 0.084179 -0.014373 137 143 143
-0.116652 0.083035 -0.011973 77 78 82
0.160696 0.012667 0.002227 36 35 33
-0.002245 -0.078913 0.035027 169 182 191
0.009802 0.074273 0.003427 212 223 219
-0.115358 0.070152 0.009527 79 84 86
-0.108469 0.066507 0.015327 88 91 96
-0.120366 0.016421 0.019027 4 9 10
-0.008934 -0.024349 0.050627 124 126 125
0.000047 0.006344 -0.138573 44 45 50
-0.124630 0.064721 0.012227 78 79 81
0.053661 0.027107 0.025327 32 32 40
-0.135526 -0.021245 -0.000873 50 51 55
0.035075 0.037519 -0.085973 73 66 59
0.123238 0.006241 0.004427 11 10 15
-0.079793 -0.068916 0.026827 153 165 177
-0.133693 -0.033811 -0.000873 49 48 53
-0.017602 0.073822 0.011427 199 203 209
-0.076493 0.080867 -0.009473 127 131 132
-0.050777 0.082066 -0.011173 159 162 165
0.132813 0.013795 0.003327 10 9 14
0.043823 0.031806 -0.076173 189 149 87
-0.100814 -0.016430 0.047627 103 107 106
0.028357 -0.108274 0.036527 177 188 194
0.175191 -0.023351 0.004227 83 82 80
-0.088499 0.002665 0.048527 104 106 105
0.055409 0.036083 -0.088073 174 140 94
0.141279 0.014403 0.004527 10 9 14
0.144624 -0.063177 0.039527 94 94 92
0.159335 -0.097820 0.029327 100 100 98
0.049038 -0.036828 0.034327 32 35 43
0.095524 -0.063241 0.048827 151 160 168
-0.061113 -0.102573 0.027327 169 179 189
-0.131679 0.031983 0.007027 45 46 51
0.063783 0.033222 -0.082173 177 144 93
-0.001094 0.084555 -0.013773 185 191 199
-0.078447 0.027299 0.052627 100 102 101
0.046600 -0.042350 0.040127 68 79 82
0.101158 0.021201 -0.046173 184 154 100
0.060054 0.088891 -0.020473 123 124 128
-0.061485 0.065952 0.022527 136 139 146
0.008994 -0.010175 0.057427 118 120 119
0.037967 0.039174 -0.091373 188 158 114
-0.051704 -0.023765 0.049227 119 121 120
0.016041 -0.073990 0.036527 165 178 186
-0.024441 -0.066642 0.033327 163 177 188
-0.101471 -0.046942 0.029927 146 158 170
0.163531 -0.069189 0.027427 97 97 95
-0.086479 -0.044868 0.029427 146 158 170
-0.036663 0.019704 0.058527 115 117 114
-0.018158 -0.045129 0.035727 156 168 180
0.017001 0.071423 0.007327 216 220 228
-0.098994 0.090111 -0.015373 96 100 103
0.085923 0.025643 -0.066873 168 134 86
-0.011582 0.083439 -0.013273 187 194 202
-0.019416 -0.046603 0.035127 156 168 180
0.000222 0.006372 -0.138573 103 102 108
-0.147723 -0.042677 -0.000973 53 54 59
-0.091515 0.080533 -0.006573 94 98 99
0.040120 0.076976 -0.018973 172 182 184
0.071250 -0.098487 0.043227 171 180 187
0.161126 0.012338 0.007227 60 60 58
0.114994 -0.083806 0.048627 145 150 154
0.118492 0.005894 0.036427 72 71 69
-0.006186 -0.088210 0.034527 171 183 195
-0.115821 -0.062637 0.006927 97 99 98
0.072033 -0.067155 0.046127 157 165 172
0.000046 0.006280 -0.138573 50 51 56
0.165861 -0.023725 0.008727 85 84 80
0.036300 0.035074 0.046527 47 53 54
-0.023822 -0.036191 0.048927 123 125 124
-0.115011 0.019499 0.023727 18 17 22
0.164802 -0.075512 0.024927 97 97 95
0.038048 0.043854 -0.047073 90 90 88
-0.079291 0.070260 0.016627 105 105 109
-0.130910 0.073971 -0.008573 43 44 48
-0.042201 -0.024935 0.049827 120 122 121
0.157309 -0.081127 0.031627 100 99 97
-0.084075 0.058208 0.032327 109 113 117
0.065995 0.032556 -0.078273 175 137 88
0.102298 -0.047321 0.057027 96 100 99
-0.011329 -0.041817 0.048627 107 111 113
0.051979 0.035853 -0.087473 175 141 94
0.160584 -0.035757 0.031327 89 89 87
0.117930 -0.044406 0.055827 94 95 92
0.094422 -0.009778 0.036827 73 73 73
0.048428 0.062358 -0.028073 161 160 165
-0.117818 0.014655 0.019627 11 10 13
-0.117935 -0.010260 0.008527 6 7 11
-0.090690 0.024297 0.051627 98 100 99
0.138902 -0.108335 0.041327 107 106 102
0.071126 0.028071 -0.069973 183 146 94
-0.108967 0.088569 -0.016273 88 92 95
-0.094170 -0.090845 0.027227 155 166 178
0.037453 0.066389 0.015027 108 109 112
-0.041226 0.079302 -0.006073 174 179 182
0.111114 -0.103080 0.045727 145 150 153
0.032480 0.036430 -0.049473 10 11 11
0.000044 0.006303 -0.138573 51 52 57
-0.137199 -0.013479 -0.002073 48 49 53
0.061245 0.086567 -0.018573 141 141 146
0.000209 0.006354 -0.138573 157 158 161
0.105442 -0.070325 0.048727 151 158 164
-0.128961 0.057836 0.037727 155 158 173
0.037864 0.051086 -0.040773 174 180 180
0.085505 -0.048963 0.048727 142 151 156
0.149525 -0.042387 0.034227 92 92 90
0.030955 0.019564 0.046127 62 64 63
-0.110630 -0.048180 0.025927 139 154 163
-0.070285 -0.014739 0.048327 113 115 114
0.000045 0.006369 -0.138573 39 40 45
-0.122132 -0.052922 0.007527 93 93 91
-0.033210 0.088021 -0.017773 178 185 196
-0.095459 0.006936 0.049627 102 104 103
-0.001132 0.081312 -0.009973 194 202 204
0.044523 0.076365 -0.016873 179 181 186
-0.102614 -0.040298 0.030227 145 157 169
0.154066 0.003165 0.008427 58 58 59
-0.076347 0.086923 -0.014873 119 126 125
0.046864 0.088210 -0.019173 169 173 178
-0.005839 0.077089 -0.003073 182 187 190
0.060007 0.032555 -0.077473 181 144 91
-0.108732 0.072355 0.006327 87 91 94
0.182932 -0.090400 0.009627 99 98 96
0.004028 -0.080613 0.035127 169 182 191
-0.113409 -0.072876 0.004927 97 99 98
0.060945 0.034493 -0.083673 178 141 91
0.080915 0.027166 -0.069073 170 137 86
0.060330 0.022680 -0.063573 208 172 110
-0.072594 0.020023 0.052527 102 104 103
-0.142891 -0.012046 -0.003073 51 52 57
0.036532 0.039778 -0.048673 64 61 63
-0.131576 0.050308 0.003627 50 51 55
-0.127089 0.049511 0.039327 80 81 94
-0.107228 -0.047576 0.027927 146 158 170
0.042529 0.037758 -0.090373 185 152 108
-0.131019 0.081104 -0.014773 38 39 44
0.133554 -0.070564 0.046727 100 99 97
0.148185 -0.006698 0.006227 11 10 15
0.143734 -0.003629 0.005627 11 10 15
-0.113388 -0.044894 0.012527 101 103 102
0.031360 -0.017077 0.052927 109 111 110
0.001125 0.052100 0.048527 155 160 162
-0.125070 0.041446 0.026827 31 32 37
0.081827 0.020498 -0.046173 211 173 107
0.128023 -0.030401 0.060027 91 91 89
0.050313 0.035240 -0.086473 178 141 89
-0.056035 -0.057133 0.035027 157 171 182
-0.071639 -0.054273 0.029827 152 164 176
-0.030748 0.080853 -0.007773 179 184 188
-0.121791 -0.080198 0.002627 97 97 95
-0.022685 0.036000 0.067627 31 31 29
-0.008915 0.066036 0.024427 192 197 200
0.000191 0.006323 -0.138573 20 20 26
-0.114868 -0.020201 0.007827 100 98 107
0.032243 -0.065249 0.039627 162 172 181
0.040093 0.055561 0.024627 52 52 52
0.126949 0.004335 0.004627 11 10 15
-0.049121 -0.095425 0.033927 169 183 194
0.025655 -0.017918 0.053827 109 109 113
-0.016618 -0.083411 0.033527 171 184 193
0.047519 0.034547 -0.083973 195 158 103
-0.011691 -0.041486 0.048727 107 115 115
0.174292 -0.058507 0.016227 96 95 93
0.028857 0.024326 -0.059473 88 76 61
0.130965 -0.038015 0.050627 79 78 76
0.138373 -0.057771 0.042427 91 90 88
0.055743 0.032799 -0.079773 184 147 92
-0.042576 0.079278 -0.006573 175 179 184
-0.005124 0.067370 0.022227 195 208 199
-0.031798 -0.028498 0.049727 123 125 124
-0.049128 0.063526 0.025227 151 156 159
0.144415 0.020897 -0.012273 172 143 93
0.000044 0.006314 -0.138573 47 48 53
-0.104240 0.077871 -0.002073 90 91 95
-0.136247 0.005195 -0.000673 45 49 54
0.108131 -0.088077 0.047227 153 160 166
-0.041808 0.031860 0.059827 106 108 107
-0.112365 0.089904 -0.017373 82 83 87
0.000257 0.006322 -0.138573 203 167 105
-0.024913 -0.053590 0.034327 157 171 182
0.162291 -0.088267 0.027127 100 100 98
-0.130305 0.075381 -0.009173 42 43 47
-0.060302 0.078764 -0.005673 140 144 145
-0.113049 0.086598 -0.015373 82 83 87
-0.068832 0.046003 0.055227 96 94 97
0.151838 -0.035550 0.033127 88 88 86
0.000042 0.006288 -0.138573 48 49 54
-0.043449 0.090376 -0.018673 158 163 167
-0.140988 0.041513 -0.002173 47 48 52
0.028294 -0.075105 0.038227 167 177 186
-0.025523 -0.098398 0.031827 174 186 200
-0.127098 0.065607 0.009427 18 16 22
-0.120193 0.085985 -0.018073 67 67 69
0.082183 -0.008584 0.030827 21 22 24
0.010564 0.003214 0.058927 113 115 114
0.054279 -0.013367 0.033227 28 29 33
0.153821 -0.078287 0.032427 99 98 96
-0.011544 0.015943 0.058227 115 116 118
0.038378 0.038545 -0.090973 185 151 105
-0.108897 0.083821 -0.011473 81 82 84
-0.051457 0.087589 -0.018073 143 148 151
-0.048803 -0.064433 0.035127 159 173 184
-0.083824 -0.045764 0.029227 146 158 170
-0.129852 -0.008554 0.002927 43 44 48
-0.023033 0.006219 0.054227 118 120 119
-0.113804 0.058554 0.023327 80 83 89
0.031506 0.021138 0.031927 61 61 65
0.179106 -0.040061 0.009027 89 88 86
-0.115851 0.010970 0.039727 78 80 79
0.166267 -0.071345 0.022727 100 100 98
-0.060283 0.064083 0.025927 145 146 148
0.111190 -0.095737 0.047027 152 157 161
0.000048 0.006283 -0.138573 50 51 56
0.033336 -0.085188 0.038227 168 178 187
-0.126884 -0.074876 0.004127 96 96 94
0.173523 0.003270 0.003527 69 69 69
0.169365 -0.029812 0.013127 89 88 86
0.150015 0.018397 -0.010773 157 131 84
0.172343 -0.042352 0.016327 92 91 89
-0.116790 0.084091 -0.013373 77 78 79
0.072009 0.027471 -0.069373 181 144 91
-0.073638 0.063245 0.027127 114 120 120
0.042670 0.036325 -0.088473 184 147 95
0.022145 -0.067711 0.037427 161 171 180
-0.018244 -0.080090 0.033427 171 183 195
-0.109326 -0.086101 0.021727 145 157 169
-0.010137 -0.011253 0.052927 122 124 123
0.058969 0.037283 -0.089673 166 135 91
0.031386 0.022275 -0.060673 219 188 123
0.140365 0.014397 0.004427 10 9 14
0.034218 0.034560 -0.082073 80 65 51
0.137644 -0.056878 0.042827 90 89 87
0.018568 -0.018591 0.056227 117 119 118
0.163235 -0.006546 0.007627 75 75 73
0.159522 -0.066074 0.031227 98 98 96
0.068873 -0.101467 0.042427 170 179 186
-0.026175 -0.041282 0.047927 113 121 124
-0.051648 -0.099478 0.032527 168 182 189
0.126192 -0.111314 0.042227 112 111 109
-0.051769 0.012424 0.053427 113 115 114
0.102403 -0.052996 0.053727 134 141 149
-0.040687 0.044288 0.061727 98 103 100
0.000246 0.006285 -0.138573 21 22 23
0.050049 0.085249 -0.016373 173 178 182
-0.125564 0.074572 -0.003973 21 19 20
-0.121128 -0.033019 0.000027 19 17 22
0.039730 0.035506 -0.086173 193 156 104
-0.118420 0.003340 0.013827 8 7 12
0.148256 -0.018501 0.006027 13 12 17
-0.013533 0.004750 0.054627 120 122 121
-0.029305 0.040975 0.064627 98 102 103
0.000211 0.006352 -0.138573 152 154 153
0.000046 0.006363 -0.138573 39 40 45
0.004875 0.090236 -0.018873 185 193 194
-0.042840 0.077704 -0.003373 176 180 183
0.009685 -0.074379 0.035927 165 178 187
0.070225 0.022957 -0.064873 195 159 97
-0.074690 0.078034 0.003927 107 111 109
-0.074036 -0.004821 0.048827 106 108 107
0.041711 0.036973 -0.089273 188 151 101
-0.136420 -0.011663 -0.002073 48 49 53
0.000190 0.006332 -0.138573 26 27 29
0.151000 0.019571 -0.011173 163 133 87
0.155083 -0.060902 0.032027 97 97 95
0.106621 -0.105213 0.044627 140 141 145
0.090254 -0.091980 0.044627 146 154 160
-0.148877 -0.044545 -0.000873 50 51 56
0.025379 0.083033 -0.016573 199 207 213
0.055483 -0.008856 0.033927 14 15 20
-0.130499 0.053524 0.006027 48 49 54
0.008694 -0.069114 0.036027 163 176 185
0.018925 -0.040227 0.052327 120 125 120
0.043713 0.035335 -0.085573 188 151 96
0.035532 0.045719 -0.046373 99 99 103
-0.090551 -0.068918 0.027527 151 165 176
0.000047 0.006305 -0.138573 49 50 55
-0.061550 -0.059952 0.032927 156 170 183
0.028240 0.073341 -0.000173 206 208 213
-0.128586 0.068513 -0.002673 45 46 48
-0.144478 -0.061986 -0.001073 51 53 57
-0.026526 -0.093656 0.032027 175 187 199
-0.084411 -0.046371 0.029127 145 159 170
0.026934 0.083351 -0.026573 74 77 81
-0.031171 0.071602 0.012227 178 183 190
0.069859 0.033183 -0.080873 172 135 91
0.010529 -0.046778 0.039027 152 164 170
0.000048 0.006375 -0.138573 37 37 45
0.127866 0.014581 0.002927 10 9 14
0.049158 0.033458 -0.082573 189 150 95
0.001402 -0.045630 0.037427 158 169 175
0.066225 -0.022958 0.032027 38 39 43
-0.079984 0.049514 0.052827 89 90 92
-0.059529 0.073192 0.010027 133 138 136
0.052744 -0.005954 0.034627 13 14 19
0.037916 0.064610 0.015727 102 103 105
-0.104678 0.075909 0.000227 90 93 96
0.028808 0.079015 -0.010573 206 210 219
-0.062151 0.087102 -0.017773 144 147 148
0.000046 0.006278 -0.138573 51 52 57
0.044661 -0.079909 0.040527 168 178 187
0.003570 0.054322 0.046127 159 160 156
0.040117 -0.061561 0.041527 157 168 176
-0.132141 -0.059041 0.006927 90 90 88
-0.058244 -0.053070 0.034727 156 170 183
0.066343 -0.060763 0.045927 151 162 168
0.080852 -0.086060 0.044627 160 169 173
0.164309 -0.028557 0.016527 87 87 85
0.076092 0.026603 -0.068273 178 143 89
0.156581 0.006798 0.008427 67 67 68
0.010572 0.077590 -0.004073 216 221 226
-0.006212 -0.066126 0.035227 162 174 186
0.028430 -0.053587 0.041227 151 161 170
-0.007827 -0.089471 0.034427 172 184 196
-0.119228 -0.065235 0.006027 97 97 95
-0.039634 0.079696 -0.007173 177 182 186
-0.103393 -0.041817 0.029927 145 157 169
0.027850 0.078528 -0.029673 40 41 47
-0.138954 -0.049692 0.001527 51 50 55
0.167611 0.011690 -0.002173 32 30 31
-0.051122 0.074236 0.006227 160 164 165
0.015637 -0.019384 0.056627 117 120 119
0.034690 0.035221 -0.082873 77 61 40
0.002268 -0.017394 0.055527 121 123 122
0.096391 -0.056092 0.049827 146 155 162
-0.050550 -0.082842 0.034327 164 178 189
0.028468 0.023553 -0.058873 92 82 73
0.001974 0.041241 0.063927 133 138 137
0.000048 0.006342 -0.138573 43 44 49
-0.037861 -0.069300 0.033427 165 179 190
0.063691 -0.111165 0.040427 179 186 192
