ply
format ascii 1.0
element vertex 1200
property float x
property float y
property float z
property uchar red
property uchar green
property uchar blue
end_header
-0.026836 -0.033852 -0.023066 6 7 9
-0.045425 0.007061 -0.048466 129 67 26
0.032793 0.062852 0.087734 162 162 160
-0.052737 0.020893 -0.051566 155 157 156
-0.058284 0.014287 -0.056966 146 119 74
0.007062 0.076707 0.055934 138 137 133
-0.081489 -0.053197 0.020934 161 165 164
0.042053 0.066098 0.084534 155 155 153
-0.050387 0.009946 -0.052166 111 59 9
-0.090001 -0.043175 0.016834 156 160 159
-0.113403 -0.040736 0.001734 122 133 127
0.142329 -0.093460 0.090634 126 145 143
-0.037566 0.030334 -0.024666 177 177 179
-0.026642 0.003739 -0.086866 126 134 123
-0.049550 0.007521 -0.053666 120 67 25
0.055815 0.069097 0.083034 159 160 155
0.128421 -0.066891 0.113734 118 130 128
-0.053849 -0.005836 -0.044466 254 208 221
-0.026834 0.003658 -0.086866 47 41 29
-0.045178 0.019965 -0.042666 170 170 168
-0.050289 0.015417 -0.052366 164 164 164
0.114093 -0.062975 0.129634 132 143 139
-0.069675 -0.010900 -0.041166 52 41 39
-0.049756 0.013640 -0.053366 154 127 98
0.124578 0.029302 0.154734 31 29 30
-0.026637 0.003696 -0.086866 43 54 50
0.143500 -0.096724 0.087834 126 144 144
0.127137 0.087590 0.068234 122 135 126
0.035367 0.082868 0.054334 137 144 137
-0.052198 0.020703 -0.051066 159 161 160
0.127777 0.083511 0.075534 128 139 131
-0.009034 -0.025892 -0.022066 19 45 44
-0.017989 0.020425 -0.005266 182 181 187
-0.070404 -0.011716 -0.041866 125 110 105
0.149420 0.002190 0.125234 24 26 23
-0.051383 0.000202 -0.058866 149 134 93
0.142036 0.055863 0.124734 98 100 97
-0.012418 0.003241 -0.010466 178 179 184
0.092071 -0.123358 0.127634 144 155 157
0.062269 0.083694 0.059834 141 146 140
-0.093988 -0.042521 0.013434 157 166 165
0.046258 0.067939 0.082934 156 156 154
-0.021191 -0.002256 -0.023466 203 154 77
-0.055129 0.015485 -0.058066 161 142 102
-0.044400 0.026851 -0.036566 173 173 173
0.104112 0.080373 0.074934 140 145 138
-0.034851 0.001038 -0.028466 186 160 135
0.079999 0.081251 0.069534 159 164 157
-0.029006 0.001031 -0.026866 178 147 126
-0.014583 -0.004496 -0.026966 192 158 86
0.143173 0.030758 0.140234 73 77 78
0.105237 -0.043679 0.144534 133 143 145
0.048261 0.047500 0.109134 158 158 158
0.112629 -0.082361 0.122434 129 139 138
-0.055493 0.010058 -0.058366 93 51 11
0.117967 0.081875 0.074734 128 140 130
-0.062736 -0.004960 -0.051966 244 198 208
-0.052044 0.018012 -0.052966 159 161 160
-0.052028 0.000272 -0.061866 154 152 127
-0.035876 -0.025548 -0.028066 45 46 64
-0.036422 0.020938 -0.030166 176 175 180
-0.026630 0.003668 -0.086866 71 80 77
-0.003207 0.080625 0.047434 145 144 142
0.123800 0.006671 0.148134 114 123 122
-0.115737 -0.040260 -0.000166 167 173 171
0.070138 0.084561 0.060534 164 169 162
-0.102969 -0.040290 0.004034 164 165 159
-0.026682 0.003672 -0.086866 133 138 142
-0.034310 0.029854 -0.020866 179 179 181
-0.048129 0.016635 -0.048766 168 168 168
-0.026693 0.003701 -0.086866 200 204 213
-0.031649 0.002230 -0.029866 192 166 143
-0.027209 0.005902 -0.028866 182 185 190
-0.026703 0.003721 -0.086866 176 175 180
-0.038869 0.000424 -0.045766 145 83 36
-0.032351 0.009918 -0.032766 180 179 187
0.101555 -0.103469 0.124634 127 139 139
0.047828 0.084819 0.055034 151 156 150
-0.033613 0.005753 -0.035766 210 185 165
0.076234 0.065648 0.091934 150 152 147
-0.052062 0.015632 -0.054566 156 156 148
0.152091 -0.077453 0.087234 122 137 140
-0.048480 -0.001731 -0.052466 245 249 248
-0.093890 -0.050394 0.006834 162 171 170
-0.000266 -0.026722 -0.014866 21 56 52
-0.045673 0.014726 -0.046866 172 172 174
-0.016341 0.014620 -0.007066 182 182 190
-0.041610 0.020265 -0.037566 173 172 177
-0.026704 0.003643 -0.086866 157 166 165
0.125109 -0.040476 0.127734 127 136 133
0.166147 -0.013589 0.101734 56 58 55
-0.004042 -0.020515 -0.017466 21 50 48
-0.057375 -0.005703 -0.045866 253 210 220
-0.026703 0.003724 -0.086866 163 158 154
-0.030855 -0.021734 -0.027766 150 155 175
-0.054129 -0.007199 -0.044966 244 150 166
-0.036849 -0.013940 -0.032566 109 114 134
-0.048450 -0.014672 -0.006666 15 10 7
0.113737 -0.112918 0.110734 139 154 151
0.133025 -0.061805 0.112334 127 139 137
-0.030461 0.006538 -0.032566 182 180 191
-0.021971 0.009736 -0.018666 186 185 193
-0.033741 -0.030853 -0.029666 9 15 15
0.150415 0.025416 0.131634 75 81 81
0.097620 -0.021169 0.160734 126 134 137
-0.019183 -0.009499 -0.026366 186 129 42
0.095768 -0.104497 0.130434 128 137 142
-0.032853 0.041145 -0.012066 175 175 177
-0.026681 0.003679 -0.086866 133 141 144
-0.053289 -0.006816 -0.044466 241 148 166
-0.064485 -0.018001 -0.035266 220 102 54
-0.016456 0.000859 -0.017866 142 137 134
-0.057670 -0.001786 -0.056566 217 228 224
0.111695 -0.060407 0.132234 131 143 143
-0.002890 -0.019680 -0.016766 21 50 48
0.044404 0.080514 0.060534 146 148 143
-0.079368 -0.053963 0.021934 161 167 165
0.043893 0.004608 0.096134 201 205 214
-0.047582 0.016873 -0.048066 169 169 169
-0.052607 0.000438 -0.061866 151 150 119
-0.045491 0.010469 -0.048066 165 126 97
-0.026632 0.003650 -0.086866 80 94 94
-0.036376 0.011381 -0.037166 176 175 181
-0.021926 0.002631 -0.023966 185 184 189
-0.039390 0.003499 -0.034166 195 167 143
-0.061643 -0.004883 -0.050666 248 201 209
0.077188 0.063855 0.096034 149 152 145
-0.044614 0.030895 -0.033966 174 174 176
-0.052077 0.019611 -0.051566 158 160 157
-0.041026 0.007381 -0.041966 170 126 91
-0.026632 0.003729 -0.086866 18 18 18
-0.102431 -0.047284 -0.002266 158 168 167
-0.049948 0.008119 -0.053566 115 62 18
0.123371 0.078347 0.082434 134 147 137
0.093306 -0.071186 0.145534 139 146 152
-0.025375 0.019392 -0.016366 184 183 189
-0.026684 0.003705 -0.086866 198 203 207
-0.044528 0.009397 -0.046266 166 125 95
0.055199 0.055429 0.104234 163 162 158
-0.053439 0.004835 -0.061466 64 38 11
-0.048664 0.018291 -0.048266 166 166 166
0.136241 0.033926 0.099734 88 93 86
0.148464 0.023508 0.096234 119 125 115
0.006895 -0.017797 -0.011766 22 52 50
-0.054457 0.009116 -0.058366 112 70 32
-0.050869 0.017127 -0.051966 161 163 162
-0.052168 -0.000588 -0.061166 223 229 219
0.151454 -0.073338 0.089634 111 122 124
0.007655 -0.018160 -0.011366 21 49 50
-0.018810 -0.010450 -0.026566 158 96 9
-0.059968 -0.018392 -0.012266 8 6 7
0.095179 0.060436 0.103434 139 144 137
-0.048593 0.023783 -0.044166 164 166 165
-0.051466 0.011316 -0.052366 118 60 14
-0.042712 0.010419 -0.046566 167 135 112
-0.105198 -0.046107 -0.003766 121 132 134
0.097497 0.059430 0.105734 137 140 133
-0.042633 0.032319 -0.030466 175 175 175
-0.038185 0.038803 -0.020266 174 174 176
0.066682 0.084555 0.059934 162 167 160
-0.020375 -0.017896 -0.022966 217 181 107
-0.026903 -0.032574 -0.024066 16 35 33
-0.026685 0.003720 -0.086866 160 164 165
-0.070025 -0.013879 -0.040466 208 103 46
-0.112138 -0.044338 0.001734 89 86 71
-0.041495 0.008207 -0.043066 166 127 96
-0.019521 -0.017719 -0.022866 230 199 152
-0.026665 0.003728 -0.086866 132 137 130
-0.007527 -0.020333 -0.019266 21 45 47
0.097461 -0.088389 0.134734 128 137 136
-0.026709 0.003740 -0.086866 170 170 170
-0.026689 0.003695 -0.086866 121 126 130
-0.058211 -0.003747 -0.050766 248 197 206
-0.048455 -0.000588 -0.055566 168 148 113
-0.046606 0.004480 -0.052366 126 67 25
-0.012547 -0.020980 -0.025266 28 62 63
-0.052708 0.010202 -0.054866 75 30 1
-0.016248 0.002271 -0.016466 181 181 189
-0.081845 -0.022090 -0.028866 46 39 29
-0.009079 -0.000957 -0.009066 152 148 149
-0.045019 0.014974 -0.045966 171 172 174
-0.028997 0.032344 -0.011866 179 178 183
-0.050583 0.019234 -0.049966 163 163 163
-0.026703 0.003723 -0.086866 157 150 134
-0.046610 0.002815 -0.055266 92 43 10
0.156968 0.078621 0.091034 77 82 76
-0.053284 0.024421 -0.049766 150 159 156
-0.026626 0.003709 -0.086866 84 94 93
0.078363 0.081408 0.068134 160 165 159
-0.049748 0.014727 -0.052266 166 166 166
-0.017854 0.017479 -0.007266 180 180 188
0.122073 -0.028491 0.134434 123 132 131
0.096564 -0.046534 0.150834 134 142 145
-0.013943 0.025319 0.004434 177 177 185
-0.047820 0.016450 -0.048566 170 170 172
-0.044836 0.009826 -0.046966 171 130 100
0.144186 -0.087421 0.089134 27 31 32
0.013806 0.071217 0.066634 144 144 142
-0.024175 0.032260 -0.005266 180 181 185
-0.029827 0.012405 -0.027566 183 182 190
-0.088700 -0.050564 0.013434 163 169 167
-0.043748 0.015308 -0.044066 174 174 176
0.127828 -0.097998 0.102734 42 48 46
-0.047164 0.001664 -0.054666 180 160 135
-0.014413 0.006333 -0.010866 178 178 186
-0.040519 0.014514 -0.040166 175 174 180
-0.054896 -0.015770 -0.015566 20 11 14
-0.027800 0.013470 -0.024066 181 181 189
-0.054223 0.007286 -0.059866 70 37 2
0.109029 0.005193 0.159734 120 129 134
-0.038570 0.000250 -0.028166 163 131 108
-0.052866 0.020584 -0.051966 153 157 156
-0.051121 0.009659 -0.053566 119 66 22
-0.038832 -0.022713 -0.030266 192 200 219
0.128060 -0.052458 0.120634 127 137 136
-0.026786 0.003675 -0.086866 121 112 45
-0.024923 -0.020391 -0.027066 41 44 63
-0.042638 0.008412 -0.044266 173 130 98
-0.001915 -0.012034 -0.014366 23 49 46
-0.022405 -0.012609 -0.028566 178 116 13
0.070154 0.086431 0.058134 163 168 164
-0.042401 -0.004611 -0.040066 161 77 31
-0.064944 -0.011692 -0.035866 170 44 6
-0.043226 0.012649 -0.045266 174 173 178
-0.051967 0.008868 -0.055266 121 69 30
0.148457 0.076503 0.093534 120 128 117
-0.026681 0.003705 -0.086866 196 204 207
-0.046625 0.001411 -0.052466 192 144 78
-0.026819 0.003657 -0.086866 59 43 30
-0.026684 0.003666 -0.086866 140 148 150
0.001828 -0.025180 -0.014166 24 54 52
-0.049243 0.010463 -0.049966 123 65 19
0.180303 0.037579 0.111534 36 36 34
0.115337 -0.039893 0.136834 126 136 137
0.002226 -0.008866 -0.010366 15 40 36
0.081115 0.085927 0.061834 151 158 150
-0.021998 -0.021439 -0.023066 13 17 18
0.142793 -0.024724 0.119434 116 125 124
-0.048100 0.011316 -0.049766 166 127 94
0.141114 0.008195 0.134234 97 103 101
-0.053337 0.006140 -0.059366 46 8 0
0.117318 0.037212 0.150634 117 118 110
0.099891 0.076083 0.080634 154 157 148
-0.026681 0.003683 -0.086866 132 140 143
-0.030779 -0.020241 -0.028866 56 62 88
-0.028228 -0.004172 -0.016966 105 80 60
-0.026716 0.003743 -0.086866 171 172 176
0.044411 0.078508 0.064334 145 147 142
-0.034802 0.025790 -0.024366 179 178 183
-0.064777 -0.015498 -0.038166 204 64 31
-0.013443 0.018325 -0.000166 175 175 183
-0.039781 -0.009184 -0.036466 175 163 175
-0.047832 -0.012530 -0.031466 179 166 173
0.106265 -0.111425 0.119334 133 145 145
0.001238 0.004388 0.009034 170 171 173
-0.049256 0.001412 -0.057366 172 160 134
-0.044508 -0.020257 -0.031766 211 215 227
-0.047347 -0.016092 -0.029066 130 136 150
-0.054233 0.014300 -0.055966 143 114 80
-0.026669 0.003733 -0.086866 142 147 141
-0.047226 0.002630 -0.055966 174 115 47
0.103098 -0.092704 0.129134 123 133 134
-0.057581 -0.003568 -0.050666 247 196 203
-0.037875 0.031517 -0.024466 176 176 178
-0.026801 0.003657 -0.086866 163 165 160
-0.009903 -0.020114 -0.022666 14 43 41
0.091073 -0.103373 0.135534 127 135 137
-0.047739 0.015587 -0.049166 169 169 169
-0.046018 0.011969 -0.049766 164 133 105
0.148656 -0.034677 0.085734 40 31 34
0.125611 -0.088616 0.108434 126 136 135
-0.043371 0.008043 -0.044666 136 72 24
-0.017582 -0.010485 -0.028866 195 144 37
-0.026645 0.003738 -0.086866 128 136 125
-0.027439 -0.023869 -0.025466 101 108 124
-0.039813 -0.029601 -0.028666 14 30 29
0.128300 0.006121 0.144834 113 123 122
-0.018425 -0.011097 -0.028966 200 167 96
-0.045104 -0.029008 -0.025066 10 19 18
-0.022942 -0.024428 -0.025866 34 55 58
0.136398 -0.076788 0.101334 122 134 132
-0.046568 -0.018716 -0.029666 155 153 166
-0.046547 -0.023128 -0.027266 75 81 103
-0.041685 0.002109 -0.049266 129 68 13
0.134229 0.088111 0.069834 126 139 129
-0.050306 0.020749 -0.048566 164 164 164
-0.026719 0.003737 -0.086866 176 175 181
-0.043872 0.010625 -0.047666 168 134 109
-0.026637 0.003729 -0.086866 22 22 20
-0.025009 0.003410 -0.027766 186 186 194
-0.068481 -0.009414 -0.037066 78 30 8
0.135619 0.039798 0.100434 141 147 135
0.102178 -0.099228 0.126434 82 91 88
-0.080156 -0.058068 0.018534 160 169 166
0.119808 0.077031 0.084134 141 148 140
0.124406 -0.106812 0.103934 137 151 152
-0.040778 0.000512 -0.048466 119 51 4
0.141798 -0.067413 0.101134 97 107 106
-0.042801 -0.016454 -0.034566 125 120 126
-0.050136 0.002523 -0.059066 165 163 142
-0.026816 0.003677 -0.086866 124 106 102
-0.053394 0.020536 -0.052766 150 154 153
-0.034099 0.008036 -0.036666 181 180 188
-0.011746 -0.014372 -0.024466 29 45 42
-0.053481 -0.023179 -0.029266 120 126 138
-0.020000 0.008280 -0.016866 183 183 191
-0.026534 -0.004914 -0.015266 102 76 59
-0.093257 -0.041823 0.014334 159 165 165
0.140002 0.038115 0.142734 23 23 21
0.124301 0.042073 0.145334 112 113 107
0.037865 0.059467 0.096134 154 158 157
-0.036991 0.023433 -0.029066 176 175 180
-0.033315 -0.012145 -0.032166 94 93 99
-0.049785 0.003402 -0.058166 121 75 23
-0.024721 0.019580 -0.015166 180 183 188
0.073295 0.085053 0.061134 160 165 159
-0.054878 0.010201 -0.057866 96 53 11
-0.048053 -0.028200 -0.023566 175 176 194
0.108079 -0.099321 0.120034 133 143 144
0.132565 -0.001340 0.137234 107 116 115
-0.050177 0.018503 -0.049966 163 165 164
0.111525 -0.010293 0.151434 166 170 171
0.060154 -0.123588 0.140234 159 165 163
-0.026630 0.003730 -0.086866 20 22 21
-0.013571 -0.023544 -0.024666 24 55 57
0.064951 0.083151 0.061834 159 164 160
0.100413 -0.075297 0.136934 138 143 146
0.130809 0.030682 0.150534 97 106 105
0.118813 -0.011249 0.145934 122 130 132
-0.022820 -0.008418 -0.028066 165 115 18
-0.098655 -0.042028 0.008934 160 166 166
-0.026690 0.003683 -0.086866 41 55 58
0.064853 0.071318 0.081134 154 157 150
-0.052879 -0.019784 -0.024666 120 123 138
-0.022863 -0.023376 -0.025666 59 66 72
-0.026650 0.003704 -0.086866 17 21 22
0.001983 -0.016799 -0.013566 22 48 49
-0.026674 0.003717 -0.086866 57 59 58
-0.052282 0.013238 -0.053866 153 119 82
-0.052113 0.010669 -0.053466 105 53 6
-0.032790 0.002941 -0.031466 189 161 140
-0.054306 0.007672 -0.059666 104 65 26
0.150172 -0.053975 0.099734 94 99 102
0.053741 0.066004 0.087434 158 158 156
-0.048460 0.028010 -0.040966 168 168 168
-0.049373 0.001944 -0.055866 223 214 199
0.085628 0.072591 0.083834 146 153 146
-0.104799 -0.041722 -0.000466 123 129 129
0.109214 -0.070513 0.129434 134 144 143
-0.114225 -0.044726 -0.001366 154 165 161
-0.026681 0.003722 -0.086866 119 124 120
0.005418 0.020120 0.025934 176 177 181
-0.044243 0.013993 -0.045566 174 174 176
-0.026677 0.003721 -0.086866 126 130 129
-0.034156 0.000751 -0.027866 189 163 138
-0.035100 0.020411 -0.028966 177 176 182
-0.062833 -0.017397 -0.034366 227 132 68
0.035144 0.043024 0.112634 158 154 151
0.061227 0.076299 0.072234 153 160 153
0.118531 -0.065981 0.124334 130 140 141
-0.070057 -0.009882 -0.040866 52 35 25
-0.051986 0.009111 -0.055066 71 31 6
-0.020176 -0.022554 -0.025066 31 57 58
-0.050178 0.005718 -0.055566 110 61 21
-0.048025 0.008949 -0.049466 70 18 0
0.104433 -0.100126 0.120734 142 152 151
-0.014036 -0.032288 -0.025266 18 41 35
-0.003474 0.001544 0.000434 172 173 177
-0.052008 0.000051 -0.061666 207 205 190
0.149636 -0.045242 0.104034 92 98 98
-0.059152 -0.017819 -0.028166 81 105 115
-0.051011 0.015090 -0.053866 138 135 116
-0.017450 0.007248 -0.014366 183 183 191
-0.049190 -0.012724 -0.029066 187 175 179
0.095035 -0.109068 0.129134 143 148 154
-0.015843 -0.017698 -0.024366 26 48 45
-0.042811 0.017001 -0.041666 174 174 176
0.097000 0.089140 0.060334 130 139 134
-0.026664 0.003721 -0.086866 35 39 42
-0.047825 -0.001095 -0.054466 175 159 133
0.080157 -0.104728 0.145234 144 154 156
-0.052642 0.008112 -0.056866 77 30 0
-0.038477 -0.027819 -0.025266 6 6 8
-0.002761 -0.025027 -0.017066 19 51 48
-0.026708 0.003732 -0.086866 174 173 178
-0.045655 0.013006 -0.048166 174 174 174
-0.026662 0.003722 -0.086866 90 92 89
-0.054473 0.000732 -0.059766 151 146 91
-0.002176 0.079038 0.050734 126 127 121
0.149906 -0.035353 0.108034 101 107 107
0.148277 -0.034509 0.091134 32 26 30
0.159643 -0.049485 0.090234 80 86 84
-0.002224 -0.023723 -0.017066 21 50 48
0.095103 0.075909 0.078134 155 161 149
-0.046797 -0.013652 -0.031966 91 96 115
-0.036214 -0.028969 -0.028766 16 21 24
-0.044006 0.027162 -0.035766 175 175 175
0.092932 0.075291 0.080934 152 155 146
-0.026636 0.003679 -0.086866 61 57 58
-0.027712 -0.024704 -0.025266 106 112 126
-0.068853 -0.015111 -0.040066 230 117 61
0.120190 -0.021182 0.140934 124 133 132
-0.061518 -0.016819 -0.029166 51 32 26
-0.007520 0.015453 0.004934 174 173 181
0.152814 -0.061172 0.093534 90 94 93
-0.055983 0.015904 -0.059066 154 135 102
-0.054391 0.001543 -0.059066 156 160 135
-0.026736 0.003749 -0.086866 176 176 176
-0.050343 0.000982 -0.058966 168 161 135
-0.027059 0.016876 -0.020466 182 182 190
-0.038902 0.007974 -0.041966 186 155 127
-0.113696 -0.040300 0.002034 125 136 130
-0.026663 0.003734 -0.086866 138 143 136
-0.049104 0.000008 -0.057566 194 192 177
-0.052580 0.007283 -0.057166 48 12 0
-0.051514 0.015383 -0.054066 159 159 157
-0.017521 -0.001674 -0.024566 174 122 38
-0.026716 0.003730 -0.086866 178 179 183
0.123356 -0.098542 0.107734 140 148 150
0.114041 0.087334 0.067134 136 146 137
-0.033505 -0.012565 -0.034866 101 102 107
-0.029396 0.000226 -0.025466 172 142 118
-0.040824 0.002798 -0.046766 133 63 12
-0.038580 -0.012328 -0.032566 57 57 67
-0.052918 0.026051 -0.048066 153 157 156
0.150698 -0.075350 0.090234 118 130 130
-0.033572 0.017547 -0.028966 179 178 186
0.125778 0.066003 0.105134 135 141 127
0.131699 0.089141 0.064934 115 137 125
-0.104989 -0.041153 -0.000466 125 130 133
0.128662 0.058273 0.117234 124 127 120
-0.056274 -0.006489 -0.044466 249 165 180
-0.036304 -0.000468 -0.026166 159 125 100
-0.026684 0.003686 -0.086866 130 138 140
0.030699 0.065224 0.082134 153 154 149
-0.026682 0.003704 -0.086866 196 204 206
0.068421 0.082441 0.064234 160 167 159
-0.053810 0.005755 -0.061166 49 26 10
-0.053590 0.019872 -0.053366 149 153 152
-0.049211 -0.014188 -0.006466 16 11 8
-0.044227 0.032548 -0.032266 174 174 172
-0.080355 -0.054198 0.021034 160 164 163
-0.026634 0.003651 -0.086866 100 110 111
-0.055008 0.012667 -0.055366 84 35 3
-0.094098 -0.042410 0.013434 157 166 165
-0.052395 0.002087 -0.059466 154 155 139
-0.026734 0.003679 -0.086866 77 67 65
0.133533 0.009864 0.142134 108 114 114
0.006193 0.076271 0.056934 141 142 137
0.030397 0.056562 0.098634 159 159 157
0.136355 -0.019665 0.127034 115 125 124
-0.058125 0.013629 -0.056866 100 56 11
-0.026637 0.003695 -0.086866 27 26 24
-0.060697 -0.004249 -0.051366 249 202 210
-0.026724 0.003747 -0.086866 174 173 178
-0.075634 -0.061014 0.022134 164 168 167
0.160081 -0.047163 0.092334 71 80 77
-0.026688 0.003681 -0.086866 11 32 33
-0.039214 0.013927 -0.039066 174 173 179
0.134564 -0.010350 0.131934 113 122 121
-0.003685 -0.023372 -0.017766 20 49 47
-0.056262 0.014062 -0.056366 137 107 71
0.171363 0.049724 0.121134 33 33 31
-0.057834 -0.002033 -0.055766 227 225 226
0.133004 0.041423 0.147634 65 65 63
-0.047833 0.000139 -0.053666 182 171 143
0.094303 -0.116405 0.127834 35 44 43
0.109017 0.071146 0.091934 149 152 141
-0.018598 -0.000203 -0.021666 129 106 90
0.133485 0.060330 0.112634 114 117 110
-0.053602 0.011353 -0.054766 87 35 0
-0.048131 -0.024825 -0.026866 155 154 162
0.143465 -0.004134 0.126234 99 108 105
-0.050075 -0.000252 -0.057066 213 211 190
0.108957 -0.098333 0.120334 125 137 137
-0.026356 0.009656 -0.024966 182 182 190
-0.026724 0.003744 -0.086866 175 174 179
-0.057767 -0.021176 -0.028466 114 162 184
-0.026690 0.003659 -0.086866 143 151 153
0.148668 -0.034415 0.092534 34 25 30
0.145046 -0.096349 0.085534 126 147 148
-0.037814 0.008531 -0.041366 167 135 114
-0.059701 -0.018314 -0.028566 102 131 145
-0.015033 -0.001700 -0.026566 182 136 38
-0.052983 -0.021354 -0.026166 34 40 56
-0.013520 -0.019565 -0.025066 26 65 64
0.153270 -0.027927 0.108434 46 50 49
-0.051799 0.020719 -0.050266 158 160 159
-0.005681 -0.005446 -0.014166 17 36 34
-0.053963 0.016073 -0.056866 131 115 89
-0.039595 0.001377 -0.030466 157 123 98
-0.026662 0.003722 -0.086866 25 25 25
0.079895 -0.100377 0.146334 147 152 156
-0.017947 0.013496 -0.010366 183 184 189
-0.050315 0.008412 -0.053566 117 65 26
0.105801 0.061542 0.106434 134 137 128
-0.023797 0.006084 -0.024066 185 185 193
0.145129 -0.047873 0.106034 113 123 122
-0.109378 -0.039222 0.002434 124 126 123
-0.026731 0.003756 -0.086866 173 173 175
-0.044333 0.011071 -0.048266 170 134 110
0.047932 0.046574 0.108834 158 158 158
-0.026726 0.003740 -0.086866 177 176 181
-0.052232 0.015630 -0.054666 133 126 116
-0.006481 -0.012770 -0.016666 23 47 47
-0.047782 0.003159 -0.056966 118 66 16
-0.026638 0.003693 -0.086866 69 78 77
0.126459 0.077724 0.084434 135 149 136
-0.057954 0.013135 -0.056966 103 62 18
0.040618 0.054459 0.104534 159 157 158
0.092488 -0.106332 0.133634 132 140 143
0.115257 -0.111442 0.110434 141 151 150
0.000146 0.023998 0.022134 178 177 182
-0.026666 0.003721 -0.086866 70 72 69
0.101309 -0.011401 0.161034 123 131 133
-0.057158 0.011901 -0.058066 81 45 11
-0.037769 -0.031814 -0.027966 10 19 16
-0.058167 -0.004073 -0.050166 252 199 209
-0.043811 -0.016956 -0.033566 89 85 99
0.039012 0.056616 0.101734 161 159 160
-0.038883 0.000817 -0.045566 147 82 24
-0.026652 0.003731 -0.086866 125 128 121
-0.045592 0.010263 -0.047766 167 128 99
-0.021371 -0.009454 -0.027766 210 158 49
-0.051590 0.003687 -0.060266 164 153 135
-0.052309 0.005792 -0.059166 98 59 18
-0.038483 -0.009198 -0.037266 64 65 93
0.155405 0.069552 0.105034 68 69 61
-0.048644 -0.000088 -0.056266 172 159 124
-0.011910 -0.015960 -0.024866 19 48 46
-0.026732 0.003749 -0.086866 174 175 177
-0.041023 0.004827 -0.036966 215 188 167
-0.049392 0.016078 -0.050766 167 167 167
0.121620 0.083638 0.072934 134 144 136
-0.070503 -0.009046 -0.038466 68 35 20
-0.043936 -0.021785 -0.030666 187 193 217
0.009710 0.076515 0.057734 140 140 138
-0.014565 -0.030485 -0.023066 13 28 25
0.113675 -0.100312 0.115334 139 151 151
0.117033 0.010728 0.154534 115 123 125
-0.000523 -0.020080 -0.015566 23 52 50
-0.033622 0.020357 -0.026866 180 179 185
-0.050280 0.001898 -0.057866 167 166 148
0.103693 -0.085671 0.129334 130 139 136
-0.029527 -0.031170 -0.025566 19 35 34
-0.026825 0.003657 -0.086866 49 45 36
-0.026640 0.003696 -0.086866 74 76 75
-0.006437 0.079944 0.047534 139 135 132
0.133759 -0.104001 0.093934 132 148 148
-0.046472 0.008359 -0.048566 85 25 0
0.141460 0.010169 0.135334 98 104 104
0.143611 -0.068583 0.098834 113 125 125
-0.044333 0.011113 -0.048266 169 133 109
-0.026268 -0.001098 -0.022166 168 133 111
-0.026716 0.003733 -0.086866 177 177 179
-0.047902 0.024104 -0.042966 167 167 167
-0.052462 0.005822 -0.059166 101 59 17
0.148077 -0.088923 0.087234 124 144 142
-0.022383 0.002435 -0.024566 188 189 191
-0.029797 0.013365 -0.026866 181 180 188
-0.011951 -0.014989 -0.024466 30 46 43
0.061509 0.059791 0.098534 157 162 155
-0.050276 0.005210 -0.056766 117 66 21
-0.051946 0.008628 -0.055466 135 91 54
-0.026684 0.003680 -0.086866 131 141 143
-0.003499 -0.022499 -0.017666 18 47 43
-0.034351 -0.016271 -0.032066 88 89 94
-0.049838 0.002627 -0.058566 134 123 101
0.142855 -0.004653 0.127534 97 106 103
-0.051363 0.003717 -0.060066 153 141 125
-0.051188 0.003420 -0.059966 130 117 98
-0.015601 -0.021695 -0.024166 27 63 63
0.124877 -0.083888 0.110834 136 148 146
-0.039259 -0.000162 -0.048066 146 73 22
-0.043819 0.037025 -0.028966 172 172 172
0.108988 -0.091646 0.122134 148 160 158
-0.026021 0.017342 -0.018866 184 184 192
-0.030139 0.031581 -0.013866 180 179 184
-0.052156 0.012053 -0.052766 114 57 12
-0.026682 0.003668 -0.086866 128 135 141
-0.043327 0.031267 -0.032066 174 174 174
-0.026565 -0.015952 -0.026566 190 148 40
0.036810 0.071449 0.072334 154 154 152
-0.026684 0.003668 -0.086866 138 145 151
0.001424 -0.002393 0.004834 174 175 177
-0.047290 0.004334 -0.054066 121 63 17
0.044302 0.032639 0.102034 159 161 160
0.123701 0.023615 0.153334 105 111 111
-0.031527 -0.010868 -0.032666 224 226 239
-0.018484 -0.021260 -0.020166 23 15 2
0.009240 0.078374 0.054634 144 141 136
-0.026154 -0.026446 -0.025166 8 13 17
-0.048170 0.023125 -0.044166 166 166 166
-0.113684 -0.040772 0.001034 130 141 135
-0.026648 0.003740 -0.086866 137 143 133
-0.053320 -0.007070 -0.044566 249 161 177
0.111681 0.071100 0.092334 144 152 139
-0.046053 0.014124 -0.047966 172 172 174
0.135613 -0.094485 0.096934 67 78 80
-0.063110 -0.018682 -0.034466 189 182 174
-0.051276 0.012075 -0.052366 160 122 86
-0.050859 0.022831 -0.047666 160 162 161
-0.026656 0.003730 -0.086866 101 102 94
0.047895 0.054616 0.104334 162 160 161
-0.020898 -0.006549 -0.024066 142 105 53
-0.043026 0.001346 -0.052066 115 52 9
-0.020420 -0.011309 -0.027366 169 104 14
-0.050799 -0.000986 -0.056566 197 188 121
-0.044250 0.032151 -0.032566 174 174 174
0.146577 -0.036030 0.110334 102 111 110
0.123415 -0.099557 0.106434 61 65 64
-0.064401 -0.013328 -0.036666 199 78 25
0.087740 -0.104389 0.137134 143 150 156
-0.049336 0.024099 -0.044966 163 165 164
0.002547 -0.021585 -0.014166 21 49 50
-0.061752 -0.004071 -0.052666 247 197 208
0.138664 -0.072110 0.102034 102 113 115
-0.042191 0.010967 -0.045466 151 129 115
0.089191 -0.123888 0.129734 141 155 156
-0.031012 -0.017009 -0.029166 12 9 18
0.093301 0.075107 0.080934 153 156 147
-0.044997 0.002737 -0.052466 124 63 18
-0.051480 0.000035 -0.060966 146 146 120
-0.046289 0.016003 -0.046866 169 169 169
-0.055022 0.013641 -0.055466 143 114 82
-0.031717 -0.016996 -0.027566 43 41 46
0.085131 -0.104981 0.136834 58 64 64
-0.070507 -0.011937 -0.042366 208 100 38
0.130316 -0.089953 0.103734 137 149 149
-0.043025 -0.029518 -0.026966 14 33 31
-0.047130 0.020345 -0.044666 166 166 166
-0.076360 -0.054157 0.026534 162 162 160
0.061817 0.083319 0.061234 158 163 159
-0.052717 0.019065 -0.052866 155 159 158
0.090600 0.086734 0.061234 145 152 144
-0.026497 -0.029895 -0.026166 8 14 12
0.101150 -0.055239 0.144034 134 144 146
0.078811 0.068684 0.087434 146 153 145
-0.051659 0.015455 -0.054066 159 160 154
0.060638 0.050081 0.112834 121 125 126
-0.062434 -0.019521 -0.026766 123 152 170
-0.026730 0.003642 -0.086866 6 8 7
0.130474 0.019235 0.146934 104 112 114
0.111936 -0.020800 0.146834 124 133 132
0.061963 0.079532 0.067434 151 157 153
-0.023026 -0.003363 -0.017366 101 74 53
0.115189 -0.034055 0.140134 128 137 136
-0.018916 0.011842 -0.013166 182 182 190
-0.047537 -0.027841 -0.023866 80 84 109
-0.026703 0.003643 -0.086866 158 164 164
0.127824 0.040910 0.146034 22 22 20
-0.052074 0.010502 -0.053566 106 54 7
0.112922 -0.005345 0.152034 132 138 136
-0.027556 -0.017671 -0.026766 32 26 26
-0.052618 0.023331 -0.049666 156 158 157
-0.048125 0.006607 -0.052366 131 73 33
0.138936 -0.005017 0.130734 107 116 115
-0.032229 0.034681 -0.014866 178 177 182
-0.026687 0.003694 -0.086866 123 132 137
0.009372 0.075358 0.058934 142 143 137
0.115506 -0.083377 0.119934 128 140 140
0.148072 -0.069249 0.092934 116 128 128
0.139041 -0.006651 0.129934 105 115 114
-0.022955 0.026143 -0.007866 183 183 191
0.001557 0.013433 0.015534 176 177 181
-0.045272 0.013971 -0.047066 173 173 175
-0.047714 0.018850 -0.046666 167 167 167
0.132024 0.084213 0.076234 132 143 135
0.121493 -0.089645 0.111534 129 141 139
-0.038579 0.003557 -0.034166 191 161 137
0.152440 -0.042237 0.090034 49 40 43
0.131829 -0.047580 0.118434 127 137 136
-0.042495 -0.010541 -0.035566 235 232 243
-0.026753 0.003690 -0.086866 206 197 198
0.148387 0.023053 0.095734 102 107 100
-0.026741 0.003680 -0.086866 74 64 62
0.046184 0.025070 0.095834 160 160 160
0.128868 0.040781 0.146834 25 25 23
0.120777 -0.048233 0.128634 128 138 137
-0.059765 -0.020044 -0.028566 98 139 159
-0.020059 0.014878 -0.012366 181 184 191
-0.038833 0.021934 -0.032766 175 174 179
-0.036233 0.013773 -0.035266 176 175 181
-0.036605 0.022413 -0.029466 177 176 181
-0.049442 0.010430 -0.050366 118 65 15
0.155001 -0.014287 0.111734 95 101 99
-0.051279 -0.003688 -0.046766 252 191 206
-0.016350 0.076939 0.041734 166 164 169
0.151154 0.001310 0.120734 92 96 97
0.140092 -0.098275 0.090534 133 149 149
0.056897 0.016960 0.086834 171 172 174
0.149976 -0.085459 0.083534 120 138 140
-0.055289 0.009310 -0.058966 94 48 14
-0.053637 0.013579 -0.054766 148 113 81
-0.026665 0.003721 -0.086866 73 75 72
-0.040739 0.022506 -0.034966 175 174 179
0.122888 0.025386 0.155434 99 108 107
-0.021662 -0.031356 -0.022366 7 9 6
-0.026727 0.003756 -0.086866 172 172 170
-0.026713 0.003726 -0.086866 180 181 186
0.126201 -0.010786 0.138734 117 126 125
-0.036633 -0.019467 -0.032766 92 98 120
-0.037218 0.033607 -0.022166 176 176 178
-0.049604 0.012128 -0.051666 160 122 86
-0.026780 0.003676 -0.086866 252 204 216
0.053939 0.066434 0.087034 155 155 153
0.149017 -0.038139 0.089134 50 41 44
-0.100895 -0.044190 0.002734 160 169 168
-0.043739 -0.001058 -0.050366 240 225 230
-0.053936 0.007090 -0.059766 92 59 16
-0.071714 -0.014554 -0.040566 168 140 126
-0.038014 0.008291 -0.041766 174 141 122
-0.055489 0.009250 -0.059566 39 7 0
-0.036073 -0.021062 -0.030766 84 96 120
0.146081 0.030190 0.137534 92 96 95
0.136446 -0.075900 0.099734 103 112 109
-0.055587 0.022574 -0.053866 140 146 144
-0.047151 0.004640 -0.053466 161 105 56
-0.026679 0.003674 -0.086866 136 144 146
0.032494 0.068182 0.077834 153 154 149
-0.016795 -0.025833 -0.023866 22 48 49
-0.026686 0.003692 -0.086866 125 130 136
-0.033960 -0.029889 -0.031366 16 30 30
-0.079301 -0.058533 0.020334 165 169 168
0.005582 0.073439 0.060634 140 137 132
-0.101196 -0.045575 0.002034 159 168 167
0.114971 0.004102 0.154634 119 127 129
0.145530 -0.038262 0.109634 104 113 112
-0.067069 -0.014416 -0.039866 207 85 38
-0.047229 -0.023058 -0.027566 206 213 232
-0.035076 -0.026991 -0.026366 31 38 48
0.096974 -0.090092 0.134734 129 138 137
-0.043470 0.024568 -0.036866 173 173 175
-0.078670 -0.056401 0.020734 163 168 164
-0.044213 -0.010280 -0.032866 161 145 145
-0.011341 -0.008068 -0.020966 179 141 44
-0.026711 0.003724 -0.086866 180 179 184
0.107973 -0.079394 0.127834 126 138 136
-0.027032 -0.027662 -0.025966 20 41 42
0.028287 0.064203 0.085034 157 158 152
-0.007781 0.018546 0.006634 174 173 181
-0.051058 -0.000546 -0.056366 185 179 127
0.125475 0.011880 0.149534 110 119 118
0.070841 -0.113633 0.149834 145 155 157
-0.052810 -0.000984 -0.060366 223 229 225
0.066226 0.084235 0.060234 163 168 162
0.000959 -0.019792 -0.014766 20 48 49
-0.036021 0.009567 -0.038166 177 176 181
-0.026674 0.003732 -0.086866 146 148 143
-0.052182 0.006348 -0.058766 102 60 18
0.109284 -0.096299 0.120834 137 145 147
-0.026724 0.003749 -0.086866 174 174 176
0.009270 0.065489 0.069634 158 154 155
-0.052701 0.002814 -0.062066 151 152 136
0.137489 -0.006703 0.131034 109 118 117
0.128428 -0.048329 0.121434 125 140 135
-0.011177 -0.000607 -0.012166 178 177 183
-0.026646 0.003729 -0.086866 67 68 63
-0.036719 0.019004 -0.031966 175 174 179
-0.049154 0.009800 -0.050766 125 67 21
-0.026637 0.003680 -0.086866 84 82 83
0.131666 0.073970 0.093134 133 140 132
-0.026635 0.003729 -0.086866 11 11 11
0.139116 0.006507 0.135134 104 108 109
-0.037928 0.000078 -0.027466 156 126 100
-0.026728 0.003744 -0.086866 176 175 180
-0.046151 0.013721 -0.048366 172 170 171
-0.040847 0.013457 -0.041266 175 174 180
-0.048616 -0.005010 -0.043466 247 183 200
-0.026698 0.003647 -0.086866 158 164 164
0.076434 -0.111239 0.146034 148 158 160
0.136507 -0.019216 0.127234 116 126 125
0.146448 -0.018157 0.117334 99 110 106
-0.042995 0.022228 -0.037966 172 172 174
-0.050139 0.006935 -0.054766 123 70 28
-0.036325 0.014673 -0.034766 176 175 180
-0.026719 0.003745 -0.086866 172 173 177
-0.026691 0.003700 -0.086866 202 207 213
-0.026676 0.003710 -0.086866 41 41 39
-0.000335 0.024143 0.021634 179 178 183
0.042678 0.067747 0.081934 151 151 149
0.047766 0.069617 0.079634 152 153 148
-0.016351 0.022726 -0.001366 183 184 189
-0.026754 0.003685 -0.086866 63 42 25
-0.056984 -0.019740 -0.028366 104 146 170
-0.022198 0.016819 -0.013866 183 184 189
-0.026629 0.003705 -0.086866 37 37 37
-0.002707 -0.007409 -0.013866 24 45 46
-0.096210 -0.049686 0.004734 161 172 168
0.128280 -0.040178 0.124034 124 133 132
-0.026628 0.003731 -0.086866 17 19 16
0.099317 -0.045242 0.149634 133 141 144
-0.049920 0.003061 -0.058466 117 94 60
0.041920 0.064106 0.088034 158 158 158
-0.043364 0.021767 -0.038766 173 173 175
0.016853 0.080351 0.053134 139 140 134
-0.047179 0.022853 -0.043066 168 168 168
-0.099334 -0.045819 0.003734 161 170 169
0.154370 0.027470 0.097334 129 130 114
-0.055134 0.010329 -0.057866 100 57 15
-0.052798 0.023806 -0.049466 157 159 158
-0.026654 0.003726 -0.086866 61 61 59
-0.048237 0.003062 -0.057066 188 127 60
0.118372 -0.098461 0.111734 136 148 148
-0.029695 0.035314 -0.010866 178 177 182
-0.055036 0.012748 -0.055566 78 29 0
-0.056234 0.021867 -0.055166 132 143 139
-0.051858 0.016924 -0.053266 160 162 161
-0.086594 -0.052384 0.014534 162 168 166
-0.051168 0.019100 -0.050666 162 164 163
-0.023630 0.006525 -0.023466 184 184 194
-0.105298 -0.045462 -0.003466 122 132 134
0.156717 -0.009883 0.114334 84 88 89
-0.026711 0.003736 -0.086866 172 173 175
0.140799 0.030818 0.094034 177 179 165
0.133102 -0.011572 0.132234 115 125 124
-0.039468 -0.000699 -0.026666 174 144 118
-0.041589 0.017219 -0.039866 174 173 178
0.110042 -0.114762 0.114234 138 152 152
-0.045643 0.010628 -0.048366 165 126 97
0.045700 0.074409 0.071134 150 152 149
-0.056782 0.001459 -0.057566 163 163 129
-0.026736 0.003678 -0.086866 82 74 71
-0.041402 0.006333 -0.043766 140 76 28
0.096832 0.085111 0.066134 141 151 142
0.037301 0.074737 0.068434 146 146 144
0.120827 -0.065578 0.121034 131 143 141
-0.021521 0.016101 -0.013366 184 184 192
-0.026684 0.003721 -0.086866 120 124 127
-0.025578 0.001628 -0.026966 224 201 183
-0.039317 0.015173 -0.038466 174 174 176
-0.037819 -0.008439 -0.036566 88 78 86
-0.048090 0.025655 -0.042166 164 166 165
-0.050789 0.006607 -0.056366 114 63 20
-0.041620 0.025212 -0.034066 175 175 177
-0.041808 -0.028547 -0.026566 14 20 20
0.066007 0.068847 0.085334 150 155 149
0.127276 0.081310 0.078834 126 136 128
-0.049684 0.001782 -0.057566 176 171 151
-0.037802 -0.011943 -0.032866 51 50 66
-0.004347 -0.011524 -0.015266 22 49 44
-0.026773 0.003671 -0.086866 173 159 158
-0.108689 -0.046237 -0.000866 126 137 139
-0.004319 -0.005789 -0.013366 17 36 32
-0.047208 0.012303 -0.050766 165 131 103
-0.031448 -0.017091 -0.027666 37 32 38
-0.007624 -0.025054 -0.019866 19 44 41
-0.055577 0.011038 -0.057966 96 52 13
-0.063718 -0.014350 -0.034666 209 83 33
-0.042048 0.030659 -0.030566 174 175 177
-0.051204 0.018295 -0.051366 162 164 163
0.119311 -0.053431 0.126834 127 137 136
-0.026636 0.003680 -0.086866 45 36 39
-0.026785 0.003675 -0.086866 103 64 9
-0.098082 -0.046288 0.005334 160 170 169
0.087406 -0.086577 0.144434 141 149 151
-0.046421 0.016311 -0.046866 169 169 171
-0.054770 0.022121 -0.053366 140 149 144
-0.000514 -0.009307 -0.013566 23 48 45
0.019691 0.073137 0.064934 142 142 140
-0.056309 0.010937 -0.058366 70 28 3
-0.035501 0.037004 -0.017766 176 176 178
-0.038750 0.025652 -0.030066 177 176 181
0.089818 0.064052 0.096634 144 150 140
-0.049755 0.004501 -0.057266 111 60 17
-0.045758 0.002567 -0.053066 115 52 11
-0.026637 0.003724 -0.086866 9 9 7
-0.008241 -0.012512 -0.017766 24 44 42
-0.013838 -0.015112 -0.024966 36 53 43
-0.046150 0.017277 -0.045666 169 169 169
-0.055545 0.011640 -0.056766 100 58 16
-0.026681 0.003682 -0.086866 131 139 142
-0.026684 0.003670 -0.086866 134 144 145
0.159283 -0.051234 0.092134 87 93 89
0.002161 0.068535 0.060534 160 160 162
-0.052999 0.008154 -0.057466 113 69 24
-0.017669 -0.003224 -0.024166 161 107 17
-0.034324 -0.027543 -0.028566 16 32 31
0.149197 -0.050860 0.102434 90 96 96
0.009566 -0.004444 0.014034 111 80 34
0.002425 0.014759 0.017434 174 175 179
-0.046190 0.033517 -0.034266 172 172 170
-0.051483 0.012553 -0.052866 156 120 84
-0.008004 -0.017129 -0.018566 20 46 45
0.143022 -0.097166 0.087934 127 145 145
-0.048283 0.017125 -0.048566 167 167 167
-0.050866 0.008661 -0.053866 69 24 0
0.072012 0.067527 0.087934 152 154 151
0.034670 0.070911 0.073134 151 152 147
0.053164 0.064097 0.090834 155 156 151
0.144932 -0.025859 0.116334 106 115 112
0.141269 0.005511 0.132534 98 104 104
-0.071081 -0.011177 -0.044666 242 134 72
-0.032255 0.037057 -0.013466 177 177 179
0.110300 -0.032308 0.144934 123 131 133
-0.029048 -0.021471 -0.027466 103 108 128
-0.006632 0.012232 0.003934 172 173 178
-0.026683 0.003726 -0.086866 120 122 119
0.088571 0.064625 0.095934 141 146 139
0.069435 -0.116553 0.148934 130 138 140
-0.056930 0.020318 -0.057766 124 135 129
0.149932 -0.013257 0.117734 101 110 107
-0.021180 0.028979 -0.003366 181 184 189
-0.040887 -0.016834 -0.036866 30 34 43
0.156148 0.037558 0.131034 59 65 61
-0.099779 -0.048112 0.001034 158 169 165
-0.046067 0.031261 -0.035666 173 173 173
-0.003125 -0.007363 -0.014166 20 45 42
-0.026765 0.003680 -0.086866 123 79 40
0.059974 0.051976 0.109834 124 125 120
0.058099 0.084220 0.059034 160 167 160
-0.031621 -0.004147 -0.017866 129 100 84
-0.049440 0.013431 -0.053066 159 129 101
-0.049322 0.029000 -0.041366 165 166 168
-0.017707 -0.028599 -0.023466 22 48 45
-0.043355 0.004357 -0.048466 106 52 6
-0.037100 0.015034 -0.035466 175 174 179
0.104046 -0.119234 0.117634 142 157 154
-0.065333 -0.015048 -0.039966 193 53 20
-0.041746 -0.027987 -0.025466 13 17 20
-0.040317 -0.011741 -0.034166 60 61 81
-0.050550 0.004232 -0.059366 105 57 11
0.044073 0.078187 0.065034 147 148 143
-0.026702 0.003647 -0.086866 159 165 165
-0.056273 0.019462 -0.057266 129 141 137
0.114472 -0.000399 0.154234 120 128 130
0.098832 0.078219 0.078034 143 149 137
0.153204 0.024611 0.095334 163 167 152
-0.037984 0.027952 -0.027166 178 177 182
-0.034537 -0.019232 -0.031166 52 66 101
-0.037539 0.039255 -0.019266 174 174 176
-0.036574 0.007717 -0.040366 170 140 116
0.042058 0.084367 0.053434 149 151 146
-0.034331 -0.008647 -0.035466 178 176 187
0.134122 -0.011749 0.131334 115 124 121
-0.049256 -0.001042 -0.055066 193 176 146
-0.051744 0.021906 -0.049566 158 160 159
-0.051683 0.007738 -0.055666 106 57 17
0.039502 0.022009 0.097334 158 156 157
-0.048802 0.029189 -0.040566 167 169 166
0.159503 0.058854 0.123734 56 55 53
0.128963 -0.067635 0.112734 117 127 126
-0.028847 0.005757 -0.031066 186 185 193
-0.026641 0.003687 -0.086866 99 105 105
-0.052153 0.008836 -0.055466 119 70 30
0.108460 -0.083909 0.125634 128 138 137
-0.062197 -0.019700 -0.028466 135 154 161
-0.040407 0.022760 -0.034266 175 174 179
-0.016903 -0.030435 -0.022766 18 32 32
-0.050163 -0.025165 -0.025866 21 28 46
-0.035717 -0.005056 -0.017266 123 96 79
-0.071182 -0.063823 0.026034 165 169 168
0.109837 -0.092785 0.120634 142 152 153
-0.061263 -0.003808 -0.052666 242 195 205
0.048279 0.081319 0.060834 150 153 146
-0.035556 0.015659 -0.033166 178 177 183
-0.055321 -0.007117 -0.044566 239 136 153
0.042116 0.066970 0.082834 153 154 149
0.142646 0.010934 0.115734 106 115 114
-0.029033 0.004270 -0.032466 177 150 129
0.003679 0.068992 0.060834 152 151 147
0.136099 -0.040752 0.118134 116 126 125
-0.049683 0.000164 -0.058566 165 154 124
0.060835 0.062256 0.095434 160 162 159
-0.061393 -0.015478 -0.032266 191 76 21
-0.029445 0.011977 -0.027366 182 182 190
-0.003085 -0.024060 -0.017566 22 48 47
-0.043084 0.001199 -0.052666 135 65 14
-0.024961 0.015937 -0.018366 185 184 192
-0.035950 -0.005752 -0.016066 93 71 58
-0.048464 0.006441 -0.052066 163 107 70
-0.043352 0.005593 -0.047366 119 60 18
-0.028540 0.028439 -0.013666 181 180 185
-0.045130 -0.014149 -0.031166 87 89 104
-0.046917 0.004790 -0.053366 128 70 22
-0.050848 -0.025758 -0.026166 110 119 126
-0.040278 0.003032 -0.033866 190 162 138
-0.051877 0.009143 -0.054666 111 62 21
0.144297 -0.018034 0.120434 102 108 108
-0.055068 -0.020670 -0.027666 142 149 159
-0.054498 -0.007430 -0.044966 247 160 176
-0.035186 0.011316 -0.035766 178 177 183
-0.026651 0.003734 -0.086866 132 138 124
0.096505 -0.118852 0.125134 144 154 155
-0.026649 0.003729 -0.086866 94 95 90
-0.026740 0.003681 -0.086866 67 57 55
-0.056405 0.018486 -0.057966 131 140 137
-0.063024 -0.014877 -0.032966 206 86 34
-0.041147 0.024673 -0.033666 175 174 179
0.044349 0.081814 0.058434 147 154 147
-0.020593 0.000616 -0.023766 177 147 121
-0.041505 0.018057 -0.038966 175 174 179
0.152841 0.028116 0.097634 140 141 127
0.038677 0.043301 0.110734 155 154 152
-0.047869 0.002472 -0.056266 163 116 46
-0.055876 0.012071 -0.056766 97 58 15
0.038518 0.079039 0.061134 147 148 143
-0.056267 0.015757 -0.058766 163 144 104
0.017156 0.076699 0.058734 142 143 138
0.140122 -0.041849 0.114034 114 124 123
-0.033687 0.017650 -0.029066 178 177 183
0.118965 -0.080730 0.116834 128 140 138
0.137622 0.000443 0.133134 106 112 112
-0.003473 -0.018325 -0.016666 19 48 46
-0.042051 0.007947 -0.043266 169 129 103
0.149298 -0.021321 0.113934 101 107 105
0.069948 0.083914 0.061734 161 168 161
-0.084111 -0.051615 0.017934 162 168 168
-0.038467 0.009964 -0.040766 178 177 183
0.154364 0.073460 0.097534 114 122 111
0.154633 0.079260 0.089334 97 104 97
-0.026626 0.003717 -0.086866 75 76 68
-0.050579 0.020355 -0.049266 162 164 163
0.059407 0.043606 0.109034 162 162 160
-0.026636 0.003717 -0.086866 169 171 158
-0.035484 0.009729 -0.037266 178 177 183
-0.044859 0.030141 -0.034766 173 173 175
0.007413 -0.010227 -0.002066 49 51 40
-0.050729 0.006611 -0.055966 68 27 0
-0.055255 0.017876 -0.056966 135 146 142
0.027687 0.076243 0.061734 140 142 137
-0.050626 0.003901 -0.059066 123 76 20
0.136158 -0.076253 0.101534 121 133 133
0.087109 -0.114721 0.132134 49 53 56
-0.039769 0.015943 -0.038366 173 172 177
-0.101881 -0.044921 0.000334 157 167 166
-0.034839 -0.009191 -0.036866 182 180 193
-0.034331 -0.010392 -0.037666 67 66 82
-0.026627 0.003721 -0.086866 26 26 24
-0.026766 0.014775 -0.021666 181 180 188
-0.050145 -0.002385 -0.049366 247 226 231
-0.051654 0.001922 -0.060166 157 159 148
-0.026628 0.003736 -0.086866 23 23 23
-0.026805 0.003655 -0.086866 161 167 165
-0.096080 -0.046182 0.007434 160 170 169
-0.026691 -0.005224 -0.014666 100 74 57
0.045300 0.075745 0.068034 153 154 148
-0.030928 0.017236 -0.025766 182 180 191
0.112669 0.082430 0.073334 133 145 135
-0.056827 0.020472 -0.057266 126 137 131
0.065488 0.059043 0.100834 151 156 150
-0.042596 0.021063 -0.038366 173 172 177
-0.015090 -0.029608 -0.022866 17 39 37
0.006640 -0.013343 -0.010266 23 45 43
-0.048656 -0.001983 -0.050866 249 238 242
-0.037138 0.032318 -0.022666 178 178 180
-0.055266 0.013786 -0.055766 143 110 75
-0.050288 0.001101 -0.059566 178 173 153
-0.039670 0.021647 -0.033966 173 172 177
0.043111 0.067044 0.082534 149 150 145
-0.043198 -0.000960 -0.049866 211 183 180
-0.047202 -0.024700 -0.027266 92 98 112
-0.038779 -0.000254 -0.045766 148 77 25
0.147516 0.027612 0.098434 154 155 141
0.127812 0.020214 0.149934 105 114 111
-0.049395 0.006316 -0.054566 126 69 24
0.126362 -0.055046 0.121734 127 137 138
0.140805 -0.004941 0.128834 101 110 109
0.067426 -0.132762 0.139734 157 166 163
0.062634 -0.125174 0.140834 159 165 165
-0.026704 0.003645 -0.086866 157 163 163
-0.054447 0.024020 -0.051466 147 151 150
-0.052676 0.001992 -0.059866 156 157 139
-0.047121 -0.016121 -0.029166 51 54 69
-0.060526 -0.014584 -0.027566 168 151 71
-0.045272 0.011960 -0.048866 165 135 107
-0.049745 0.016024 -0.051266 166 166 166
-0.041125 0.003636 -0.046666 148 76 26
0.093811 -0.084145 0.138834 139 147 149
0.121102 -0.022606 0.138134 122 132 131
-0.048446 0.001044 -0.053566 193 181 165
-0.023434 0.002270 -0.026266 174 147 128
0.099723 -0.098443 0.128234 114 123 122
-0.050540 0.020444 -0.049066 163 163 161
-0.050486 0.014849 -0.053166 147 139 120
-0.052626 -0.004330 -0.046866 252 200 212
-0.048386 -0.001468 -0.055666 223 220 211
-0.026687 0.003700 -0.086866 199 204 210
-0.026689 0.003656 -0.086866 144 152 155
0.144875 0.024076 0.135334 17 19 18
0.114437 -0.046364 0.135034 125 133 135
-0.026632 0.003654 -0.086866 99 111 111
0.096912 -0.034047 0.156134 130 138 141
-0.050318 -0.000042 -0.059566 178 181 162
-0.025336 0.016859 -0.018266 181 184 191
0.048141 0.068565 0.082134 152 153 148
-0.026635 0.003752 -0.086866 131 142 134
-0.026677 0.003718 -0.086866 136 141 137
-0.026763 0.003681 -0.086866 33 20 14
-0.026691 0.003699 -0.086866 201 206 212
-0.007391 0.017299 0.006534 173 172 180
0.049277 0.048883 0.109534 154 156 153
0.009769 0.081434 0.049634 138 138 136
-0.026724 0.003742 -0.086866 175 175 177
-0.052316 0.024959 -0.048266 168 172 171
-0.002701 -0.019945 -0.016666 19 48 46
-0.005612 0.016028 0.006234 123 122 127
-0.002435 -0.020210 -0.016566 20 49 45
0.155730 -0.013103 0.110634 83 89 89
-0.044537 -0.002845 -0.037866 115 39 16
-0.031734 0.016163 -0.027366 179 180 185
-0.026626 0.003699 -0.086866 90 92 91
-0.026638 0.003726 -0.086866 17 17 15
-0.038911 0.031881 -0.025466 174 174 174
-0.053282 0.007518 -0.057866 103 60 18
0.025157 0.076552 0.061034 138 139 133
0.104141 -0.090901 0.127734 124 133 130
-0.041053 0.003108 -0.046866 139 67 19
0.132312 -0.036667 0.122634 119 131 129
-0.102230 -0.042213 0.002334 158 167 166
-0.033703 0.009872 -0.034666 180 179 185
-0.023378 0.008930 -0.021266 183 182 188
-0.043575 0.013635 -0.044966 175 175 177
-0.026110 -0.015137 -0.027466 219 182 75
-0.053357 0.019372 -0.053566 151 155 154
0.051411 0.084074 0.057334 158 163 157
-0.045066 0.018964 -0.043166 170 170 170
-0.045910 0.023596 -0.040666 169 169 171
0.112843 -0.112753 0.111934 140 152 152
-0.056802 0.012740 -0.056966 97 56 10
-0.044050 0.008713 -0.045266 138 74 28
-0.035822 0.043720 -0.013966 117 117 117
-0.026674 0.003725 -0.086866 137 138 133
-0.047018 0.017859 -0.046466 168 168 170
0.146120 -0.068774 0.096734 117 129 129
-0.036928 0.013132 -0.036866 176 175 180
0.142298 0.034066 0.140734 46 48 47
-0.003826 -0.029096 -0.016566 24 56 55
-0.049312 0.004458 -0.056366 112 60 13
-0.045560 0.000863 -0.051766 187 152 110
-0.013362 -0.031850 -0.024966 17 33 30
-0.026112 -0.020670 -0.027666 70 73 90
-0.051948 0.004615 -0.060566 109 66 15
-0.026689 0.003665 -0.086866 21 53 52
0.009000 0.071258 0.064834 146 146 144
-0.017438 -0.006209 -0.024466 146 90 16
-0.022608 -0.020783 -0.020466 61 46 23
0.034036 0.080802 0.057434 143 146 139
-0.053616 -0.006116 -0.044466 245 172 189
-0.022684 -0.004431 -0.015366 87 60 41
-0.012795 -0.020477 -0.025166 25 61 61
-0.040247 0.001977 -0.047166 146 68 19
0.155369 0.040753 0.131534 64 68 67
0.156545 -0.026226 0.107134 87 85 88
-0.032105 0.033482 -0.015466 175 176 180
-0.020224 -0.030469 -0.022166 12 24 24
-0.026632 0.003655 -0.086866 71 83 81
-0.026708 0.003739 -0.086866 147 141 141
-0.029764 0.029115 -0.015166 180 179 185
-0.026700 0.003713 -0.086866 147 146 142
-0.070604 -0.009233 -0.042066 174 50 16
-0.042921 -0.001326 -0.049566 162 88 101
0.113428 -0.034572 0.141734 128 136 138
-0.055846 0.011817 -0.057566 98 56 14
-0.061726 -0.018309 -0.030866 135 131 119
-0.026630 0.003731 -0.086866 19 21 20
-0.053412 0.015308 -0.056966 136 117 87
-0.038434 0.017438 -0.035566 174 174 176
-0.049228 -0.005256 -0.043666 255 195 211
-0.054775 0.014332 -0.056266 147 118 84
0.132717 -0.076297 0.106134 128 143 138
-0.049501 0.000008 -0.055066 184 173 145
0.094457 0.070109 0.090734 146 149 142
-0.016355 -0.032937 -0.025766 18 54 50
-0.054273 0.013120 -0.054766 108 62 13
0.151285 -0.040783 0.088134 51 42 45
0.147871 0.077133 0.093134 122 133 119
-0.052799 0.006442 -0.059066 101 58 13
-0.026059 0.004054 -0.028666 186 185 191
-0.057068 -0.012787 -0.029066 124 70 0
0.174313 0.036010 0.109934 28 28 26
0.112756 -0.089415 0.120234 137 147 149
-0.054811 0.002375 -0.059166 165 168 141
-0.054992 0.018335 -0.056066 142 148 146
-0.043567 0.031347 -0.032266 173 173 173
0.113752 0.003038 0.155734 119 127 129
-0.052379 0.001992 -0.059866 161 162 148
-0.041386 0.029177 -0.030966 177 177 179
0.149996 -0.034088 0.108134 100 106 106
0.038103 0.035011 0.106434 157 155 156
0.121763 -0.090136 0.110734 127 137 136
0.144767 -0.088105 0.089334 52 62 61
-0.012043 -0.014274 -0.024566 29 46 40
-0.026655 0.003720 -0.086866 23 23 21
0.138167 -0.003383 0.131934 107 116 115
-0.011135 -0.026026 -0.024766 30 61 63
-0.026705 0.003731 -0.086866 153 146 138
0.148606 -0.087737 0.086434 105 125 123
0.109310 0.020010 0.162734 110 115 118
-0.053726 0.007110 -0.058866 55 19 0
0.092639 0.070287 0.088634 144 147 138
0.109694 0.066576 0.098734 141 149 138
-0.035801 0.012774 -0.035466 177 176 182
0.124443 -0.094205 0.108034 135 149 149
-0.046996 0.021199 -0.044166 169 169 169
-0.034993 -0.014960 -0.030566 44 43 59
0.000119 -0.016547 -0.014466 21 47 48
-0.032247 0.036931 -0.013566 177 176 181
-0.056482 -0.004284 -0.048966 248 200 212
-0.054698 0.019215 -0.055166 143 148 144
