ply
format ascii 1.0
element vertex 1196
property float x
property float y
property float z
property uchar red
property uchar green
property uchar blue
end_header
-0.127447 -0.040401 0.084382 93 93 81
-0.050194 0.078086 -0.101118 113 113 113
0.162472 0.018645 0.044382 80 85 79
-0.132828 -0.088182 0.111582 132 132 134
-0.053888 0.065898 -0.107618 152 151 157
0.108158 0.102652 -0.061718 152 160 147
-0.199820 -0.040281 0.028482 173 151 112
-0.062371 0.009191 0.025582 197 194 201
-0.121909 -0.013096 0.079182 71 71 59
-0.165297 -0.075793 0.075582 138 138 138
0.069060 -0.039464 0.176082 47 53 53
-0.053729 0.070245 -0.109618 113 114 118
0.196932 -0.098479 0.171882 120 124 123
0.035971 -0.238152 0.258182 103 105 104
-0.084627 0.066001 -0.118318 170 180 179
0.036492 0.099462 -0.058218 170 167 160
0.044531 -0.045041 0.143282 107 112 115
0.286597 -0.018379 0.129782 101 107 105
-0.070328 -0.116522 0.182382 128 129 133
0.143505 0.061230 0.040882 138 138 128
-0.156133 -0.103448 0.077182 133 133 133
-0.088453 0.031670 -0.034618 200 198 203
-0.099167 0.025666 -0.024518 158 155 166
0.070785 0.097440 -0.051518 162 163 155
-0.151085 -0.022720 0.049982 88 90 77
-0.076776 0.066730 -0.119118 159 171 171
-0.007441 0.026844 -0.193518 136 126 124
-0.046668 0.058947 -0.097318 131 128 137
-0.194910 -0.032288 0.035282 171 147 109
-0.109099 0.020445 -0.007718 177 176 181
0.140318 0.016170 0.059682 81 88 81
-0.034526 0.059637 -0.086418 114 111 118
-0.007387 0.026871 -0.193518 75 71 70
-0.007339 0.026858 -0.193518 117 137 128
0.195353 0.077381 0.005182 136 139 128
0.258478 -0.144379 0.109082 123 132 129
-0.052146 0.060114 -0.102518 179 179 181
0.106307 0.084564 -0.016918 158 160 147
-0.018274 0.062231 -0.067518 113 110 119
-0.013953 0.060287 -0.065418 158 157 165
0.186632 -0.081547 0.187082 116 121 117
0.249090 -0.127329 0.122482 122 131 128
-0.046871 0.068271 -0.100818 111 111 113
0.109323 -0.157312 0.224382 118 120 119
-0.068165 -0.148157 0.174282 131 132 136
-0.133161 0.032080 -0.038018 186 187 191
-0.181325 -0.008243 0.018982 88 92 78
-0.007332 0.026855 -0.193518 113 130 124
0.016130 0.036525 -0.029218 140 138 149
0.122524 0.081460 -0.012418 159 161 150
-0.007360 0.026890 -0.193518 155 155 145
-0.069071 0.060017 -0.104918 188 187 192
-0.021042 -0.086425 0.258182 99 98 103
0.158396 0.030773 0.051482 75 85 76
0.016982 0.082284 -0.013618 110 97 91
-0.223020 -0.046994 0.015082 123 125 122
0.164327 0.026742 0.044782 79 86 79
0.094617 0.097326 -0.051118 160 162 148
-0.050512 0.053735 -0.090118 190 188 193
0.157717 0.034053 0.053282 80 85 78
0.223544 -0.045074 0.169582 106 112 110
0.115534 0.100045 -0.055718 155 159 145
-0.049171 -0.180290 0.188882 130 131 133
0.051517 -0.153533 0.275382 64 64 64
0.062721 0.082851 -0.016818 166 163 156
-0.209130 -0.009877 -0.000618 87 93 81
0.082176 -0.151596 0.248882 102 103 105
0.269414 -0.117995 0.110882 120 129 126
-0.007411 0.026829 -0.193518 62 67 61
0.078134 0.064067 0.030082 156 156 148
0.053339 -0.006159 0.118282 80 84 83
0.085432 -0.004815 0.093682 87 91 90
0.013503 0.032887 -0.030018 176 175 183
0.097654 -0.087325 0.184082 118 127 126
-0.007317 0.026888 -0.193518 139 142 131
0.154599 0.089012 -0.027818 141 144 133
-0.012434 0.077182 -0.048318 78 79 71
-0.120292 0.043574 -0.067318 181 182 186
0.155707 -0.157938 0.186082 126 130 129
-0.023974 0.026010 -0.019118 190 187 196
-0.082612 -0.015835 0.121482 165 154 152
-0.066186 0.051499 -0.084418 199 197 198
-0.007310 0.026883 -0.193518 129 132 123
-0.024901 0.061270 -0.075118 134 131 138
-0.215845 -0.087191 0.008782 120 129 128
-0.086524 0.064244 -0.113018 168 178 177
-0.011331 0.045142 -0.058818 142 140 151
0.044038 -0.044870 0.142482 107 112 115
-0.007367 0.026854 -0.193518 116 128 126
0.301719 -0.053101 0.106882 111 120 117
-0.007413 0.026842 -0.193518 78 80 79
0.021834 -0.002002 0.145882 71 71 71
0.013076 -0.026301 0.225882 61 56 53
-0.186938 -0.013248 0.017082 85 91 79
0.007690 0.101092 -0.061918 170 165 161
-0.007414 0.026849 -0.193518 78 77 83
-0.019107 0.072570 -0.061218 73 70 61
0.285496 -0.005353 0.138182 96 101 97
0.098056 0.090826 -0.034618 159 163 148
-0.037135 0.067769 -0.090818 132 129 136
0.058982 0.097333 -0.051418 166 163 154
0.172197 0.012821 0.037082 112 129 121
0.008688 0.085348 -0.022018 116 98 96
-0.180843 -0.014263 0.048982 50 49 44
-0.073992 0.064276 -0.113518 163 171 173
-0.130440 -0.087012 0.115682 133 133 135
-0.102673 0.058356 -0.100018 180 189 184
-0.057435 0.072551 -0.112718 113 115 114
0.095172 0.071426 0.012982 161 161 151
-0.140526 -0.047433 0.085582 105 105 95
0.118188 0.006838 0.072882 83 88 84
0.253562 -0.094128 0.130182 120 126 122
0.162899 0.076568 0.001982 155 157 144
-0.007379 0.026877 -0.193518 148 145 140
0.107760 0.015156 0.083682 79 84 80
-0.199968 -0.060784 0.039582 134 134 132
0.119659 0.082887 -0.014218 158 160 147
0.029769 0.101172 -0.061518 172 169 162
-0.140336 0.018369 -0.011318 178 166 152
-0.020560 0.100205 -0.058218 126 113 105
-0.007359 0.026890 -0.193518 152 152 142
-0.024966 0.054847 -0.076418 40 39 45
-0.007361 0.026855 -0.193518 116 128 126
-0.057244 0.068802 -0.111718 23 22 27
-0.006965 0.030535 -0.030818 196 195 203
-0.170760 -0.109943 0.058482 130 132 129
0.110388 0.073978 0.006482 154 156 145
-0.129008 0.048766 -0.075918 185 189 190
0.189888 -0.098587 0.180582 123 125 122
-0.146727 0.012256 0.003682 178 164 151
-0.007326 0.026887 -0.193518 147 149 136
-0.006690 -0.177872 0.242782 102 105 110
-0.077939 0.023201 -0.012818 201 198 205
-0.093543 0.059473 -0.101218 159 167 170
-0.109638 -0.001152 0.039582 182 165 157
0.014238 0.099569 -0.058018 173 168 164
0.111884 0.080661 -0.007618 158 160 149
-0.206438 -0.075637 0.027982 127 128 130
0.043364 0.091898 -0.039118 167 162 158
-0.028745 0.089225 -0.056218 141 108 89
0.155383 0.077206 -0.001318 154 156 142
-0.183556 -0.000171 0.012582 81 85 70
0.118105 -0.176869 0.211282 124 126 125
-0.073411 0.052590 -0.087818 191 191 193
-0.157373 -0.120501 0.070982 131 133 132
-0.084512 0.048195 -0.076218 181 180 185
-0.098245 0.028250 -0.026218 201 200 205
-0.209560 -0.032882 0.019482 170 148 111
-0.010359 0.037787 -0.048418 175 173 184
-0.007352 0.026888 -0.193518 150 148 136
0.109114 -0.199354 0.209382 121 123 122
0.162054 -0.096056 0.202882 119 121 120
0.159477 0.089611 -0.030518 141 144 133
0.029315 0.061288 -0.001818 68 65 56
0.097112 -0.004164 0.087782 119 128 123
-0.171173 0.027692 -0.027518 163 152 134
-0.150790 -0.100546 0.086482 132 132 132
-0.013837 0.075728 -0.052518 81 78 69
0.053356 0.090423 -0.035618 163 163 153
0.012134 0.034391 -0.032418 166 164 175
-0.083759 0.066838 -0.120418 165 175 174
-0.078392 0.056367 -0.096418 176 176 178
0.222459 -0.121998 0.145082 124 130 128
0.083880 0.098853 -0.057118 114 114 112
0.123261 0.099360 -0.054418 150 156 144
-0.066770 0.041587 -0.061518 201 200 205
-0.083707 0.038711 -0.054418 199 197 200
-0.116100 0.013461 0.005082 89 85 76
-0.047498 0.082870 -0.095018 61 58 49
-0.082268 0.058928 -0.101618 154 159 162
-0.139484 0.038335 -0.053418 172 174 171
-0.102486 -0.051328 0.114182 173 136 109
-0.040968 0.061421 -0.093518 136 133 140
-0.070683 0.053243 -0.089818 193 193 195
-0.217572 -0.054044 0.019782 124 128 127
-0.077564 0.054528 -0.093018 178 179 181
-0.007406 0.026895 -0.193518 69 70 56
-0.146439 -0.105668 0.088882 129 133 132
-0.173950 -0.002436 0.026182 76 79 68
-0.022075 0.041979 -0.059318 179 175 189
-0.090242 0.062402 -0.109418 172 178 178
-0.147638 -0.088656 0.095182 134 134 134
-0.075871 0.063320 -0.112118 173 178 181
0.009015 0.088546 -0.030018 131 122 115
-0.089118 -0.083343 0.166982 125 124 129
-0.078310 0.058493 -0.101118 161 165 166
-0.058803 -0.163253 0.182582 131 132 134
-0.033682 0.057751 -0.086018 123 120 129
0.279404 -0.126638 0.095682 117 129 125
-0.077209 -0.134305 0.166782 133 133 135
-0.175148 -0.083140 0.063082 135 135 135
-0.007414 0.026853 -0.193518 82 52 44
0.270233 -0.114066 0.111782 118 127 122
-0.072381 0.037584 -0.051118 201 199 204
0.011431 0.095057 -0.046218 171 166 162
-0.120280 0.046855 -0.071818 180 182 181
-0.052413 0.047519 -0.074918 186 185 193
-0.005371 0.031042 -0.031918 176 175 183
-0.174499 -0.113592 0.054182 130 132 131
0.158529 0.089726 -0.030218 141 145 131
-0.007412 0.026853 -0.193518 77 47 36
0.185707 -0.115799 0.177282 123 127 126
0.070641 -0.054676 0.159382 69 75 73
0.224569 -0.153185 0.132882 128 134 132
-0.187606 -0.040857 0.041482 178 152 117
-0.065301 -0.113563 0.190082 127 126 131
0.104776 -0.056322 0.173482 100 105 108
-0.135686 -0.043123 0.124482 119 110 111
0.195160 -0.081332 0.181982 119 123 122
-0.007313 0.026891 -0.193518 83 85 80
-0.083720 0.015308 0.007082 195 194 199
0.233659 -0.079168 0.152082 115 124 121
0.111497 0.021543 0.083882 71 77 75
-0.168890 -0.102417 0.063882 131 133 132
-0.077350 0.057327 -0.098418 184 184 186
-0.098668 0.034022 -0.040318 74 76 75
-0.098726 -0.042874 0.170582 126 122 123
0.189457 -0.103376 0.176682 121 125 124
-0.048292 0.066256 -0.102418 121 119 124
-0.069514 0.058256 -0.101218 181 180 185
-0.069991 0.018717 -0.000618 195 192 199
0.127719 0.101733 -0.062818 137 148 134
-0.157250 0.034344 -0.040618 97 103 89
0.009779 0.101473 -0.062518 171 168 163
-0.122766 -0.080399 0.127382 131 131 133
0.041541 0.092848 -0.041618 166 162 153
-0.048107 0.072451 -0.101018 112 110 115
-0.143880 -0.135487 0.083682 130 131 133
0.170998 -0.098265 0.194882 119 121 120
0.130058 0.096148 -0.044918 148 152 138
0.189467 -0.092582 0.179782 122 124 123
-0.013582 0.042263 -0.058118 171 168 179
-0.007313 0.026899 -0.193518 141 147 135
-0.089935 0.061422 -0.107718 173 179 179
-0.185987 0.011142 0.009682 60 60 48
0.158727 0.018016 0.047282 75 82 75
-0.110237 0.036942 -0.049118 185 186 188
-0.060729 -0.108269 0.196682 124 123 128
0.105223 0.087630 -0.027118 159 159 149
0.186439 -0.143386 0.165082 130 134 133
0.155045 0.080629 -0.009818 152 154 141
-0.194187 -0.104004 0.032882 124 128 127
-0.085644 0.044917 -0.069518 198 198 200
-0.004123 0.089010 -0.031618 118 104 95
-0.057351 0.053937 -0.091918 195 195 197
-0.013395 0.048719 -0.062218 144 141 152
0.116190 0.101045 -0.059918 153 160 144
-0.180700 -0.039501 0.048782 177 152 112
-0.007338 0.026876 -0.193518 87 88 80
0.113320 0.076099 0.002682 153 155 142
-0.215403 -0.050408 0.023382 127 129 126
-0.108067 0.056014 -0.094718 182 188 188
0.055276 0.074197 0.006482 162 161 156
0.148687 0.091728 -0.035818 139 145 131
0.284119 -0.136687 0.086782 119 130 126
-0.047435 0.020562 -0.005118 197 194 203
-0.155553 -0.123334 0.071882 130 132 131
-0.090944 0.062949 -0.110918 172 182 181
-0.013521 0.049515 -0.062618 137 135 146
-0.049545 0.067147 -0.104218 127 126 131
-0.210019 -0.027842 0.018982 165 143 104
-0.033361 0.029675 -0.028818 202 201 209
0.045012 0.076100 0.000982 158 153 150
-0.201300 -0.090163 0.028782 123 127 126
0.004220 0.073307 -0.018418 131 103 82
-0.095403 0.005746 0.026382 175 156 149
-0.045511 0.092761 -0.075318 134 108 81
-0.040838 0.059197 -0.092918 140 138 149
0.207937 -0.047118 0.181982 104 108 107
0.060656 -0.124546 0.278082 84 84 86
-0.004344 0.093784 -0.042518 127 114 108
-0.070325 0.060087 -0.106018 179 180 182
0.260457 -0.127154 0.112482 121 132 128
-0.067718 0.052221 -0.087418 196 196 198
-0.048247 0.051801 -0.086218 116 115 121
0.101275 0.018942 0.089782 72 72 70
-0.176379 0.025089 -0.022618 167 159 140
-0.087969 0.062988 -0.110618 172 178 176
-0.097003 -0.131835 0.143082 135 134 139
0.261414 -0.132574 0.111282 119 130 126
-0.017810 0.097482 -0.051118 117 104 96
-0.047015 0.044376 -0.068518 197 196 202
0.040480 0.094614 -0.045418 168 163 157
-0.007321 0.026873 -0.193518 113 116 107
0.277394 -0.080439 0.119282 117 126 123
0.091374 0.101172 -0.061518 107 113 113
-0.072517 -0.133806 0.173782 132 131 136
-0.056592 0.009212 0.022382 192 191 197
0.147272 -0.157199 0.194182 127 128 130
-0.072436 0.043567 -0.066318 206 204 209
-0.046903 0.037001 -0.050518 192 189 196
-0.060054 0.070580 -0.114518 130 134 135
0.058786 0.092911 -0.039918 165 162 155
-0.113515 0.049679 -0.079118 189 193 194
-0.035621 -0.062600 0.245882 99 98 103
0.005967 0.094104 -0.044018 173 163 161
-0.007347 0.026880 -0.193518 72 72 64
0.114589 0.102422 -0.062118 153 161 148
-0.122239 -0.052888 0.135982 127 119 117
0.101529 0.033143 0.115182 75 74 72
0.240922 -0.059443 0.150582 114 120 118
0.071556 -0.055967 0.158282 75 81 81
0.066741 -0.159638 0.255382 86 92 90
0.252637 -0.136006 0.120482 123 132 129
-0.116245 0.049619 -0.079418 187 188 190
0.094955 0.097107 -0.049318 159 161 147
-0.065058 0.067920 -0.116418 142 147 151
-0.137322 0.041765 -0.059918 179 181 180
-0.001844 0.027155 -0.021618 200 197 206
0.002442 0.101617 -0.062518 173 168 164
-0.122767 -0.132455 0.109782 134 134 134
0.025846 0.034489 -0.017918 149 148 154
0.132977 0.095028 -0.041218 151 154 145
-0.052491 0.041167 -0.060018 200 197 206
-0.015579 0.012719 0.016082 194 193 199
-0.045164 0.065679 -0.097918 109 106 113
-0.019416 0.096604 -0.048718 121 108 102
-0.065311 0.054307 -0.093018 198 198 200
-0.007344 0.026881 -0.193518 70 71 63
-0.122989 0.012108 0.005682 185 167 157
-0.091853 0.054573 -0.091218 186 187 189
0.244473 -0.140324 0.122782 123 132 127
-0.048964 0.055935 -0.094618 172 169 178
0.010816 0.021882 -0.008018 192 189 200
-0.007326 0.026894 -0.193518 158 160 149
-0.044996 -0.148487 0.202382 124 127 132
-0.131671 0.040796 -0.057918 80 84 87
-0.025269 0.098996 -0.055118 130 112 102
0.272422 -0.114653 0.110882 120 129 124
-0.054405 0.072224 -0.110218 107 107 109
-0.136279 -0.137724 0.091782 133 134 136
-0.040549 0.052623 -0.086718 179 176 185
0.247731 -0.135609 0.120382 127 131 130
-0.119596 -0.018518 0.079382 85 85 77
0.074026 0.093739 -0.042618 160 162 151
-0.065598 0.059246 -0.103818 192 192 194
0.025751 0.032544 -0.018418 159 158 163
0.128256 0.096533 -0.046518 152 155 144
-0.007356 0.026886 -0.193518 150 150 140
-0.085513 0.054905 -0.094418 187 191 190
-0.079383 0.065734 -0.117218 165 176 172
-0.118389 0.041052 -0.058318 193 193 193
-0.026182 0.099479 -0.056218 127 110 102
0.067999 0.087374 -0.027818 167 164 157
-0.209187 -0.084620 0.019582 120 130 129
-0.046434 0.051729 -0.086018 125 124 132
-0.197373 -0.017235 0.014082 88 95 79
-0.077572 0.068127 -0.122218 160 172 170
0.060160 0.059036 0.043682 152 149 144
0.079309 0.098341 -0.053118 155 157 146
0.258567 -0.114002 0.121382 122 128 126
-0.102341 0.050102 -0.081918 185 189 190
0.069052 0.067444 0.024482 162 159 152
-0.115179 0.030326 -0.032218 194 194 194
-0.197957 -0.034108 0.030882 172 148 110
-0.175238 -0.006310 0.027882 72 74 63
-0.130770 -0.041039 0.079582 94 96 85
-0.176729 -0.020276 0.041782 72 74 61
-0.018248 0.052344 -0.067818 126 123 132
-0.007338 0.026860 -0.193518 121 138 132
-0.029285 0.089645 -0.056618 138 107 87
-0.007332 0.026861 -0.193518 117 134 126
-0.078347 -0.029321 0.201782 113 110 117
-0.099795 -0.156319 0.132082 136 136 138
0.029263 0.089589 -0.033318 172 167 163
-0.119278 -0.093119 0.127482 133 133 135
0.079446 -0.200950 0.233082 111 112 114
-0.088480 0.063677 -0.112118 167 176 175
-0.007368 0.026857 -0.193518 122 132 131
-0.007368 0.026837 -0.193518 120 122 121
0.015056 0.095555 -0.048918 171 166 162
-0.144809 -0.063556 0.088082 182 153 121
-0.215824 -0.037687 0.010282 169 147 108
-0.043191 0.064145 -0.096718 122 119 128
0.154427 -0.112331 0.203382 119 121 120
0.093639 0.101744 -0.061018 108 112 113
-0.007402 0.026863 -0.193518 33 29 28
0.070505 0.069069 0.020582 161 158 153
0.075981 -0.099887 0.271182 95 95 97
-0.181430 -0.051614 0.047582 178 154 118
0.109921 0.102594 -0.062818 153 161 146
0.177948 0.055296 0.064082 88 88 80
-0.078600 0.024437 -0.016118 197 196 202
0.026597 0.064700 -0.000518 80 79 74
-0.119610 0.038422 -0.054218 189 190 192
-0.070075 0.055159 -0.093518 186 185 190
-0.078722 0.059371 -0.102918 156 160 163
0.157078 0.076620 -0.000318 154 156 143
-0.007447 0.026850 -0.193518 118 94 82
-0.007325 0.026889 -0.193518 148 150 137
0.023943 0.034211 -0.019918 138 137 145
0.119205 -0.158691 0.216282 120 122 121
0.020718 0.079326 -0.005818 107 96 90
-0.064650 0.053306 -0.090018 184 184 186
-0.134678 -0.121066 0.100382 133 135 134
0.034439 0.100793 -0.061418 167 164 157
0.268768 -0.061298 0.129682 114 123 120
0.053155 -0.017733 0.122682 115 125 124
-0.097877 -0.048893 0.168782 129 118 116
-0.028903 0.071051 -0.079418 123 118 125
0.140088 0.073866 0.005082 154 156 143
-0.007383 0.026875 -0.193518 143 140 135
-0.175978 -0.099951 0.056782 131 133 130
-0.114069 0.045568 -0.069718 186 188 187
-0.102163 -0.104388 0.145682 133 132 138
-0.185891 0.011782 0.010082 59 59 47
-0.020593 0.087939 -0.046218 143 111 88
-0.067491 0.023982 -0.012018 196 193 200
0.108441 0.083579 -0.014518 159 159 147
0.027834 0.080310 -0.007418 134 125 118
0.039404 0.090785 -0.034718 162 157 151
0.094078 0.011969 0.092282 81 86 82
0.159586 -0.143501 0.188282 127 128 130
0.273574 -0.067501 0.124282 116 122 120
-0.141737 -0.067934 0.090082 183 152 121
-0.070648 0.040569 -0.057218 205 203 206
-0.089347 0.061952 -0.108718 172 181 178
0.021228 0.074826 0.001882 105 87 75
0.050082 -0.011404 0.119182 81 83 82
-0.053338 0.035640 -0.047018 203 200 207
-0.209570 -0.094122 0.015382 121 130 127
0.101748 0.102679 -0.061418 155 160 153
0.147789 0.092271 -0.037418 138 144 130
-0.005210 0.089491 -0.033118 120 106 97
-0.140387 0.014552 -0.001718 180 166 153
0.109953 0.047818 0.080982 146 142 139
-0.112830 0.051174 -0.082618 187 188 190
-0.007373 0.026880 -0.193518 150 147 142
0.160478 0.024882 0.048282 78 88 80
-0.029200 0.056688 -0.081118 147 144 151
0.281590 -0.071747 0.116782 113 122 119
0.015694 0.080861 -0.009718 112 99 93
-0.059663 0.042327 -0.062618 197 196 201
-0.119560 0.043824 -0.067518 174 175 177
0.009290 0.098341 -0.054618 174 169 163
-0.144843 -0.040048 0.069782 97 99 86
-0.097521 -0.042779 0.172182 122 117 121
0.133390 -0.052029 0.198182 71 77 75
-0.046847 0.047475 -0.074418 193 192 198
0.301333 -0.016402 0.120582 101 107 103
-0.007322 0.026894 -0.193518 148 152 138
-0.116688 0.029485 -0.029418 192 194 193
-0.007380 0.026820 -0.193518 123 125 122
-0.039316 0.082967 -0.084518 71 69 57
0.049538 0.088344 -0.029118 165 162 155
-0.020179 0.010283 0.023882 193 190 197
0.038835 0.086527 -0.024018 168 163 159
-0.156214 -0.057940 0.075182 178 152 117
0.149423 0.080720 -0.008118 153 155 142
-0.079778 0.047316 -0.073818 181 179 184
0.021374 0.032780 -0.022718 133 131 142
-0.155267 -0.008100 0.045082 75 77 63
0.042774 0.096798 -0.050918 169 164 158
-0.007341 0.026858 -0.193518 120 137 131
-0.024338 0.054567 -0.075418 86 86 88
0.085894 0.010706 0.098082 84 86 83
-0.007371 0.026883 -0.193518 156 155 150
0.078305 0.097185 -0.051718 160 161 153
-0.146897 -0.100139 0.091082 133 133 133
-0.007359 0.026858 -0.193518 117 132 127
-0.114444 0.037727 -0.049218 196 196 198
-0.017111 0.036893 -0.047518 178 178 188
-0.206067 -0.066013 0.030582 127 129 128
-0.054292 0.046225 -0.072418 185 184 189
-0.058931 0.053787 -0.091218 195 193 198
-0.220474 -0.049110 0.017782 128 130 127
0.073421 0.077122 -0.000018 131 128 123
-0.027865 0.049780 -0.076018 172 171 179
-0.210336 -0.085262 0.018582 120 129 126
-0.132679 -0.060639 0.122182 128 123 127
-0.007396 0.026885 -0.193518 90 80 78
-0.128130 0.024829 -0.016318 116 117 109
-0.115466 0.045598 -0.069518 191 192 194
0.180137 0.041150 0.063982 75 77 63
-0.011176 0.096012 -0.047618 114 103 97
-0.073110 0.036692 -0.048118 205 204 209
0.114476 0.093637 -0.039018 158 160 147
0.051696 -0.216204 0.253382 108 108 108
0.108807 0.100516 -0.057918 154 157 146
0.257334 -0.093549 0.129582 119 125 123
0.104994 0.003785 0.081382 82 87 81
0.209091 -0.120738 0.155282 124 130 128
-0.007418 0.026853 -0.193518 77 48 40
0.057087 0.055439 0.050782 160 155 152
0.115718 -0.204434 0.202182 122 124 123
-0.011723 0.058667 -0.060418 125 122 131
-0.103607 -0.072388 0.153582 128 126 127
-0.217437 -0.019496 0.010982 158 135 101
0.003234 0.077230 -0.018818 144 113 92
0.092359 0.088781 -0.030818 163 163 151
0.026229 -0.038476 0.127382 78 80 79
0.013846 0.023179 -0.011718 189 186 195
0.254866 -0.040440 0.148082 108 114 112
0.040558 0.072388 0.010182 141 133 131
-0.066295 0.023384 -0.012018 199 197 202
0.259843 -0.072264 0.133082 116 122 120
-0.141412 0.034872 -0.043318 186 188 187
-0.034729 -0.106479 0.231982 114 113 118
0.109956 0.086462 -0.021518 159 161 148
0.174246 -0.186102 0.162782 134 140 138
-0.057115 -0.048499 0.223882 109 108 113
-0.105659 0.046014 -0.071218 192 192 194
-0.007432 0.026911 -0.193518 75 74 69
-0.017267 0.049452 -0.066218 129 127 140
-0.030392 0.059609 -0.082518 141 138 145
0.202804 -0.102769 0.168182 121 125 124
0.273781 -0.087578 0.119082 117 123 121
-0.207799 -0.078809 0.025482 123 127 128
-0.084021 0.054986 -0.094518 189 191 190
-0.007342 0.026853 -0.193518 114 126 122
-0.102574 -0.115805 0.141882 133 132 137
-0.007396 0.026854 -0.193518 118 127 126
0.018390 -0.010811 0.144682 75 77 76
-0.103701 -0.114194 0.140682 133 132 137
-0.014034 0.092524 -0.040818 119 104 97
0.170508 0.080429 -0.008418 152 155 144
0.221870 -0.115817 0.148082 123 127 126
0.099187 -0.196990 0.218882 120 122 121
0.263613 -0.046590 0.138582 109 118 115
0.226191 -0.065059 0.162082 116 122 120
0.058143 0.100531 -0.059518 153 156 145
0.156732 -0.045065 0.179882 80 91 85
-0.060826 0.038735 -0.052318 195 194 200
-0.135130 -0.029219 0.066482 91 93 80
-0.072968 -0.152402 0.167382 135 135 137
-0.012992 0.047386 -0.061518 144 142 153
-0.007313 0.026875 -0.193518 120 123 112
0.077071 0.099156 -0.054518 156 158 147
-0.007348 0.026854 -0.193518 117 129 125
0.114054 0.022788 0.082082 81 86 82
0.048762 0.085502 -0.022118 167 164 159
-0.218719 -0.024824 0.008982 162 144 108
0.062308 0.099741 -0.057418 161 162 156
-0.038961 0.059100 -0.091118 139 137 148
-0.000087 0.024235 -0.015618 174 172 183
-0.064006 0.059739 -0.104618 178 178 180
0.015986 0.086633 -0.023718 146 136 134
0.079915 0.084426 -0.018518 162 159 152
0.124732 0.079302 -0.004418 155 157 144
-0.032897 0.091217 -0.060518 143 111 88
-0.031415 0.056563 -0.083418 131 130 136
-0.057090 -0.113590 0.198382 124 124 126
-0.012423 -0.160592 0.241582 98 99 101
0.066384 0.099933 -0.057618 156 157 149
-0.102128 0.059315 -0.102518 179 188 187
-0.007343 0.026893 -0.193518 149 149 139
-0.156932 -0.098423 0.079182 133 133 133
-0.050040 0.056625 -0.096618 160 157 164
0.232908 -0.090588 0.147782 119 128 125
-0.149488 0.035888 -0.048218 170 174 173
-0.007327 0.026871 -0.193518 22 18 17
-0.130373 0.048582 -0.076218 183 189 189
0.070945 -0.134141 0.265582 98 99 101
-0.185975 -0.072406 0.053882 132 132 132
-0.080835 0.064486 -0.113818 164 172 174
-0.163766 -0.023351 0.042882 86 88 75
-0.033067 0.064493 -0.084618 122 120 125
-0.158314 -0.125498 0.069082 130 134 133
0.222930 -0.119966 0.144682 122 128 126
0.234466 -0.137884 0.128882 126 132 128
-0.165332 -0.090970 0.071182 132 132 132
0.257664 -0.120944 0.117082 121 130 127
0.142058 -0.117269 0.212382 119 120 122
-0.007382 0.026843 -0.193518 107 116 115
-0.007342 0.026856 -0.193518 119 134 129
-0.204491 -0.035241 0.024482 172 150 113
0.283616 -0.133148 0.088682 113 128 125
-0.024317 0.018258 0.000182 198 195 204
-0.166656 -0.050852 0.064382 181 155 120
0.003643 0.077922 -0.018418 147 116 95
0.120962 -0.194499 0.202282 126 128 127
0.079082 0.078942 -0.005718 163 163 155
-0.007399 0.026885 -0.193518 107 107 109
-0.072560 0.022124 -0.009518 199 196 203
-0.182004 -0.089766 0.050982 132 134 133
-0.029638 -0.127356 0.232882 117 117 119
0.204425 -0.121844 0.161582 124 128 127
-0.017885 0.097868 -0.052218 121 111 101
-0.135459 0.046353 -0.071618 168 174 172
0.080692 0.096397 -0.048818 161 163 152
-0.007336 0.026892 -0.193518 159 161 150
0.051202 -0.147951 0.276982 66 66 68
-0.194681 -0.104794 0.031682 125 129 128
-0.217350 -0.059148 0.019082 127 129 128
0.101387 0.069732 0.015782 160 160 150
0.106412 -0.116909 0.239482 107 108 110
-0.007359 0.026857 -0.193518 123 136 129
-0.007376 0.026871 -0.193518 29 28 24
-0.214705 -0.040806 0.012282 171 148 114
-0.007350 0.026874 -0.193518 6 6 6
0.142669 0.084986 -0.019718 152 154 140
-0.015748 -0.034215 0.217182 88 50 39
-0.135243 -0.092026 0.108582 134 134 134
-0.209896 -0.097163 0.015482 120 131 127
-0.034226 0.040919 -0.056718 68 67 72
0.007712 0.093998 -0.044618 173 165 162
-0.007365 0.026877 -0.193518 81 80 76
-0.200551 -0.037356 0.028482 175 151 117
0.232821 -0.145815 0.130482 124 133 130
-0.007335 0.026861 -0.193518 113 130 122
-0.007316 0.026885 -0.193518 130 132 121
-0.165547 -0.049998 0.066282 182 153 119
-0.094521 0.026395 -0.019718 199 197 202
-0.084917 0.053212 -0.088118 193 195 194
-0.210182 -0.076126 0.021882 123 129 129
-0.087339 0.054803 -0.093218 192 196 197
0.134037 -0.180053 0.198782 127 129 126
0.100740 0.007640 0.086782 80 85 81
-0.056659 0.029131 -0.028918 203 200 207
0.073405 0.076655 0.001482 154 151 146
-0.114999 -0.112331 0.126282 136 136 138
-0.007316 0.026897 -0.193518 145 148 139
-0.159088 0.022188 -0.019418 169 156 139
-0.007317 0.026878 -0.193518 131 135 121
-0.100379 0.049664 -0.079818 192 194 193
-0.007324 0.026867 -0.193518 88 81 75
0.065233 0.092746 -0.039118 161 161 151
0.005898 0.028433 -0.026318 197 196 204
-0.101919 0.008574 0.018782 180 163 153
-0.032246 0.066264 -0.084018 123 122 128
0.038713 0.038536 -0.002118 153 135 125
0.210822 -0.149255 0.143182 131 135 134
0.152870 0.021345 0.052082 79 86 79
0.032895 0.093058 -0.041518 168 163 159
-0.169994 -0.022775 0.041382 79 81 68
0.049545 -0.206198 0.259682 102 104 103
-0.024001 0.087656 -0.050318 139 107 86
-0.056601 0.066732 -0.110218 27 26 32
-0.096707 0.058591 -0.101718 170 175 178
-0.007367 0.026883 -0.193518 145 144 139
-0.044179 0.076803 -0.096918 112 112 114
-0.063712 0.054443 -0.092518 64 63 69
-0.126966 -0.134252 0.104482 134 134 134
0.143684 0.094471 -0.041718 143 153 142
0.242281 -0.069465 0.147282 114 120 118
-0.180972 -0.108583 0.047682 131 132 134
0.282246 -0.026044 0.133282 105 109 108
0.124731 0.101364 -0.060918 139 150 134
0.156678 -0.051827 0.176982 79 91 87
-0.027343 0.044460 -0.067918 188 187 195
-0.038223 0.051778 -0.083718 169 166 175
0.227502 -0.051312 0.163482 110 119 116
0.093697 0.011618 0.092982 82 87 83
0.121537 -0.144554 0.217982 117 118 120
-0.054461 0.069987 -0.110118 125 129 130
0.283244 -0.072965 0.115282 112 121 118
-0.218453 -0.026538 0.009582 164 146 110
0.135314 0.029610 0.068882 75 80 74
-0.104976 0.005597 0.022982 183 169 160
-0.099414 0.052225 -0.085918 189 189 191
-0.146170 0.036187 -0.048518 180 181 183
0.008320 0.083338 -0.017718 111 96 89
0.065017 0.092873 -0.039218 164 164 154
0.132114 -0.121293 0.219882 115 116 118
0.080909 -0.129251 0.257282 100 101 103
-0.040046 0.071389 -0.094318 121 118 125
0.027742 0.070736 0.009782 116 94 83
-0.053516 0.064876 -0.106718 157 158 160
-0.007394 0.026854 -0.193518 108 113 116
-0.072385 0.052269 -0.087218 189 189 189
0.091260 0.085518 -0.021518 162 159 152
-0.199762 -0.075453 0.036882 128 130 129
-0.006880 0.098844 -0.055118 160 153 147
-0.106500 -0.023287 0.122682 136 106 82
-0.020029 0.032181 -0.035018 198 195 204
-0.007350 0.026857 -0.193518 120 135 128
-0.048735 0.061355 -0.100518 143 140 147
0.146906 -0.176337 0.186982 128 130 129
-0.135592 0.036012 -0.046218 187 189 188
-0.007314 0.026876 -0.193518 119 120 112
-0.098613 0.058561 -0.101218 182 188 188
0.157131 0.016711 0.046882 76 86 78
-0.047712 0.050245 -0.081818 194 193 201
-0.051879 0.044702 -0.069118 189 186 193
-0.071840 0.060317 -0.105918 180 181 185
-0.025373 0.048415 -0.072818 168 165 176
-0.098114 0.033863 -0.040118 77 76 81
-0.097357 0.033425 -0.038518 81 82 86
-0.007365 0.026859 -0.193518 120 132 128
-0.140444 -0.020358 0.060282 86 88 75
-0.014533 0.101905 -0.062518 152 146 134
0.103825 -0.118829 0.242382 106 107 109
0.168375 -0.173341 0.170882 130 134 133
-0.004010 0.096425 -0.049418 145 136 131
-0.048983 0.052692 -0.088818 199 198 204
-0.065093 0.057303 -0.098818 196 196 198
-0.027508 0.007747 0.028382 174 173 178
-0.062731 -0.121869 0.189782 127 128 132
-0.173693 -0.096076 0.061282 132 134 131
-0.115115 -0.137024 0.118482 136 136 136
-0.060725 0.070825 -0.115318 118 123 126
0.010217 0.089074 -0.030518 142 131 125
0.256479 -0.154528 0.107182 125 134 131
-0.042734 0.045042 -0.070518 192 191 197
-0.024532 0.038881 -0.052418 176 176 184
0.281457 -0.006891 0.138982 99 104 100
0.126091 0.018319 0.070582 81 87 83
-0.119667 -0.094539 0.126582 131 131 133
-0.096401 -0.050132 0.170882 128 120 118
-0.170492 -0.084952 0.065982 134 134 134
-0.007383 0.026879 -0.193518 152 147 143
0.030059 0.031322 -0.013418 156 154 155
-0.007328 0.026873 -0.193518 110 112 101
0.090734 0.100106 -0.059218 106 112 110
-0.093528 -0.114779 0.152882 132 131 137
-0.078550 0.064472 -0.114218 169 177 179
-0.039306 0.024448 -0.016918 196 195 201
0.297743 -0.023219 0.120082 105 111 109
-0.007353 0.026874 -0.193518 10 10 8
0.055365 0.007329 0.121582 72 72 72
0.175347 -0.092242 0.190582 116 121 117
0.287339 -0.026229 0.127882 106 112 110
0.106978 0.098907 -0.053218 154 160 146
-0.028563 -0.079404 0.249582 101 100 105
-0.108645 0.004840 0.025782 184 167 159
0.029462 0.091729 -0.039118 165 162 157
-0.007488 0.098643 -0.054918 160 150 148
0.087633 -0.007564 0.095582 118 130 128
0.016246 0.100201 -0.060118 177 172 166
-0.108661 -0.128665 0.129582 136 136 136
-0.032732 0.089709 -0.060618 138 108 84
-0.137257 0.036837 -0.050618 180 184 183
-0.206739 -0.028473 0.023282 170 148 111
0.075492 -0.002821 0.102082 84 88 87
0.003233 0.040984 -0.043218 95 94 102
0.157286 -0.075436 0.212582 106 107 109
0.304093 -0.032188 0.114782 104 113 110
0.295634 0.002790 0.131482 94 96 93
-0.181588 -0.020503 0.032982 71 73 60
-0.061941 0.050523 -0.082818 195 193 198
-0.139353 -0.115547 0.095082 134 134 134
-0.152794 -0.114941 0.079282 134 134 136
-0.137844 0.036701 -0.050318 179 183 182
0.019029 0.028660 -0.022118 176 173 184
-0.007416 0.026852 -0.193518 90 85 89
-0.166470 -0.042277 0.064082 175 149 114
0.177298 -0.099436 0.189382 118 122 121
0.296493 -0.047974 0.114282 108 119 115
-0.100499 0.049599 -0.079518 190 192 191
-0.220954 -0.062620 0.013082 119 128 125
-0.045865 0.032662 -0.036118 199 196 205
0.088385 0.101075 -0.063218 105 109 110
-0.179450 -0.095839 0.053482 129 131 130
-0.119993 -0.021816 0.081082 88 85 78
-0.090983 0.052367 -0.085818 185 186 188
-0.007194 0.101430 -0.061318 170 163 157
0.196194 -0.133029 0.162182 128 130 129
-0.209020 -0.095912 0.016482 121 130 127
0.137226 0.099009 -0.053018 142 150 135
-0.007310 0.026881 -0.193518 131 134 123
-0.201116 -0.046915 0.027182 174 152 113
0.002833 0.082697 -0.019118 139 112 83
0.066319 -0.190451 0.249882 104 105 107
-0.007324 0.026871 -0.193518 28 24 23
0.290830 -0.055501 0.117182 111 120 115
-0.019972 0.086118 -0.045918 134 106 84
-0.007359 0.026883 -0.193518 145 145 133
-0.105874 0.046029 -0.071118 193 193 195
-0.024221 0.084678 -0.053718 120 100 76
-0.083135 -0.116144 0.164882 130 129 135
-0.007318 0.026885 -0.193518 138 140 127
-0.015366 -0.061192 0.274282 84 83 89
-0.007360 0.026855 -0.193518 119 131 129
-0.038005 0.094580 -0.066018 148 118 90
0.153309 -0.132582 0.197482 123 125 124
-0.102547 0.055054 -0.091918 184 190 190
-0.152315 -0.121339 0.078382 129 131 128
-0.068685 0.057948 -0.100318 194 193 198
0.313061 -0.013422 0.111082 101 105 104
-0.153782 -0.119523 0.076682 132 134 131
-0.114938 -0.127432 0.121982 135 136 140
-0.123598 -0.135419 0.108482 135 135 135
0.029334 0.081239 -0.009118 146 135 129
0.129746 0.079839 -0.006918 157 159 146
-0.007368 0.026858 -0.193518 119 131 129
-0.029853 0.029144 -0.028018 193 190 199
-0.079060 0.059713 -0.103618 156 157 162
0.269814 -0.058151 0.132582 111 120 115
-0.040249 0.007948 0.028882 192 191 197
-0.051104 0.052791 -0.088418 188 187 192
-0.117255 -0.110936 0.124682 133 133 133
-0.113609 -0.147882 0.117082 135 135 135
0.054230 -0.010320 0.115882 80 85 81
-0.006558 0.097713 -0.052218 150 139 133
0.087213 0.077523 -0.000918 163 161 149
0.101975 0.019870 0.089982 85 91 87
0.108422 0.015182 0.083082 79 84 80
0.160654 -0.043419 0.177682 79 90 86
-0.037723 0.071708 -0.092618 129 126 133
-0.020618 0.033774 -0.038318 196 193 204
-0.128668 0.045899 -0.070218 167 171 172
-0.063570 -0.037418 0.217482 111 108 115
-0.103936 -0.044897 0.115582 166 129 102
-0.012851 -0.174532 0.237682 113 114 118
-0.057254 0.031150 -0.034518 201 198 205
-0.007410 0.026832 -0.193518 46 49 40
-0.007402 0.026825 -0.193518 44 54 46
0.255647 -0.148914 0.108882 122 133 129
0.058470 0.078145 -0.003318 162 158 155
-0.007337 0.026887 -0.193518 151 153 140
0.270781 -0.095973 0.116882 121 127 123
-0.137955 0.039295 -0.054718 184 185 187
-0.177104 -0.010661 0.036682 55 55 47
0.076950 0.015150 0.107282 77 79 78
0.055547 0.099019 -0.056518 157 158 152
-0.007316 0.026867 -0.193518 162 163 158
0.084328 -0.222426 0.221282 115 119 118
0.277551 -0.045838 0.128782 112 116 115
0.263649 -0.059901 0.133782 115 121 119
0.293315 0.008267 0.135582 92 94 93
0.029302 0.093985 -0.043918 173 168 162
0.022803 0.093119 -0.040218 175 168 162
-0.179787 -0.015228 0.027482 78 81 70
-0.165745 -0.011975 0.041582 78 80 67
-0.035456 0.028791 -0.027118 202 199 206
-0.143221 -0.107067 0.093882 132 132 132
-0.161878 -0.114111 0.068282 131 133 132
0.000237 0.037647 -0.043718 166 164 175
-0.184951 0.013055 0.014482 39 38 33
-0.211920 -0.032935 0.016382 169 147 110
-0.131779 -0.078798 0.116482 131 129 132
-0.007323 0.026865 -0.193518 16 15 11
-0.020008 0.052953 -0.069518 123 120 131
-0.007326 0.026884 -0.193518 136 138 127
0.162213 0.035054 0.050782 77 82 75
0.297711 -0.057536 0.109782 111 120 117
-0.031707 -0.150509 0.220282 119 120 122
-0.075137 -0.025519 0.205882 114 111 118
0.130413 0.019557 0.067782 82 88 84
0.244026 -0.037868 0.156482 101 110 107
-0.007335 0.026858 -0.193518 119 136 128
-0.056045 0.061089 -0.105418 182 182 184
-0.009672 -0.106723 0.264882 84 85 87
0.100333 -0.126081 0.239882 110 111 113
0.215692 -0.141173 0.143282 128 134 132
0.077104 0.003909 0.103182 80 87 80
0.128846 0.100970 -0.058718 136 147 130
0.046305 0.084414 -0.019718 160 157 152
-0.138439 -0.131866 0.093082 131 133 130
-0.120893 -0.073318 0.134182 131 130 135
0.045109 0.100205 -0.058218 162 162 152
-0.139872 0.013613 -0.000318 176 164 152
-0.007359 0.026874 -0.193518 22 22 22
-0.007436 0.026915 -0.193518 75 72 67
-0.164525 -0.091820 0.071782 135 135 135
0.236552 -0.056505 0.155682 112 118 116
0.113014 -0.203261 0.206182 125 127 126
-0.007438 0.026853 -0.193518 162 147 140
0.088785 0.005862 0.094282 83 88 84
0.293557 -0.047153 0.115082 111 120 117
0.013873 0.087447 -0.027118 146 139 133
0.049117 0.096061 -0.049518 169 166 159
-0.126306 -0.074477 0.126482 128 126 129
-0.134726 -0.013585 0.065082 75 75 65
-0.009033 0.040692 -0.052918 180 176 190
0.150082 0.018895 0.052782 76 83 76
0.075341 0.056232 0.048482 158 153 149
-0.043592 0.095593 -0.072618 148 118 90
-0.196334 -0.087003 0.035182 125 129 128
-0.007434 0.026854 -0.193518 119 114 120
-0.039814 0.034195 -0.040218 203 200 209
-0.116492 0.022380 -0.011718 191 191 191
-0.166134 -0.096212 0.070582 131 131 131
0.135067 0.073133 0.005682 146 148 137
-0.127627 0.033905 -0.042818 181 181 183
-0.069244 0.062003 -0.108818 154 158 157
-0.136289 -0.058783 0.109482 120 114 114
-0.007404 0.026844 -0.193518 28 29 24
-0.192724 -0.015298 0.015782 90 93 82
-0.162062 -0.061493 0.069082 183 154 122
0.088771 0.078846 -0.005318 162 159 150
-0.007336 0.026881 -0.193518 110 111 103
-0.177623 -0.094374 0.057182 129 131 130
-0.013423 0.060469 -0.064718 156 155 163
-0.096014 0.057213 -0.098118 77 77 77
-0.125501 -0.032856 0.079182 90 90 80
-0.048345 0.079360 -0.098818 68 68 70
-0.178987 0.021974 -0.018618 166 157 140
-0.035580 -0.173017 0.210682 126 127 131
-0.010542 0.092110 -0.039418 122 105 98
0.090059 -0.197681 0.224382 115 119 120
-0.002773 0.052270 -0.050318 149 146 155
0.173466 0.082347 -0.015318 140 146 134
-0.089294 -0.096462 0.162582 129 128 133
0.066581 0.010859 0.113582 88 90 87
-0.054248 -0.184856 0.179182 134 135 137
-0.118254 0.038181 -0.053418 187 187 189
0.275462 -0.005137 0.143582 83 89 85
-0.061396 0.054776 -0.093318 57 56 64
0.114965 0.097913 -0.051818 156 160 146
0.068615 -0.060713 0.157182 81 90 89
-0.092216 0.006424 0.026882 116 112 101
-0.205055 -0.092066 0.022482 120 129 128
-0.087730 0.000849 0.035482 183 164 158
-0.151103 -0.123137 0.079482 132 134 133
-0.007396 0.026865 -0.193518 11 11 11
-0.156489 -0.016085 0.045782 85 87 74
0.248926 -0.070487 0.141782 115 119 118
-0.084907 0.054634 -0.094218 188 192 191
0.010465 0.056848 -0.031518 69 69 59
0.228849 -0.132659 0.137882 124 130 128
0.180102 -0.175469 0.161282 131 135 134
-0.007330 0.026880 -0.193518 126 127 119
0.072038 0.093574 -0.042618 158 160 149
0.066662 -0.059590 0.158882 91 100 99
0.018051 0.095237 -0.047218 171 166 160
0.235724 -0.086782 0.146482 118 127 124
0.103057 -0.154949 0.228482 115 117 114
0.196377 -0.077392 0.179682 120 122 121
-0.061805 -0.075989 0.207782 117 116 121
0.066641 -0.007601 0.106982 83 85 80
-0.205988 -0.091586 0.021182 123 129 129
-0.032499 -0.151955 0.218382 122 123 127
0.124944 0.098804 -0.053118 148 156 141
0.044515 0.099908 -0.058218 158 160 149
0.063467 -0.000778 0.111782 82 87 81
0.163335 -0.159889 0.179982 130 134 133
0.107525 -0.152378 0.227882 116 117 119
-0.007335 0.026884 -0.193518 121 124 115
0.240227 -0.055049 0.154382 112 118 116
0.042955 0.090691 -0.034518 163 158 154
-0.007317 0.026881 -0.193518 138 140 127
-0.193589 -0.069299 0.044182 134 134 134
0.136151 -0.058173 0.192882 72 84 82
-0.031145 0.056100 -0.082418 131 128 135
0.169487 -0.140118 0.183482 128 130 129
-0.037796 0.094599 -0.065718 148 118 90
0.274820 -0.111705 0.107382 119 128 125
0.025858 0.098547 -0.054218 172 167 161
-0.080572 -0.156158 0.156382 134 133 138
-0.142182 -0.020532 0.056782 86 88 75
-0.101660 0.039839 -0.055418 193 195 192
-0.007358 0.026855 -0.193518 121 133 131
-0.212415 -0.024358 0.016182 162 142 107
0.108024 0.083063 -0.013018 158 158 146
-0.015083 -0.180846 0.230282 117 118 122
-0.048316 0.022990 -0.012218 190 187 194
0.287692 -0.020583 0.127882 102 108 106
-0.007355 0.026875 -0.193518 19 19 19
-0.002441 0.044626 -0.049818 132 131 139
-0.007414 0.026851 -0.193518 75 74 80
-0.007362 0.026885 -0.193518 151 151 143
0.089183 -0.158945 0.241082 111 112 114
0.106432 0.088392 -0.028018 160 162 148
0.152383 0.010559 0.048082 91 101 93
-0.178905 -0.118201 0.047382 126 130 129
0.162517 -0.179773 0.173782 133 135 134
0.049867 0.096171 -0.049618 166 163 156
-0.084940 0.044839 -0.069118 199 199 199
-0.075815 0.061149 -0.107218 164 167 172
-0.177083 -0.043212 0.054382 179 151 112
0.021474 -0.022000 0.137482 77 77 77
-0.142417 -0.007960 0.059282 71 71 59
0.104635 -0.002315 0.081982 116 126 125
-0.208722 -0.025084 0.021082 162 142 105
-0.126451 0.014998 -0.002118 177 163 150
0.153754 -0.053005 0.178682 77 89 85
0.129668 0.088142 -0.026718 148 150 136
-0.107001 0.038146 -0.051918 184 184 186
-0.097580 0.030862 -0.032018 202 200 205
-0.047072 0.061070 -0.099618 136 133 140
0.168505 -0.073883 0.204682 108 109 111
0.148691 0.078777 -0.004818 152 156 142
-0.173006 -0.118098 0.053982 130 132 131
0.069747 0.088195 -0.029518 165 162 155
-0.007407 0.026842 -0.193518 57 62 56
-0.144198 0.030016 -0.029918 107 110 93
-0.137007 0.021442 -0.013718 81 81 71
-0.204016 -0.001546 -0.003918 80 86 72
-0.178750 -0.014667 0.037882 33 33 25
0.270591 -0.101235 0.114782 119 128 125
-0.131178 -0.080910 0.116682 131 129 130
-0.007388 0.026877 -0.193518 154 149 146
-0.086172 0.038522 -0.053018 200 198 201
0.203637 -0.077555 0.174482 120 124 123
-0.187035 -0.093814 0.045182 127 133 131
-0.007401 0.026865 -0.193518 17 16 14
-0.035496 0.080394 -0.081118 69 69 57
-0.058322 0.071276 -0.113418 126 130 129
-0.094500 0.038941 -0.053518 195 195 197
-0.187657 0.002813 0.006582 80 84 70
-0.007411 0.026817 -0.193518 118 120 119
-0.007368 0.026875 -0.193518 76 75 73
0.151668 -0.190234 0.178582 129 133 132
0.275520 -0.126074 0.102582 119 128 127
-0.002514 0.035589 -0.042318 182 180 191
0.059036 0.066313 0.026182 160 156 155
-0.044018 0.072544 -0.097618 118 115 122
-0.007414 0.026849 -0.193518 82 81 87
0.151206 -0.171687 0.185282 129 131 130
-0.215560 -0.021693 0.012682 160 142 104
0.117455 0.100638 -0.057418 150 153 142
-0.007325 0.026872 -0.193518 106 109 98
0.271159 -0.143045 0.097682 120 131 127
0.168552 0.031968 0.044482 75 83 72
-0.144203 0.019682 -0.014118 180 166 153
-0.007348 0.026880 -0.193518 71 71 63
-0.216446 -0.036350 0.009582 168 149 109
0.172660 0.028539 0.039982 70 81 73
0.076037 0.094893 -0.045518 161 161 149
0.275502 -0.101957 0.111682 121 127 125
-0.066397 -0.166406 0.168382 133 134 136
0.167390 0.082648 -0.013718 148 152 137
0.129512 0.098598 -0.054118 139 150 134
-0.169130 -0.094116 0.066082 131 133 132
0.156372 0.029979 0.052482 76 86 77
-0.072661 0.054997 -0.092918 182 182 184
0.084841 0.002894 0.095782 84 89 85
-0.007342 0.026878 -0.193518 38 34 31
0.012269 0.027898 -0.023618 187 184 193
0.249140 -0.106128 0.129982 123 127 126
-0.102367 -0.102297 0.145082 132 131 137
-0.029278 0.065344 -0.080718 129 127 130
-0.007368 0.026881 -0.193518 151 148 143
-0.133387 0.031144 -0.034718 189 188 193
-0.011806 0.021249 -0.007318 196 193 202
-0.037990 0.078561 -0.090218 88 87 83
0.092601 0.098804 -0.053718 162 164 153
-0.051253 0.022537 -0.009918 193 192 198
-0.028203 0.047269 -0.073318 181 178 187
0.097506 -0.188223 0.221182 117 118 120
-0.114629 -0.119550 0.125182 133 133 135
-0.121030 -0.110834 0.119682 133 133 133
0.082017 -0.198251 0.234182 114 115 117
-0.094511 0.059758 -0.102118 153 158 162
0.035097 0.088262 -0.029818 169 164 160
-0.152230 -0.052393 0.080482 180 149 118
-0.051785 0.070777 -0.107118 129 127 132
-0.007409 0.026851 -0.193518 48 47 53
-0.100966 0.049876 -0.080618 191 192 194
-0.007379 0.026870 -0.193518 15 13 14
-0.116481 0.032140 -0.036218 192 192 194
-0.069810 0.056516 -0.097318 197 197 199
0.299120 -0.028039 0.120082 106 112 110
-0.173553 0.000233 0.024082 82 84 71
-0.120120 -0.096691 0.124882 132 132 134
0.194360 -0.089464 0.178982 121 125 124
0.256363 -0.109318 0.124982 118 127 124
-0.081866 0.038838 -0.054718 199 197 200
0.122899 -0.143070 0.216582 117 118 120
-0.052934 0.029486 -0.029318 198 195 202
-0.168881 -0.062342 0.065682 154 126 89
-0.032421 0.037524 -0.049818 197 194 201
0.280043 -0.008446 0.139882 99 101 100
-0.097232 0.056093 -0.094818 181 185 186
-0.179467 -0.077543 0.059082 133 135 134
-0.200331 -0.009327 0.004482 84 92 77
0.256369 -0.065072 0.138182 116 122 120
-0.007030 0.057915 -0.054618 121 118 125
0.108837 0.009576 0.080482 81 86 82
-0.174088 0.022158 -0.018318 165 153 139
0.123126 0.088436 -0.026418 154 156 142
0.037935 0.084638 -0.019618 168 163 159
-0.156154 0.032981 -0.036818 91 97 85
-0.007372 0.026871 -0.193518 11 11 11
0.239908 -0.120257 0.131382 124 130 128
0.139522 0.050910 0.068682 118 117 112
0.091253 0.075508 0.003782 164 161 152
-0.127683 -0.149482 0.098282 133 135 134
-0.100731 -0.140121 0.135382 133 133 133
-0.016068 0.045691 -0.063218 153 153 163
-0.025996 0.054145 -0.077218 156 154 165
-0.146537 -0.060922 0.086582 180 151 117
-0.007375 0.026883 -0.193518 154 151 146
-0.019409 0.047888 -0.067218 155 153 164
0.308905 0.009984 0.123682 89 93 92
-0.009422 0.047200 -0.057918 161 157 171
-0.106438 0.022393 -0.012218 190 191 195
0.047086 0.097984 -0.053518 162 159 150
0.005686 0.097883 -0.054018 171 166 162
-0.159154 0.017228 -0.008618 177 164 148
-0.007343 0.026859 -0.193518 121 136 131
-0.085696 0.066204 -0.118718 169 179 178
-0.183408 0.024367 -0.024518 165 156 139
-0.134390 -0.006792 0.069682 60 56 47
-0.148695 -0.119292 0.082982 132 134 131
-0.117197 0.026778 -0.023318 167 167 167
-0.069069 0.066792 -0.117118 150 158 161
-0.098832 0.052921 -0.087418 171 171 173
-0.155120 -0.100037 0.081382 132 132 132
-0.033235 0.055920 -0.084918 148 147 153
0.049770 0.085382 -0.021918 167 164 159
-0.179150 -0.001010 0.015482 79 81 68
0.149604 0.081621 -0.011218 150 154 140
-0.007394 0.026868 -0.193518 38 36 37
-0.053820 -0.024728 0.235782 100 98 103
-0.196094 -0.030378 0.033682 169 145 107
0.127029 0.025844 0.074182 80 85 81
0.291098 -0.012255 0.131982 100 106 104
-0.033980 0.064211 -0.088118 139 136 143
0.090429 -0.133937 0.251082 101 105 106
-0.117242 0.013263 0.004782 123 115 102
0.168799 0.034101 0.045882 73 83 74
-0.044815 0.084446 -0.089218 63 61 49
-0.007344 0.026860 -0.193518 121 138 132
-0.007400 0.026826 -0.193518 31 41 33
-0.169203 -0.121427 0.057782 128 132 131
-0.179170 -0.113705 0.047382 129 131 130
-0.097162 -0.120374 0.146482 132 131 136
-0.007355 0.026877 -0.193518 32 33 28
0.143753 0.004999 0.057082 118 130 126
-0.106645 -0.154651 0.125382 134 134 134
-0.107963 0.044926 -0.068518 193 195 192
-0.056370 0.055601 -0.095018 170 167 174
-0.067337 0.064182 -0.113718 170 174 177
-0.111296 0.053292 -0.088718 171 175 176
0.165730 -0.164242 0.178082 126 130 129
0.267473 -0.124097 0.108382 120 129 126
0.036607 0.097078 -0.051618 171 166 160
-0.214322 -0.042791 0.013482 125 105 70
-0.005434 -0.012854 0.206382 62 58 59
0.003684 0.050463 -0.043818 141 140 148
-0.166536 -0.074566 0.074682 138 138 138
-0.007363 0.026886 -0.193518 148 148 140
-0.077588 -0.145766 0.162682 134 134 136
-0.198314 -0.060763 0.042282 136 136 134
-0.007364 0.026847 -0.193518 115 125 124
0.139345 0.086914 -0.022918 148 150 136
0.133505 0.098232 -0.052418 144 152 137
0.177195 -0.070924 0.198082 108 112 113
0.256212 -0.097111 0.127782 119 128 125
-0.054940 0.059543 -0.102718 181 180 185
-0.192383 0.021439 -0.013618 161 154 138
-0.140595 -0.062613 0.092982 180 151 121
-0.072823 -0.176732 0.158082 137 137 139
-0.191832 -0.060905 0.048382 138 137 135
0.263343 -0.058954 0.134282 110 119 116
-0.042342 0.051943 -0.086618 186 183 192
-0.007373 0.026843 -0.193518 111 112 116
-0.189100 -0.095610 0.042082 128 132 133
-0.007432 0.026915 -0.193518 101 88 71
-0.072429 0.066006 -0.116518 156 161 164
-0.007312 0.026881 -0.193518 131 137 125
0.028360 0.087411 -0.027718 167 162 158
-0.035221 0.090579 -0.063318 138 108 84
-0.034161 0.069666 -0.089218 131 128 137
-0.095773 0.039604 -0.056318 197 197 197
-0.131312 -0.027226 0.069282 88 90 79
-0.007327 0.026889 -0.193518 148 155 139
0.060482 0.071953 0.012282 165 160 156
-0.007337 0.026855 -0.193518 119 134 129
0.042372 0.097234 -0.051618 168 164 155
0.206621 -0.143513 0.149482 128 134 132
-0.098344 -0.029736 0.116182 158 114 77
-0.007378 0.026877 -0.193518 145 142 137
0.104537 0.096115 -0.046718 161 163 150
0.085384 0.089611 -0.030518 164 162 149
0.065765 -0.124849 0.271082 91 93 92
-0.007327 0.026881 -0.193518 129 131 118
-0.007327 0.026874 -0.193518 114 116 105
0.002937 0.093695 -0.042718 159 148 146
-0.077242 0.045544 -0.072518 199 199 197
-0.078597 0.065701 -0.116618 161 170 169
-0.159874 0.024405 -0.027118 168 159 142
0.234968 -0.047850 0.160082 111 117 115
-0.038549 0.047439 -0.076118 190 189 195
-0.018211 0.079805 -0.054018 83 80 73
-0.073670 0.062442 -0.110618 159 162 167
0.025935 -0.025737 0.131382 77 77 79
-0.007376 0.026870 -0.193518 21 20 18
0.210183 -0.147641 0.147982 129 133 132
0.037195 0.081110 -0.010918 167 159 156
-0.056778 0.051352 -0.086118 189 188 194
0.198640 -0.159492 0.151882 130 136 134
-0.071450 0.041325 -0.059918 199 197 202
-0.183028 -0.004178 0.015182 82 88 74
-0.057299 0.055622 -0.095318 173 170 177
0.281473 -0.057620 0.119982 113 124 120
-0.030472 0.060889 -0.082718 122 119 126
0.118720 0.077941 -0.002518 158 160 149
-0.149492 0.034909 -0.042618 131 138 131
-0.219330 -0.061050 0.015282 124 128 127
-0.030189 -0.162393 0.217482 123 124 128
-0.066109 0.025815 -0.018518 198 196 201
-0.082426 0.065697 -0.117618 165 174 173
-0.064022 0.059147 -0.103818 198 198 198
-0.007371 0.026811 -0.193518 130 134 133
0.162199 -0.074378 0.208382 106 107 109
0.017874 0.098640 -0.055218 175 170 166
-0.083965 -0.174886 0.145882 132 136 137
0.104203 0.082040 -0.011818 159 159 149
-0.064120 0.070662 -0.118118 120 128 130
-0.191128 -0.098137 0.039082 126 130 131
-0.073397 0.067962 -0.120418 148 158 159
-0.007332 0.026883 -0.193518 119 125 113
-0.087872 -0.112059 0.161482 132 131 137
-0.033736 0.054411 -0.083318 160 157 166
-0.179377 -0.055572 0.050682 178 150 113
-0.068957 0.064519 -0.114118 172 177 180
0.254417 -0.141147 0.112882 121 132 128
-0.093375 -0.039464 0.120382 145 116 98
-0.108281 0.053932 -0.088018 188 192 191
0.056057 -0.000673 0.118182 84 86 85
-0.007403 0.026830 -0.193518 40 42 37
0.196724 -0.065967 0.184882 111 115 116
-0.218078 -0.076746 0.010082 119 128 125
