ply
format ascii 1.0
element vertex 1199
property float x
property float y
property float z
property uchar red
property uchar green
property uchar blue
end_header
0.010787 -0.000609 -0.000545 25 29 32
-0.017870 -0.025129 0.009055 124 105 98
0.002445 0.003192 -0.055145 50 50 48
-0.042578 0.024715 -0.003045 135 135 133
-0.043195 -0.004744 0.008555 181 179 180
0.034064 0.018339 -0.019745 161 181 180
0.002443 0.003198 -0.055145 179 176 167
-0.035815 -0.032433 0.003955 173 170 155
-0.057905 -0.046588 0.031255 162 164 159
-0.005124 0.007749 -0.005645 168 166 169
-0.040905 0.008400 -0.009045 139 122 96
0.033308 0.009617 -0.006745 163 174 178
0.002408 0.003154 -0.055145 82 84 63
0.023052 -0.036446 0.021055 174 174 172
0.017708 0.022700 -0.020445 169 170 165
-0.017440 0.007971 0.007255 147 141 143
0.062319 -0.003938 0.005855 190 196 192
-0.040170 0.008770 -0.009345 143 123 98
-0.007597 0.006616 -0.003845 160 158 161
-0.030367 0.009981 0.003855 162 158 157
0.002793 -0.034539 0.043155 152 154 153
0.006925 0.014337 -0.014745 198 197 202
-0.037673 0.002722 0.003255 165 167 166
0.034856 -0.030441 0.012955 175 180 176
-0.037831 0.026079 0.004055 137 138 133
0.031443 0.020538 -0.022645 164 182 184
0.053160 -0.020641 0.003555 176 182 180
-0.006009 0.002541 0.002255 137 143 155
-0.021250 -0.001109 0.008655 174 168 168
-0.021413 -0.024524 0.008155 104 84 77
0.002449 0.003176 -0.055145 48 50 49
0.033485 -0.019081 0.024855 180 180 180
0.057805 -0.015723 0.001955 175 184 181
-0.050936 -0.016248 0.008855 110 110 110
0.022747 0.006391 -0.003845 135 147 159
0.010335 0.007647 -0.004945 151 158 174
0.063299 0.005896 0.006855 53 59 57
0.029494 0.010751 -0.009245 165 176 180
0.029098 0.017999 -0.019245 163 179 178
-0.007970 0.014520 0.001255 151 145 147
0.002462 0.003195 -0.055145 96 97 99
-0.019493 0.010773 0.010755 141 135 137
-0.037808 0.003298 0.002255 167 166 162
0.021666 0.020253 -0.022845 197 199 196
-0.070368 -0.036661 0.015355 158 164 162
-0.026070 0.040859 0.030855 167 161 163
0.002352 0.003178 -0.055145 115 110 106
-0.039871 0.023464 -0.000545 144 145 140
0.055401 0.007007 0.012055 43 48 44
-0.024389 -0.002503 0.010155 173 171 172
0.023272 0.014487 -0.014845 168 179 183
0.005655 -0.011402 0.025655 49 49 51
-0.020395 -0.018645 0.012355 185 174 168
-0.022150 -0.011777 0.017555 169 160 153
-0.069952 -0.015289 0.027555 120 118 119
0.019808 0.012832 -0.012345 167 176 185
-0.016114 -0.015013 0.016455 180 171 164
0.041304 -0.008565 0.017455 89 89 89
0.002451 0.003178 -0.055145 100 100 98
-0.043447 -0.009514 0.014355 118 117 115
-0.004733 0.002091 0.002655 136 144 157
-0.026563 -0.018807 0.005255 109 75 63
0.010037 0.002438 0.000555 8 9 14
-0.018724 0.033502 0.026555 149 143 145
-0.001819 0.017140 -0.004145 155 151 152
0.002452 0.003196 -0.055145 49 51 50
-0.060256 -0.009201 0.019855 163 163 163
0.041073 -0.033055 0.005655 174 181 174
-0.006318 -0.002439 0.010255 163 164 168
0.037219 -0.034046 0.008255 174 179 175
-0.038390 0.009631 -0.007045 142 139 130
-0.023475 -0.026668 0.007255 179 172 162
0.044095 -0.003801 0.013755 164 175 177
0.025477 -0.039011 0.016855 175 177 174
-0.029587 0.026365 0.015455 162 158 159
0.023696 -0.031607 0.023755 174 176 175
-0.038975 0.005307 -0.001245 164 165 160
0.011038 0.014255 -0.015045 201 201 201
0.035379 -0.028321 0.014055 177 179 178
-0.044946 0.022436 -0.007945 136 141 137
0.048763 -0.025156 0.003955 174 180 176
0.029634 0.017645 -0.018845 165 181 181
-0.001166 -0.033834 0.034155 140 151 147
-0.043153 -0.000186 0.007155 176 176 174
0.059554 -0.016649 -0.000345 173 182 179
-0.040324 0.010735 -0.011945 143 123 98
-0.011029 -0.023650 0.012255 138 151 134
0.007084 0.001239 0.003455 113 119 141
-0.049011 -0.002655 0.010255 166 165 163
0.033400 0.018747 -0.020145 163 183 184
0.017107 -0.037174 0.027155 172 172 170
-0.020072 -0.029981 0.005655 181 173 160
0.005648 -0.047923 0.030155 166 166 164
0.038228 0.006306 -0.000345 156 167 169
0.012905 0.024801 -0.013945 169 167 168
-0.028375 -0.013518 0.010855 111 77 67
-0.028862 0.020482 0.013355 162 158 159
-0.047934 0.004707 -0.003545 141 121 96
-0.070060 -0.015187 0.017455 37 36 34
0.002445 0.003198 -0.055145 189 184 181
-0.021530 -0.007489 0.016655 178 176 177
0.011357 0.018978 -0.016345 176 171 175
-0.024235 0.004897 0.007755 134 129 135
0.015590 0.022174 -0.017545 119 115 114
-0.056567 -0.000507 0.007955 154 154 152
-0.050002 -0.006365 0.011055 116 118 117
0.014697 0.023158 -0.016845 168 166 167
-0.029328 0.004736 0.001755 163 159 158
0.020239 0.017880 -0.019345 198 200 199
0.000706 -0.005835 0.001355 31 31 33
0.011174 -0.039464 0.031055 166 166 164
-0.044120 -0.021031 0.013655 112 109 100
0.002442 0.003175 -0.055145 73 75 74
0.041417 0.014476 -0.013745 46 50 49
0.052633 -0.028410 -0.002245 167 179 175
0.029325 0.016814 -0.017945 163 177 180
0.006429 0.004839 -0.001045 140 148 167
0.011558 0.001544 -0.000245 30 31 35
0.061295 -0.012650 0.000855 174 185 181
-0.072901 -0.028782 0.020555 131 133 132
-0.008650 0.031838 0.014055 146 142 143
0.008094 0.019450 -0.012645 167 165 166
0.028193 0.015829 -0.016445 166 180 181
-0.047034 -0.002513 0.009455 152 151 147
-0.038787 0.004218 0.000755 164 166 163
-0.069569 -0.014135 0.018755 40 39 35
-0.072768 -0.017180 0.027855 93 93 93
0.002410 0.003165 -0.055145 134 151 145
0.002463 0.003193 -0.055145 78 79 83
-0.017763 0.023142 0.018455 148 142 144
-0.030402 0.042652 0.026355 160 156 153
-0.041432 0.026346 -0.000545 132 133 127
-0.013480 -0.000249 0.007055 173 171 174
0.019429 0.006346 -0.003645 133 143 153
0.007149 0.032448 -0.002945 160 156 155
0.019605 0.019172 -0.021445 198 200 195
0.011706 -0.040365 0.029855 168 169 164
0.056373 0.002834 0.005955 57 63 63
0.060870 0.011707 0.009055 47 49 48
-0.034253 -0.014200 0.014155 180 170 161
0.035591 0.019221 -0.020945 163 182 186
0.002394 0.003244 -0.055145 149 143 145
0.029351 0.019057 -0.020645 168 182 185
0.037573 -0.007481 0.019355 75 76 78
0.039797 0.000730 0.008255 155 169 172
0.054205 -0.022056 0.001655 174 183 180
0.027390 0.017922 -0.019145 166 180 181
0.048327 -0.030385 0.000655 173 182 177
-0.025159 -0.003535 0.011855 177 173 174
-0.032443 0.014262 0.003855 160 159 155
0.024841 0.011919 -0.011245 165 174 179
-0.034823 0.009793 -0.002345 163 162 158
-0.050271 0.003649 -0.001145 123 111 99
0.029981 0.021311 -0.023545 165 185 186
-0.016012 -0.023183 0.013155 166 159 151
-0.036398 -0.002799 0.011055 181 177 178
-0.052258 -0.006204 0.013055 152 152 150
0.053046 -0.013583 0.008355 183 188 184
-0.008983 -0.016988 0.015655 84 83 65
0.046092 -0.015743 0.012855 182 184 183
-0.043424 0.030269 -0.000745 119 120 114
-0.047336 0.029509 -0.007545 107 112 106
-0.006023 -0.023343 0.010755 139 160 151
0.015529 -0.028424 0.034955 175 175 175
-0.051102 -0.011262 0.011155 112 112 112
0.001473 0.012016 -0.011245 174 169 175
0.019263 0.021767 -0.022045 167 169 166
-0.004863 0.003904 0.000255 129 136 152
0.002351 0.003173 -0.055145 98 93 90
0.027905 -0.032294 0.018855 177 177 175
0.032328 -0.020894 0.022755 176 176 176
0.002389 0.003248 -0.055145 148 144 143
-0.030969 0.022799 0.011255 160 156 155
-0.038050 -0.004607 0.012855 182 178 177
-0.038339 0.036747 0.009855 147 146 142
-0.061983 -0.004212 0.013355 151 151 149
0.005343 0.016516 -0.011845 165 160 164
0.060485 -0.008925 0.004655 183 189 185
-0.042120 0.007850 -0.004545 151 151 149
-0.034850 0.018182 0.002955 158 157 155
0.046124 -0.013663 0.014455 183 187 186
-0.028481 0.010714 0.007255 161 157 156
0.058635 -0.017947 0.000055 172 183 177
0.002397 0.003254 -0.055145 148 143 140
0.039943 -0.017186 0.017755 180 184 183
-0.074536 -0.021103 0.024855 103 103 101
0.018646 0.017406 -0.018945 199 201 200
0.050657 -0.005031 0.012655 194 198 197
-0.039234 0.040741 0.011755 149 148 144
0.055004 -0.019420 0.002255 174 183 178
0.002350 0.003173 -0.055145 111 106 100
-0.003428 -0.021790 0.013455 136 156 145
0.031149 0.018767 -0.020445 163 181 183
-0.034510 0.011548 0.000055 162 158 157
0.038934 -0.033596 0.007255 177 179 174
-0.044229 0.023343 -0.006245 136 138 135
-0.038242 -0.032315 0.004855 152 146 134
0.004687 0.014661 -0.012545 165 159 163
-0.021993 0.024823 0.021855 152 146 148
0.002435 0.003188 -0.055145 57 57 57
-0.039040 0.028468 0.003555 136 135 131
0.004555 0.010089 -0.008245 159 163 175
-0.042631 0.023397 -0.004345 140 142 139
0.027789 0.019072 -0.020445 166 181 184
0.022953 0.017842 -0.019145 169 180 182
-0.013453 0.015878 0.009455 147 141 143
-0.005217 -0.002064 0.010055 140 144 156
-0.041137 0.011713 -0.013445 141 125 99
0.009391 0.031305 -0.006145 150 144 144
0.025386 0.020977 -0.023645 196 200 199
0.028512 -0.033545 0.017155 177 177 177
-0.073035 -0.023859 0.018255 63 63 63
-0.024382 0.013165 0.013255 162 156 160
0.002659 -0.019165 0.033955 178 178 180
0.018614 0.009459 -0.007545 158 168 178
0.011975 0.015624 -0.016945 203 204 206
-0.036952 0.010003 -0.011145 135 113 89
-0.022803 -0.018852 0.011855 180 169 163
-0.032147 -0.014403 0.014055 174 165 156
-0.037932 -0.024694 0.010355 97 84 76
-0.000286 0.000698 0.004055 134 141 159
0.002443 0.003187 -0.055145 21 21 23
-0.029775 0.022505 0.013055 160 156 155
-0.034900 0.006234 -0.002645 159 159 157
0.002406 0.003252 -0.055145 153 149 150
-0.021820 0.015614 0.015655 143 137 139
0.033412 0.012690 -0.012345 158 176 176
-0.008811 0.009421 -0.001545 150 141 146
0.002950 0.006616 -0.003845 152 159 175
-0.024839 0.058000 0.046755 164 160 159
0.017231 0.011911 -0.011045 166 175 184
-0.025764 -0.023229 0.008555 61 60 55
0.031602 0.020372 -0.022345 163 183 184
-0.035872 0.009901 -0.003745 152 151 149
-0.037034 0.015166 -0.001945 161 160 158
0.010078 0.000341 0.000855 34 35 40
0.039805 -0.017322 0.017955 179 183 182
0.007583 0.017163 -0.013745 169 164 168
0.009885 -0.031267 0.038655 173 173 173
-0.031563 0.011933 0.003455 163 159 158
0.034847 0.007675 -0.003345 161 172 174
0.040200 -0.004355 0.020855 78 81 86
-0.012463 -0.020146 0.015555 134 146 136
0.037359 0.015078 -0.016945 49 47 50
0.054697 0.000201 0.007655 164 178 179
0.002398 0.003151 -0.055145 163 121 83
0.035300 -0.034879 0.009555 176 178 175
0.030616 0.020047 -0.021845 164 182 184
-0.043865 0.006423 -0.005945 144 123 102
-0.013228 -0.003861 0.012155 174 172 173
-0.029312 0.002599 0.002755 164 160 159
0.002380 0.003251 -0.055145 163 159 158
0.013069 0.017246 -0.018945 203 201 202
0.004583 -0.004407 0.011755 96 99 104
-0.036456 -0.024787 0.008755 98 84 75
-0.019648 0.009935 0.010355 144 138 140
-0.042868 0.010453 -0.011645 133 113 88
-0.071378 -0.016524 0.028555 117 117 119
-0.057779 -0.045354 0.032455 157 158 150
-0.037713 -0.032263 0.004655 160 154 142
0.047098 0.000971 0.007355 161 175 176
-0.005371 0.008888 -0.006145 161 152 157
0.054456 -0.019223 0.003055 174 183 178
0.020925 0.013838 -0.013745 168 178 187
0.051116 -0.028030 -0.000145 171 180 177
-0.042447 0.032854 0.002055 125 126 121
0.064026 0.008442 0.005555 49 55 53
0.005712 -0.042326 0.034455 164 164 162
0.030952 0.006645 -0.002545 159 170 176
0.041323 0.013994 -0.013845 45 49 48
0.059365 -0.013546 0.002455 177 183 181
0.036843 0.020016 -0.022545 156 180 182
-0.014273 0.010088 0.005955 147 141 143
0.034029 -0.025798 0.017055 176 178 177
0.058526 -0.005094 0.008555 192 198 194
0.033162 -0.020338 0.022055 176 176 174
0.030505 0.015839 -0.016545 165 181 181
0.031397 0.015754 -0.016545 166 180 180
0.050806 -0.004882 0.012655 191 195 194
0.005901 0.013845 -0.014245 194 195 199
-0.045636 -0.024569 -0.006345 167 173 171
0.042247 -0.029832 0.006755 177 179 176
-0.037845 0.005527 -0.001645 162 163 158
-0.056760 0.000715 0.002155 139 124 103
0.024179 0.018559 -0.020045 170 181 185
-0.013730 0.026730 0.017055 144 138 138
0.024401 0.013523 -0.013545 168 177 182
0.002341 0.003145 -0.055145 160 161 155
0.036172 0.004001 0.002855 156 167 171
-0.025941 -0.028210 0.003955 119 90 76
0.029239 0.018675 -0.020045 165 180 183
0.002403 0.003159 -0.055145 140 149 144
0.002408 0.003165 -0.055145 134 149 142
0.002396 0.003246 -0.055145 147 143 144
0.016801 0.012709 -0.012045 170 179 188
0.002405 0.003255 -0.055145 154 150 151
0.052901 -0.018409 0.005255 177 183 179
-0.018177 -0.044746 0.040255 150 150 148
-0.010177 0.026709 0.012855 144 138 140
0.040023 -0.006370 0.017755 78 82 81
0.061396 0.003236 0.003855 148 164 163
0.023922 0.018829 -0.020645 180 191 195
-0.002681 -0.015837 0.019055 134 154 145
0.054114 -0.012784 0.007955 180 186 182
-0.033811 0.016811 0.003655 159 158 154
-0.020281 -0.058606 0.048955 177 178 173
0.011467 0.026599 -0.011245 140 138 139
-0.067475 -0.010793 0.021355 123 125 124
-0.043069 0.017191 -0.008645 139 141 136
-0.021798 -0.017730 0.012755 183 172 168
0.017869 0.019895 -0.022145 187 187 185
-0.022014 0.016699 0.016455 144 138 140
0.044047 -0.025125 0.008255 173 180 173
0.002432 0.003182 -0.055145 72 73 75
0.064151 -0.000939 0.005155 194 200 198
-0.038379 0.004098 0.000955 165 165 163
0.051092 -0.019741 0.006155 177 182 176
-0.036544 0.009767 -0.010445 123 107 92
0.002490 0.003217 -0.055145 44 48 47
-0.017134 -0.032730 0.009655 174 166 155
0.062979 -0.007294 0.003255 182 188 184
-0.044785 -0.007862 0.012655 118 116 117
-0.013415 -0.022721 0.014955 125 141 130
0.011534 0.025185 -0.011845 168 166 167
0.005462 0.003419 0.000855 132 141 158
-0.017339 -0.029446 0.008255 180 174 162
0.004511 -0.039602 0.037955 161 161 161
-0.012337 0.025662 0.014955 145 139 139
0.010410 0.013183 -0.013245 198 198 206
0.018489 0.016061 -0.017145 177 184 192
0.020055 -0.036635 0.023755 170 172 167
-0.043962 -0.018590 0.014555 101 100 96
0.003875 0.021396 -0.006845 165 161 162
-0.034006 0.013509 0.001155 160 159 154
0.040180 -0.014100 0.019655 187 189 188
-0.035169 0.018719 0.003055 157 156 154
-0.051230 -0.009297 0.011955 104 104 104
-0.028485 0.031363 0.020555 167 163 164
-0.036587 0.008435 -0.005845 156 155 151
-0.024536 0.003987 0.006855 165 163 164
0.021373 -0.027311 0.029655 171 171 171
0.051095 -0.021091 0.005155 177 182 178
0.056008 0.007692 0.012355 47 49 48
-0.005360 -0.004051 0.012555 153 151 152
-0.037508 0.018928 -0.000245 159 158 156
0.004066 0.009577 -0.007445 163 170 186
0.053780 -0.025603 -0.000845 173 179 175
0.007207 0.021567 -0.010445 165 163 164
-0.028777 0.004689 0.002355 162 160 161
-0.046248 -0.014442 0.025755 140 133 127
-0.017485 -0.034255 0.006755 174 171 156
-0.040720 0.014727 -0.006745 128 127 123
0.012315 -0.042419 0.027155 167 167 165
0.025681 0.008130 -0.005645 150 165 172
-0.011459 0.025321 0.013655 143 137 137
0.002501 0.003227 -0.055145 42 44 43
-0.011568 0.023198 0.012355 145 139 141
-0.029024 0.033056 0.021055 167 163 164
-0.002870 0.011463 -0.006845 152 146 150
0.036172 0.018811 -0.020345 161 181 182
-0.030927 0.015388 0.006955 162 158 155
-0.029683 0.010341 0.005255 162 158 159
-0.043847 -0.023098 -0.004845 138 142 141
-0.018591 -0.023155 0.009755 184 177 167
0.026496 0.008979 -0.006745 162 173 179
0.060678 0.004065 0.007555 54 58 57
0.013869 0.011506 -0.010345 167 175 186
-0.045106 0.020860 -0.009345 139 144 140
-0.042239 -0.024644 -0.005345 172 176 175
-0.035663 0.015493 0.000055 159 158 154
0.031137 0.020555 -0.022545 164 182 184
0.013417 0.020874 -0.017045 168 168 168
0.002393 0.003186 -0.055145 32 32 34
0.031687 0.013897 -0.014045 164 179 182
0.043610 -0.002135 0.011855 161 175 178
0.002346 0.003157 -0.055145 134 134 124
0.002380 0.003255 -0.055145 162 158 157
-0.003741 0.018401 -0.001045 154 148 150
0.015421 0.001267 -0.005545 36 37 42
-0.037533 0.015111 -0.002445 160 159 157
-0.039911 0.028502 0.002455 132 133 128
0.035704 -0.008443 0.019755 74 75 79
0.028801 0.002075 0.000355 43 48 51
-0.039796 -0.026895 -0.003645 170 172 169
0.046938 0.001539 0.006655 160 174 175
0.041000 -0.017758 0.016155 178 182 181
-0.044817 -0.002600 0.008855 161 160 158
0.056276 -0.003161 0.009555 196 201 195
-0.016709 -0.003147 0.011655 181 176 180
0.029720 -0.020223 0.025155 95 99 98
0.002403 0.003159 -0.055145 140 149 144
-0.012673 -0.004062 0.012655 166 164 165
-0.035140 0.047570 0.024255 151 150 146
-0.025220 0.007804 0.008755 166 162 163
-0.025993 -0.013996 0.014255 166 155 151
0.024978 -0.036604 0.018855 176 176 176
0.001421 0.001633 0.003155 127 136 153
-0.035537 0.017938 0.002255 158 157 155
0.010805 0.023237 -0.012645 167 167 167
-0.035621 0.020689 0.003655 154 151 146
-0.036305 0.010791 -0.003845 158 157 153
-0.026975 0.002590 0.003555 165 163 164
0.022682 -0.036200 0.021555 173 174 169
0.041997 -0.014893 0.017555 186 188 187
-0.023045 0.022520 0.020455 147 141 141
-0.074915 -0.021661 0.020655 63 63 61
0.006853 0.021533 -0.010045 165 163 164
0.028779 0.015497 -0.016145 165 180 183
-0.035067 0.030268 0.010255 154 150 147
-0.072293 -0.033458 0.017455 148 153 149
-0.040124 -0.021617 0.000255 152 157 153
-0.007335 -0.006393 0.015555 158 158 160
0.042976 -0.027541 0.007355 175 182 175
0.030911 0.018187 -0.019645 165 180 183
0.002314 0.003253 -0.055145 98 103 99
0.017422 0.010235 -0.008645 162 172 182
0.002496 0.003204 -0.055145 45 49 50
0.011641 0.015099 -0.016045 202 202 204
0.049827 -0.006722 0.014055 199 201 198
0.005435 0.025658 -0.005645 161 159 160
0.034648 -0.029795 0.013955 176 178 175
-0.025685 0.013433 0.012055 160 158 161
0.062260 -0.009828 0.002255 175 186 182
0.009678 -0.035223 0.036055 167 167 167
-0.022978 0.022303 0.020255 151 142 145
0.050228 -0.028177 0.000655 173 179 175
-0.035112 -0.003338 0.011355 181 177 178
0.010732 0.019775 -0.015245 171 169 172
-0.037533 0.015227 -0.002445 161 160 158
0.055318 -0.026379 -0.004145 166 178 174
-0.040629 0.014131 -0.013845 119 106 90
0.001941 0.014638 -0.009845 159 153 157
-0.039527 0.034724 0.006855 140 139 135
0.009415 0.010358 -0.008845 166 173 189
0.019438 0.006017 -0.003445 122 132 144
0.031985 0.016855 -0.017945 166 182 182
0.058295 0.012903 0.011455 43 45 44
0.002393 0.003243 -0.055145 146 140 142
0.058507 -0.012617 0.003955 175 184 181
-0.024207 0.063070 0.049555 149 145 144
0.000459 0.000121 0.005155 133 142 159
0.009478 0.019946 -0.013845 169 167 170
-0.025646 0.050470 0.040355 161 157 156
-0.037908 0.027322 0.004555 138 137 132
0.030269 0.012880 -0.012545 167 179 179
-0.040197 -0.025933 -0.003845 171 173 172
0.020454 -0.018912 0.031055 121 119 120
0.055068 -0.008851 0.009555 188 194 190
0.055297 -0.020720 0.001155 173 182 179
0.013423 0.012133 -0.011145 170 176 190
0.007040 0.004141 -0.000145 134 142 161
-0.045037 0.019770 -0.009845 143 145 144
-0.010752 -0.015773 0.017255 149 161 141
0.064042 -0.004196 0.004155 187 193 189
0.055179 0.012768 0.012055 42 44 43
0.033335 0.016493 -0.017345 166 180 181
-0.039489 -0.027054 -0.001345 162 162 160
0.041665 -0.029517 0.007455 175 180 174
-0.025985 0.047665 0.037355 162 158 157
0.002393 0.003248 -0.055145 148 144 141
-0.037124 0.009486 -0.010345 131 116 95
0.030854 0.017070 -0.018245 167 181 182
-0.028045 0.002337 0.003255 161 157 158
-0.018895 -0.008969 0.018455 172 170 171
-0.010436 -0.023280 0.012255 151 156 133
-0.023958 0.038011 0.031055 148 144 143
-0.031905 0.008888 0.000755 163 159 158
-0.016449 0.020443 0.015355 146 140 142
-0.030261 0.022827 0.012355 160 156 155
-0.036663 0.021031 0.002055 151 150 146
-0.045269 -0.023698 0.011455 87 86 81
0.033812 0.018033 -0.019545 162 182 183
0.016525 0.016749 -0.018345 200 200 200
0.020028 0.020537 -0.023045 199 201 200
-0.014177 -0.005112 0.013955 161 157 156
-0.015482 -0.054334 0.047655 173 173 173
-0.049371 0.004806 -0.000145 148 144 141
0.002401 0.003150 -0.055145 165 164 162
0.005931 0.013205 -0.013345 193 192 197
-0.048138 -0.013625 0.012455 112 112 112
0.021635 -0.033623 0.024555 174 174 174
0.020254 0.015193 -0.015445 167 176 181
-0.028911 0.006527 0.003555 163 161 162
-0.048506 -0.010803 0.013555 106 106 106
0.005535 0.010868 -0.009745 190 187 196
0.002447 0.003178 -0.055145 15 17 16
0.006386 0.010148 -0.008545 165 171 185
-0.041702 0.010688 -0.011945 141 120 91
0.033263 0.021335 -0.023745 160 184 186
0.041933 0.000049 0.009355 160 174 177
-0.011184 0.006157 -0.001945 163 159 160
0.013982 0.011959 -0.011045 169 176 186
0.002399 0.003247 -0.055145 147 143 142
0.016980 0.016053 -0.017045 173 178 182
-0.047014 -0.014273 0.012955 112 112 110
-0.017495 -0.033016 0.006155 179 173 159
0.018225 0.018092 -0.020145 201 201 201
-0.053843 -0.021282 0.003855 95 100 94
0.058936 -0.011184 0.004755 177 186 183
0.009462 0.008021 -0.005645 152 159 177
-0.000606 0.030719 0.003955 153 149 150
-0.016966 0.008229 0.007055 149 140 143
0.004191 0.026585 -0.003845 160 158 159
0.054740 0.007383 0.012155 45 47 46
-0.025849 0.007173 0.007655 163 159 160
0.057016 -0.013995 0.004455 176 185 182
0.002915 -0.004971 0.005555 23 22 27
-0.044089 0.016677 -0.010845 115 116 110
0.038356 0.016696 -0.018045 149 164 167
0.003323 0.023285 -0.005045 159 157 158
0.046408 -0.026341 0.005455 177 182 178
-0.044715 0.034134 -0.000145 123 126 119
0.032284 0.018229 -0.019545 161 179 181
0.016315 0.015977 -0.017145 201 201 203
0.030499 0.013230 -0.013045 167 178 180
-0.009232 0.015239 0.003555 149 143 145
0.002399 0.003184 -0.055145 34 34 34
0.002369 0.003260 -0.055145 151 150 146
0.002393 0.003247 -0.055145 146 142 141
-0.044340 0.033883 0.000055 123 124 118
-0.036592 0.002394 0.003755 167 165 166
-0.043928 0.019597 -0.008345 142 147 143
0.030466 -0.035909 0.013755 178 178 176
0.011413 0.020917 -0.015145 169 167 168
-0.057422 -0.045683 0.032355 157 148 141
-0.043536 0.035587 0.002555 124 129 123
-0.032655 -0.025155 0.007855 175 169 155
-0.039596 -0.023962 0.001855 160 161 156
-0.017534 0.004617 0.004655 147 141 143
-0.029366 0.040728 0.026455 161 161 161
0.004145 -0.043914 0.034855 161 163 158
0.038120 -0.033891 0.007755 176 178 175
0.038281 -0.008080 0.018455 80 81 83
0.056681 -0.015447 0.003455 174 183 178
-0.040277 -0.021975 -0.000945 172 173 168
-0.027064 0.043071 0.031555 164 160 159
-0.042302 0.015452 -0.008645 122 122 114
0.062757 0.010994 0.007855 49 51 50
0.054648 -0.018967 0.003055 179 183 182
-0.048369 0.006995 -0.006245 146 126 101
0.010127 0.004194 -0.000545 129 137 160
-0.026693 0.029696 0.021755 169 165 166
0.012034 0.020521 -0.015845 171 169 170
-0.024910 0.031589 0.024955 172 168 169
0.007087 0.033770 -0.002345 159 155 154
-0.034267 0.014725 0.001655 157 157 155
0.063715 0.006974 0.006655 51 57 55
-0.045265 0.008129 -0.008245 141 125 100
-0.005103 -0.003871 0.012255 153 151 154
-0.036452 0.017011 0.000055 161 160 156
0.046894 -0.022911 0.007455 177 181 180
-0.021333 0.001453 0.004955 168 162 162
0.043005 -0.031326 0.004855 176 181 175
-0.075642 -0.022877 0.023055 59 57 58
-0.033016 0.011219 0.001155 162 158 157
0.002345 0.003151 -0.055145 157 157 147
0.001649 -0.004193 0.011155 109 112 119
0.032809 0.020464 -0.022445 163 182 186
0.029375 -0.035643 0.015055 177 177 175
0.002354 0.003175 -0.055145 160 150 140
0.018195 0.021213 -0.021445 169 169 167
-0.029341 -0.031600 0.003755 151 137 124
0.044719 -0.006768 0.017155 166 174 176
0.031631 0.017645 -0.018945 166 180 181
0.006164 -0.045829 0.031255 165 166 161
0.020039 0.020760 -0.023345 196 198 197
0.002466 0.003198 -0.055145 58 59 64
-0.002294 0.007585 -0.005645 177 175 180
-0.009632 -0.018530 0.015355 158 158 134
0.026554 0.010818 -0.009745 162 172 181
-0.042276 0.028887 -0.000245 125 126 121
-0.051686 0.003640 -0.002145 147 127 103
0.015201 -0.042964 0.023755 167 167 165
-0.041973 0.030483 0.001055 128 129 124
0.044777 -0.005429 0.017255 164 172 174
0.044572 -0.014966 0.015055 181 185 184
0.011314 0.026754 -0.011045 134 130 131
0.009291 0.018263 -0.014945 171 166 170
-0.030682 0.005679 0.000455 158 157 155
0.063611 -0.004139 0.004755 186 195 192
0.035174 0.011971 -0.011945 116 124 126
0.033013 0.018378 -0.019745 163 181 183
0.002391 0.003160 -0.055145 128 145 137
0.004448 -0.048024 0.030955 165 166 161
-0.034514 0.025919 0.007955 152 148 147
0.055761 -0.007009 0.010055 193 198 194
0.032204 0.019183 -0.020945 165 183 185
-0.042199 0.009437 -0.010345 138 120 96
0.002857 0.018712 -0.007745 159 157 160
0.002409 0.003174 -0.055145 141 156 151
0.000299 0.035141 0.005955 155 151 152
-0.045138 0.032704 -0.001645 116 121 115
0.002497 0.003224 -0.055145 43 45 44
-0.070176 -0.013253 0.021455 38 38 38
0.028923 0.021324 -0.023645 176 191 194
0.034462 0.012208 -0.011945 155 167 167
0.049815 -0.015103 0.010555 180 184 183
0.012243 0.007995 -0.005345 153 162 177
0.012350 0.006778 -0.003945 147 156 173
0.030974 0.014214 -0.014545 165 180 183
0.059120 -0.006950 0.007055 184 193 188
0.002464 0.003201 -0.055145 25 29 32
-0.026431 -0.016770 0.011055 133 123 114
0.009891 -0.042365 0.030455 166 167 162
0.004826 -0.043803 0.034455 162 163 158
-0.008446 -0.002174 0.009655 172 170 175
0.002519 0.003240 -0.055145 44 53 50
0.015499 0.017127 -0.018945 200 200 200
-0.034449 0.011670 0.000055 162 158 157
0.002403 0.003252 -0.055145 151 147 148
0.030188 -0.013703 0.022755 81 81 83
0.006167 0.011469 -0.010545 192 189 196
-0.046514 -0.020178 -0.002445 166 168 167
0.035653 -0.026651 0.014955 174 178 177
-0.042198 0.027398 -0.001145 127 128 123
-0.006262 0.004141 -0.000145 129 135 149
0.026609 -0.029500 0.022255 176 176 176
0.050258 0.001246 0.007355 159 175 175
0.046270 0.001183 0.007155 159 175 175
0.029594 -0.032660 0.016655 179 179 179
0.002505 0.003232 -0.055145 54 56 55
-0.020686 -0.018487 0.012555 184 173 169
-0.039721 0.033363 0.005755 140 139 135
0.015373 0.019602 -0.020045 175 171 172
0.015874 0.020472 -0.019845 169 169 169
0.023035 0.013573 -0.013345 167 176 183
-0.004889 0.012187 -0.004245 150 144 146
0.057784 0.003880 0.009655 48 54 52
-0.065361 -0.008356 0.018155 141 141 139
0.002404 0.003150 -0.055145 88 58 32
-0.013808 -0.024068 0.014655 122 138 127
0.039760 -0.006823 0.017555 79 83 84
-0.038916 0.040337 0.011955 148 147 142
-0.006000 -0.005213 0.014155 149 151 150
-0.020720 0.006310 0.008355 148 142 144
0.033006 0.017192 -0.018245 165 181 181
-0.016855 -0.022751 0.011655 182 173 166
-0.016482 0.036537 0.026955 147 141 143
0.017839 0.017976 -0.020145 200 202 201
0.039795 -0.026655 0.011355 176 181 177
0.031611 -0.028707 0.017355 176 176 176
0.002380 0.003254 -0.055145 161 157 156
0.044603 0.002706 0.005255 158 172 173
-0.000958 0.008489 -0.006845 180 177 184
-0.041641 -0.020591 -0.001245 162 162 160
0.032815 0.015952 -0.016845 165 179 180
-0.033348 0.010127 -0.000145 161 157 156
-0.025385 -0.024047 0.007855 98 78 69
0.002486 0.003212 -0.055145 50 51 53
0.040213 -0.015516 0.018755 186 186 186
0.058796 0.003370 0.005455 52 57 60
-0.025544 -0.004491 0.013155 175 173 174
-0.010125 -0.032624 0.015955 110 56 30
0.002390 0.003180 -0.055145 53 54 49
0.040234 -0.019958 0.015455 180 180 180
0.002457 0.003195 -0.055145 66 67 72
-0.072608 -0.022453 0.024955 103 103 103
0.036921 0.002641 0.005055 156 167 171
0.047597 0.000529 0.008055 162 176 177
0.064438 -0.000391 0.004855 195 201 199
-0.034703 0.040978 0.018855 155 154 152
-0.040103 -0.011195 0.021255 147 140 134
-0.026302 0.021002 0.016355 166 162 163
-0.031704 0.017050 0.006755 160 156 155
0.004644 -0.037296 0.039255 161 163 162
-0.011136 -0.000159 0.006655 170 168 171
0.000237 0.003725 0.000655 135 142 161
-0.066048 -0.004255 0.013055 141 146 142
-0.044188 0.023087 -0.006345 136 138 135
-0.025535 0.004589 0.006355 164 162 163
-0.036658 0.025369 0.004955 142 141 137
0.002410 0.003175 -0.055145 141 156 151
0.004833 0.021385 -0.007845 162 162 162
-0.031429 -0.027945 0.006255 176 168 157
0.002371 0.003165 -0.055145 73 67 67
-0.037171 0.028331 0.006055 143 142 138
-0.026099 -0.012593 0.009155 108 78 68
-0.005167 -0.011922 0.018655 107 126 122
-0.036328 0.048218 0.022955 151 150 146
0.010029 -0.041401 0.030955 166 166 164
0.063913 0.010598 0.006855 49 54 50
0.011935 0.017030 -0.018245 194 194 194
0.063326 -0.002712 0.005655 190 197 190
0.018528 0.016541 -0.017445 182 189 197
-0.027600 0.030460 0.021055 168 164 165
0.035726 0.015116 -0.015845 157 171 172
-0.038877 0.012068 -0.012845 136 116 89
0.025180 -0.037036 0.018455 177 177 177
0.026294 0.013871 -0.014145 167 178 182
0.013306 -0.027226 0.037955 178 178 180
-0.019650 0.015481 0.014455 144 138 140
-0.040002 0.036627 0.007355 138 139 134
0.010677 0.029145 -0.009745 125 121 120
0.038467 0.016605 -0.017845 141 162 163
-0.039544 0.042703 0.012855 145 146 141
0.002355 0.003181 -0.055145 152 145 139
-0.002747 0.031886 0.007055 154 150 151
0.006983 0.026907 -0.006545 162 160 161
-0.031176 0.013015 0.004955 164 158 158
-0.050803 -0.019470 0.007455 91 93 90
0.002427 0.003187 -0.055145 54 54 56
0.058158 -0.005780 0.008455 193 198 192
-0.068178 -0.012959 0.012155 61 60 56
-0.049123 -0.022053 0.005555 74 75 70
0.045206 0.013253 -0.011745 46 52 50
0.002406 0.003252 -0.055145 154 150 151
0.057747 -0.016105 0.002155 174 183 180
-0.011429 -0.007389 0.017055 165 164 162
0.014554 0.014499 -0.014645 184 188 200
0.028238 0.009888 -0.007845 163 174 180
-0.017204 0.001869 0.004055 169 165 166
0.039494 0.005688 0.000655 156 167 169
-0.025966 0.003569 0.005255 156 150 152
-0.023250 0.006505 0.009455 144 138 140
-0.046178 -0.020333 -0.002745 169 171 170
0.013984 0.009498 -0.007645 157 167 179
0.056910 -0.013762 0.004555 179 185 183
-0.041077 -0.004123 0.009255 187 183 184
0.020546 -0.033464 0.025555 173 173 173
0.019616 0.021780 -0.022345 169 169 169
0.019442 0.006610 -0.003945 139 149 161
0.002445 0.003189 -0.055145 58 58 60
-0.030127 0.054466 0.038455 157 158 153
0.005632 0.014366 -0.013645 169 164 168
-0.019964 0.033453 0.027155 151 147 146
0.017743 0.012064 -0.011245 168 177 186
0.002516 0.003233 -0.055145 50 54 53
0.004709 0.007269 -0.004845 153 160 178
-0.046048 -0.024467 -0.006145 168 172 171
0.022770 -0.025075 0.029655 171 171 171
0.034622 0.015871 -0.016445 163 177 178
0.002329 0.023715 -0.003545 159 157 158
0.032090 0.018708 -0.020145 161 179 181
0.025192 -0.031586 0.022355 176 176 176
0.040877 0.005525 0.001155 151 162 164
0.002513 0.003232 -0.055145 48 54 54
-0.028936 0.022949 0.014355 162 160 161
0.002406 0.003188 -0.055145 46 46 46
0.046169 -0.017293 0.012055 182 184 181
-0.069696 -0.006946 0.014555 48 46 47
-0.018502 -0.018091 0.012955 188 177 173
0.063743 0.001349 0.004055 168 180 180
-0.036624 0.016804 -0.000045 158 159 154
-0.045300 -0.003564 0.008655 182 178 175
0.049684 -0.011461 0.012755 187 192 188
-0.031092 0.015553 0.006755 160 156 153
-0.033967 -0.001026 0.008455 177 173 172
0.018389 0.019830 -0.022345 199 199 197
0.025171 -0.035843 0.018955 176 176 176
-0.027125 -0.018813 0.005455 110 76 64
0.017520 0.019236 -0.021545 199 199 197
0.003715 0.008860 -0.006845 157 164 180
0.024738 0.019705 -0.021645 166 176 178
-0.039804 -0.028139 0.000155 158 159 154
0.064863 0.005443 0.005655 55 60 56
0.018019 0.002174 -0.004545 43 44 48
0.056642 -0.012413 0.005955 182 187 181
-0.050086 -0.017069 0.009455 102 102 100
-0.052055 -0.015328 0.008355 115 115 113
-0.019904 -0.012323 0.016755 175 166 159
0.063851 0.005887 0.006655 54 58 59
-0.023734 -0.031765 0.004255 178 172 160
-0.071793 -0.036419 0.015755 155 164 161
0.035107 0.012502 -0.012345 144 155 159
0.008668 -0.014996 0.030455 124 123 119
0.002511 0.003235 -0.055145 48 54 52
-0.016883 -0.027743 0.010255 179 170 163
-0.001719 0.003724 0.000555 132 139 157
0.036305 0.014399 -0.014845 139 157 157
-0.024272 -0.026510 0.007355 179 172 162
0.022491 -0.018366 0.029655 142 140 141
0.033722 -0.031290 0.013755 177 179 178
0.056129 -0.015100 0.004855 179 185 181
-0.029643 -0.031328 0.003955 136 117 102
0.030047 0.018510 -0.020245 165 180 183
-0.045048 0.001188 0.004955 169 171 168
0.057685 -0.017476 0.001255 173 184 180
0.008798 -0.045527 0.028455 168 167 163
-0.048951 -0.013131 0.012255 112 112 110
-0.040360 0.027939 0.001455 130 131 126
-0.032000 -0.021800 0.009755 170 160 151
0.025953 0.016499 -0.017445 167 179 179
0.002406 0.003148 -0.055145 86 68 44
0.045894 -0.027990 0.004655 174 181 174
-0.051009 -0.018507 0.007455 98 98 96
-0.003172 0.010259 -0.007445 155 149 151
0.061806 -0.008638 0.003555 181 187 185
0.002391 0.003150 -0.055145 186 185 183
-0.038040 0.033367 0.008155 144 143 139
0.011239 0.009114 -0.006945 158 167 182
-0.011422 -0.001858 0.009255 172 170 171
-0.017308 -0.029951 0.008155 180 172 161
-0.040701 0.014521 -0.006945 129 128 123
-0.001816 -0.018478 0.024255 135 152 146
-0.039746 -0.029122 -0.001545 160 160 158
0.002439 0.003186 -0.055145 47 47 45
0.002572 -0.038772 0.040255 158 160 159
-0.005050 0.022564 0.003655 152 146 148
0.018923 0.020144 -0.022645 200 200 200
0.031807 -0.036031 0.012655 177 179 176
-0.026155 0.011291 0.010255 162 158 159
-0.023909 -0.002334 0.009855 173 169 170
-0.014161 0.017232 0.011155 145 139 141
0.016796 0.009680 -0.007845 158 171 179
0.018106 0.015034 -0.015245 171 180 187
0.017927 0.012340 -0.011545 168 177 186
0.029765 0.017195 -0.018345 162 176 177
-0.034681 0.028446 0.009455 153 149 148
-0.000090 0.011264 -0.010045 174 169 175
0.033296 0.015320 -0.015745 165 179 180
0.029489 0.016814 -0.017945 166 180 183
-0.030945 -0.008808 0.018455 166 162 161
-0.043524 -0.012860 0.017755 157 156 152
0.042189 -0.012992 0.018355 188 192 191
-0.042908 0.015640 -0.011745 110 112 101
0.035132 -0.029140 0.013855 177 179 176
0.030350 -0.024311 0.022255 172 174 173
0.002423 0.003186 -0.055145 73 72 77
0.054554 -0.025121 -0.001645 170 179 176
0.063157 -0.006136 0.004055 183 192 187
0.002403 0.003184 -0.055145 35 35 35
-0.050239 -0.001810 0.009555 167 167 165
0.023146 0.012951 -0.012645 170 179 184
0.034026 0.010371 -0.007745 160 174 175
-0.023130 0.032837 0.027455 156 150 150
-0.023496 -0.021417 0.010255 176 167 158
-0.030252 -0.027708 0.006455 150 140 128
0.002396 0.003252 -0.055145 149 148 144
-0.032945 0.004398 0.000555 157 157 155
0.002410 0.003167 -0.055145 137 152 147
-0.034142 0.030856 0.011855 152 151 149
-0.046088 0.024191 -0.008545 128 137 132
0.015110 0.017288 -0.019145 202 202 202
0.023044 0.013369 -0.013045 166 175 182
0.003834 0.017179 -0.009845 164 159 163
-0.010584 -0.005862 0.015055 150 148 149
-0.072214 -0.020932 0.017455 63 61 62
0.002504 0.003229 -0.055145 43 45 44
0.037797 -0.026804 0.012855 179 181 178
0.023754 0.013681 -0.013645 167 176 181
0.035899 0.019717 -0.021545 155 176 179
-0.023885 0.018478 0.017055 124 118 120
-0.004028 -0.003829 0.011855 145 144 150
0.054287 -0.027396 -0.003945 167 179 175
0.021671 0.017142 -0.017945 171 180 185
0.051987 -0.011609 0.010755 184 190 186
0.059460 -0.007445 0.006755 186 192 188
0.036262 -0.032380 0.010455 177 179 176
-0.021916 0.000913 0.005255 170 164 166
-0.071080 -0.032845 0.018155 159 163 162
-0.010319 -0.012150 0.017055 46 51 47
-0.036655 0.015950 -0.000845 162 161 157
-0.007780 -0.022927 0.011355 153 160 127
0.016572 0.021160 -0.019945 168 167 165
-0.036967 -0.020516 0.011155 170 162 151
0.045601 -0.020944 0.009755 179 181 180
-0.035290 0.006401 -0.002745 159 159 157
-0.005884 0.020733 0.003155 149 143 145
0.002367 0.003261 -0.055145 150 149 145
0.028976 -0.012269 0.020755 74 74 76
-0.047231 -0.020597 -0.002545 163 167 166
0.032369 -0.036170 0.011255 177 179 176
-0.042816 -0.022554 -0.003945 174 176 173
0.034619 -0.025203 0.016955 176 176 176
-0.024818 -0.004137 0.012655 177 173 174
0.002422 0.003191 -0.055145 103 103 103
0.002390 0.003157 -0.055145 148 145 138
-0.039924 0.012996 -0.013645 128 111 85
0.037181 0.006630 -0.000945 157 168 170
0.048206 -0.024409 0.005455 172 178 174
-0.019530 -0.023606 0.008955 177 167 158
0.044861 -0.028661 0.005055 175 180 174
0.018154 -0.035272 0.026955 173 173 173
0.002514 0.003234 -0.055145 48 54 54
-0.000955 0.005343 -0.001845 146 152 166
0.011168 0.006835 -0.003945 148 157 174
-0.042837 0.006516 -0.002745 156 156 154
-0.007449 -0.017261 0.015255 152 158 132
0.055470 -0.024893 -0.002945 169 180 176
-0.031206 -0.022730 0.009055 169 159 150
0.020775 0.016145 -0.016645 170 181 185
0.013302 0.011377 -0.010245 169 177 188
0.016947 -0.038444 0.025755 170 170 168
0.003044 0.007776 -0.005345 155 163 176
0.033021 0.021301 -0.023745 162 183 186
-0.038240 0.025885 0.003055 137 137 129
0.018166 -0.033402 0.028455 173 173 173
-0.041149 0.029884 0.001755 127 128 122
0.015233 0.000846 -0.008045 88 84 85
-0.046150 -0.015717 0.013855 113 113 111
-0.031159 0.014914 0.006255 157 156 152
0.035273 0.014873 -0.015345 160 176 176
0.033284 -0.033060 0.012955 174 178 177
0.014781 -0.019020 0.034555 116 115 113
0.029407 0.016505 -0.017545 165 180 183
0.000456 -0.025338 0.041255 146 161 156
-0.049253 0.004773 -0.003245 145 121 95
-0.002085 -0.006067 0.014855 158 159 163
0.002395 0.003252 -0.055145 152 148 147
0.005213 0.016673 -0.011645 165 161 162
0.002367 0.003260 -0.055145 149 148 144
0.022421 0.019700 -0.022245 196 198 197
-0.036527 0.043602 0.018155 151 150 145
0.000820 -0.018019 0.032855 176 177 181
-0.037938 0.009038 -0.006245 154 154 152
0.033019 0.010049 -0.007445 161 172 176
-0.046071 -0.022508 0.010655 83 84 78
0.027520 0.018300 -0.019745 166 180 181
0.002422 0.003182 -0.055145 86 86 86
0.000799 -0.005470 0.004855 21 21 23
0.002440 0.003187 -0.055145 59 59 61
0.011508 0.012153 -0.011045 170 176 188
0.043680 -0.028250 0.006455 176 181 175
0.028875 0.015103 -0.015745 166 180 183
-0.039737 -0.022465 0.001455 151 150 145
0.024550 0.021049 -0.023945 196 200 199
-0.006920 0.002985 0.001655 135 141 153
-0.024133 0.024320 0.020955 167 163 164
-0.020707 -0.019481 0.011755 183 172 166
-0.049783 -0.009259 0.012955 110 110 110
0.033122 -0.030722 0.014455 174 176 173
0.021583 0.015647 -0.015945 169 180 184
0.011807 0.015540 -0.016945 203 203 205
-0.040407 -0.026543 0.004655 141 143 132
-0.035606 0.010636 -0.002945 162 163 158
-0.043363 -0.024582 -0.005845 173 177 176
-0.029837 0.009340 0.004555 164 160 157
0.004516 -0.039182 0.038155 162 162 162
-0.043480 -0.023543 -0.004945 158 162 161
0.028009 -0.028868 0.021355 174 174 174
-0.039723 0.014192 -0.006045 134 133 128
-0.050616 -0.017487 0.008555 105 105 103
-0.025062 0.003913 0.006355 166 162 161
0.034425 0.014668 -0.015145 160 174 175
0.017796 0.011179 -0.010245 166 175 184
0.047215 -0.027222 0.004055 177 179 176
0.047817 -0.000214 0.008955 160 175 178
-0.027647 0.002335 0.003355 163 159 160
-0.047908 -0.016657 0.011655 100 100 98
0.014201 0.010133 -0.008645 165 173 184
0.030115 0.019528 -0.021245 165 180 183
-0.000157 0.010519 -0.009745 181 179 184
0.009854 -0.000318 0.000555 30 31 35
-0.006904 0.008320 -0.004845 132 126 130
0.026166 0.014917 -0.015345 164 178 181
0.002408 0.003170 -0.055145 131 151 142
0.055138 -0.015456 0.005155 176 185 182
0.011775 0.017628 -0.017745 173 171 172
0.044618 -0.025041 0.007755 175 181 177
0.010170 -0.018718 0.032555 173 173 175
0.002109 0.021835 -0.004645 160 156 157
-0.024292 -0.003966 0.012455 176 174 175
-0.034032 0.038301 0.017355 153 152 148
0.002410 0.003184 -0.055145 130 133 138
-0.013654 0.005447 0.000755 138 132 134
-0.025356 -0.031783 0.003955 170 160 150
0.012508 0.025035 -0.013145 167 167 167
0.032577 0.005068 0.000455 154 167 173
-0.041660 -0.007201 0.011755 124 122 123
0.021630 0.021117 -0.023945 195 200 196
0.036147 -0.033326 0.009955 177 179 176
0.002497 0.003223 -0.055145 42 44 43
0.064162 0.011471 0.005755 52 57 53
0.023924 0.016354 -0.017145 168 179 181
0.030817 -0.031192 0.016555 177 177 177
0.003721 0.004024 0.000155 138 146 165
0.056823 0.013546 0.011355 40 44 43
0.051980 -0.000572 0.009055 164 178 178
0.002489 0.003220 -0.055145 45 47 46
0.015526 0.019842 -0.019945 172 170 171
-0.033898 0.019840 0.005755 154 153 149
-0.042649 0.026748 -0.001945 129 130 124
-0.050274 0.003585 -0.001745 122 108 99
0.057391 0.001911 0.005155 155 173 173
-0.027739 -0.010262 0.012355 116 84 73
0.002448 0.003179 -0.055145 30 32 31
-0.047492 0.030024 -0.007745 110 115 109
-0.027751 0.028067 0.019155 167 163 164
0.010012 -0.035681 0.035255 169 169 169
-0.047518 -0.022457 0.009255 89 90 85
0.006573 0.007363 -0.005045 156 163 181
0.051192 -0.010920 0.011955 189 191 188
-0.040389 0.017473 -0.004945 152 152 150
-0.034266 -0.023212 0.008855 168 162 148
0.037415 -0.030938 0.010455 177 179 176
0.059025 -0.015214 0.001355 173 182 179
0.017219 0.010917 -0.010045 166 175 184
0.002416 0.003183 -0.055145 178 178 180
0.013907 0.024042 -0.015645 167 165 166
0.014790 0.017983 -0.019945 202 202 202
-0.032833 0.026597 0.011055 157 153 152
0.023234 0.018409 -0.019945 177 188 190
-0.004963 0.001317 0.005055 130 138 149
-0.037219 0.011170 -0.010845 139 118 87
-0.002619 -0.017861 0.018155 134 153 147
0.002398 0.003182 -0.055145 45 45 45
-0.006263 0.023455 0.005355 148 142 144
-0.010322 -0.024953 0.011655 138 159 152
-0.013724 0.017960 0.011155 145 141 142
0.034271 0.015712 -0.016145 164 178 179
0.055013 -0.000746 0.008455 164 180 180
0.054913 -0.012881 0.007255 181 187 183
-0.033279 0.009620 -0.000345 163 159 158
0.012183 0.024971 -0.012545 170 166 167
0.029642 0.005781 -0.001245 150 163 171
0.002468 0.003193 -0.055145 144 140 139
-0.020049 0.000618 0.005955 169 165 164
0.002469 0.003191 -0.055145 137 134 129
-0.040431 -0.002086 0.009455 179 179 179
-0.026484 -0.021837 0.008755 38 32 34
0.003407 0.017946 -0.008845 161 156 160
0.014952 0.021438 -0.018445 164 162 163
0.002515 0.003227 -0.055145 53 55 54
0.035817 0.009012 -0.005545 154 165 169
-0.019042 -0.008148 0.017855 178 174 175
0.010662 0.005053 -0.001745 136 145 162
-0.007051 0.009053 -0.003745 151 142 147
0.014190 -0.044385 0.023955 168 169 164
-0.040309 0.001242 0.005355 170 172 169
-0.045322 0.031052 -0.002545 120 122 117
0.002345 0.003153 -0.055145 146 146 138
0.002349 0.003173 -0.055145 62 58 55
-0.033701 0.013298 0.001355 159 158 154
-0.012271 -0.019744 0.015755 134 147 138
0.035242 0.019480 -0.021345 154 173 177
0.002409 0.003159 -0.055145 141 158 148
-0.031122 -0.010254 0.019755 138 128 127
-0.074118 -0.018041 0.026955 107 109 108
0.005222 0.013270 -0.013645 193 192 197
0.002150 0.011784 -0.011445 184 183 189
-0.025591 -0.011241 0.021055 94 89 83
-0.023093 0.026908 0.023155 154 148 150
0.002496 0.003224 -0.055145 45 47 46
0.010758 0.014756 -0.015745 204 202 205
-0.011301 -0.051068 0.044355 171 167 164
0.054798 -0.019005 0.002655 174 183 180
0.013026 0.018287 -0.018545 175 170 174
-0.039232 -0.008807 0.017955 161 157 154
0.027395 0.007914 -0.005045 157 170 176
0.012560 0.000162 -0.003445 31 32 37
0.007662 0.015911 -0.014545 169 167 170
-0.003491 0.012430 -0.005645 151 145 149
0.046110 -0.013611 0.014555 183 187 186
-0.038900 0.034272 0.007455 141 140 136
0.053964 -0.014346 0.006855 179 185 181
0.035626 0.006433 -0.001245 159 170 174
0.020356 0.018428 -0.020345 200 202 199
-0.008512 0.002082 0.003155 133 140 150
-0.020952 -0.031408 0.004655 179 173 161
0.002450 0.003208 -0.055145 95 104 111
-0.025489 0.043910 0.034455 163 159 160
-0.001220 0.016129 -0.005445 152 150 151
0.037428 0.018894 -0.021245 160 181 182
0.036990 -0.029010 0.012155 178 180 179
-0.033811 0.016552 0.003655 157 157 155
0.051851 -0.013892 0.009255 183 187 186
-0.050559 -0.017379 0.008655 103 103 103
0.002487 0.003212 -0.055145 43 44 46
0.047044 -0.020816 0.008655 174 180 176
0.001855 0.035766 0.004755 157 153 154
0.024693 -0.025341 0.027455 171 173 172
0.004908 0.010982 -0.010245 190 189 195
-0.038741 -0.010934 0.020755 134 125 118
0.002493 0.003225 -0.055145 38 39 41
-0.000207 0.003543 0.000955 132 139 157
-0.028106 -0.027521 0.005155 122 92 82
0.038570 -0.016703 0.019555 181 185 184
-0.016321 0.033561 0.024355 148 142 144
-0.041786 0.020647 -0.004545 150 151 146
0.023408 0.015048 -0.015345 165 179 182
0.055372 -0.025705 -0.003545 167 180 173
-0.045991 -0.012266 0.015055 110 110 112
-0.000382 0.003664 0.000755 134 141 160
0.038129 -0.000180 0.009655 149 162 168
0.005445 -0.000227 0.005455 116 121 140
0.061051 -0.003510 0.006855 184 191 184
-0.030774 0.007910 0.001555 164 160 159
0.016751 -0.042637 0.022755 169 171 166
0.000184 0.022297 -0.002445 160 156 157
-0.073028 -0.024514 0.023555 103 103 103
0.049218 -0.011676 0.013055 186 192 188
-0.034140 0.033564 0.013655 158 154 153
0.001589 0.018187 -0.006745 161 157 158
0.020477 0.014385 -0.014245 164 175 181
0.048621 -0.024380 0.004955 177 182 176
0.039580 0.017285 -0.018845 146 166 167
0.054023 -0.015704 0.005955 178 184 180
0.024293 0.020235 -0.022745 194 200 196
0.037114 -0.031715 0.009755 175 180 176
0.010124 0.021349 -0.013545 170 168 171
0.002400 0.003150 -0.055145 173 155 141
0.044332 -0.004813 0.014655 161 175 176
-0.000962 0.020262 -0.002645 158 154 155
0.046378 -0.012099 0.015355 188 190 189
0.038792 0.018400 -0.020145 157 176 180
-0.038226 0.009323 -0.006545 158 157 153
0.027005 0.018039 -0.019245 166 180 181
0.027844 0.021146 -0.023345 168 183 186
0.023878 -0.029765 0.024755 174 176 175
0.006056 0.032312 -0.002145 159 155 156
0.038165 0.016305 -0.017645 136 160 162
0.002426 0.003192 -0.055145 110 108 109
0.054374 -0.001826 0.009755 164 178 179
0.047663 -0.012940 0.013655 185 190 184
-0.008177 -0.021489 0.013455 140 148 125
-0.046957 -0.024524 -0.006045 166 172 170
0.029414 0.017960 -0.019245 165 179 179
0.002394 0.003182 -0.055145 33 35 34
-0.053944 -0.018124 0.006155 114 116 115
0.017536 0.013091 -0.012645 168 178 187
0.001846 -0.000372 0.005655 133 140 156
-0.040074 -0.026273 -0.003445 171 171 171
0.002424 0.003186 -0.055145 74 73 78
-0.037669 -0.012809 0.015755 172 160 148
0.036462 0.018443 -0.020045 160 181 184
-0.040977 0.014281 -0.007745 130 127 122
0.063131 0.012252 0.007455 52 54 53
0.005546 -0.041192 0.035355 164 164 162
-0.043445 0.008808 -0.009445 141 123 99
0.013569 0.014624 -0.015145 200 200 202
0.023648 0.010668 -0.009445 165 174 181
-0.030261 0.007245 0.001855 165 163 164
0.008783 -0.045961 0.028255 168 167 162
0.012804 0.022352 -0.015545 169 167 168
-0.068850 -0.011772 0.013155 68 66 67
-0.069413 -0.015904 0.016255 45 43 44
0.046101 -0.009916 0.016555 166 166 164
-0.010267 0.008897 -0.000345 148 139 144
0.056028 -0.010983 0.007355 180 189 184
0.016214 -0.026044 0.035555 178 178 178
-0.017370 0.004746 0.004555 145 143 144
0.002435 0.003184 -0.055145 69 69 71
-0.034300 0.021379 0.005755 152 148 145
0.007097 -0.000806 0.006155 33 38 44
-0.040289 0.009855 -0.010845 139 119 94
-0.034541 0.009985 -0.001745 162 161 159
-0.033005 -0.031503 0.004255 176 170 156
0.018014 0.013208 -0.012745 170 179 188
0.063018 -0.005126 0.004755 187 193 189
0.022261 0.001979 -0.003345 37 38 40
-0.016452 0.012872 0.010255 143 137 139
0.031818 0.020805 -0.022745 160 180 181
-0.052009 0.002784 0.003555 150 150 148
0.016060 0.023911 -0.017845 169 168 166
0.027241 0.021020 -0.023445 181 191 190
-0.035923 0.012826 -0.001945 159 159 157
-0.003795 -0.018438 0.015055 135 156 149
-0.014870 0.008699 0.005455 148 139 142
-0.023189 0.015097 0.015355 141 135 135
0.021700 0.018798 -0.020545 196 198 197
0.034886 -0.029803 0.013655 174 179 175
-0.028945 0.003423 0.001855 163 159 158
0.022068 0.011628 -0.010745 165 174 183
0.013350 -0.034617 0.032555 169 169 169
0.002517 0.003228 -0.055145 53 55 54
-0.004795 -0.004913 0.013555 145 146 148
-0.042759 -0.000628 0.007655 177 177 177
-0.016515 0.018847 0.014455 144 140 141
-0.008385 0.023512 0.008455 147 141 141
-0.040143 0.014523 -0.006245 134 133 128
-0.022071 0.006419 0.009155 145 139 139
-0.033336 -0.014504 0.013855 178 169 162
-0.017155 -0.033358 0.009255 175 167 154
0.011627 0.018814 -0.016645 173 168 172
0.017601 0.021178 -0.020945 169 169 167
0.059493 -0.016770 -0.000345 173 182 179
0.002384 0.003145 -0.055145 166 158 145
0.018465 0.017036 -0.018445 201 201 203
-0.035067 -0.020986 0.010255 171 163 152
-0.069368 -0.015772 0.016055 40 39 37
0.021964 -0.039796 0.019455 174 174 172
0.002512 0.003235 -0.055145 54 59 55
0.034813 0.021089 -0.023445 159 185 186
-0.056889 -0.046933 0.031855 144 135 126
-0.040128 0.008192 -0.007645 130 114 98
0.051927 -0.011034 0.011455 186 191 187
0.013190 0.025651 -0.013545 166 166 166
0.038626 -0.027824 0.011355 178 180 177
0.047536 -0.014766 0.012555 183 187 186
0.028510 0.020609 -0.022645 165 183 185
0.050771 -0.015615 0.008855 180 185 181
-0.004890 -0.033952 0.015955 83 49 24
-0.042661 -0.010356 0.015155 119 118 116
-0.023331 0.028082 0.024155 147 141 143
0.023141 0.013231 -0.012845 168 177 182
-0.050362 -0.021229 0.006855 83 85 82
-0.019333 0.034531 0.027855 150 144 146
-0.000804 0.007037 -0.004245 154 160 176
0.062929 -0.007201 0.003455 183 189 187
-0.042615 0.015834 -0.008745 117 119 114
0.036973 0.007635 -0.003145 155 166 170
0.053214 -0.026880 -0.001445 168 179 175
-0.028597 0.003866 0.002255 163 161 162
0.002375 0.003260 -0.055145 155 154 150
-0.017369 0.006087 0.005155 129 120 121
0.037147 0.014266 -0.014845 45 46 48
0.049969 -0.022468 0.004655 176 181 177
0.045978 -0.030501 0.002755 175 180 174
0.015268 -0.023778 0.037355 184 184 186
