ply
format ascii 1.0
element vertex 1232
property float x
property float y
property float z
property uchar red
property uchar green
property uchar blue
end_header
0.039758 0.016749 -0.049960 93 95 92
0.037601 0.017763 -0.047160 100 100 98
0.027914 0.008446 -0.045260 111 111 113
0.048934 -0.037186 0.014940 121 126 122
-0.070849 0.028300 0.036240 98 99 19
0.042612 -0.040893 0.018840 123 125 124
-0.163062 -0.080683 0.163140 72 73 75
0.019039 0.007713 -0.072760 33 35 34
0.019065 0.007729 -0.072760 97 97 97
0.019039 0.007716 -0.072760 14 16 15
0.057605 -0.022539 0.014940 86 88 87
-0.086322 0.036674 0.033140 80 80 18
0.008875 0.031551 0.005240 35 31 6
0.038747 0.009473 -0.047960 181 186 189
0.031840 0.013817 -0.043760 110 110 112
0.010366 0.019099 0.000640 125 124 122
-0.083368 0.022279 0.045740 91 94 13
0.079669 -0.023972 -0.007360 116 125 122
0.019072 0.007739 -0.072760 87 87 87
0.018664 0.010023 -0.033660 119 118 124
0.032532 0.024899 -0.038660 100 102 99
0.019147 0.007741 -0.072760 189 192 199
0.044174 0.010651 -0.049060 174 180 180
-0.180881 -0.075590 0.146340 70 76 74
0.019059 0.007715 -0.072760 99 99 99
0.019021 0.007762 -0.072760 90 93 16
0.041653 0.017588 -0.051160 89 94 90
0.021837 0.006470 -0.038660 96 94 95
-0.007515 -0.028680 0.081240 114 114 114
0.019618 0.033024 -0.024660 120 118 119
-0.054605 -0.024046 0.076940 101 100 20
0.054704 -0.019205 0.014440 182 187 193
0.021417 0.003255 -0.038760 192 191 205
0.077997 -0.024993 -0.006160 118 122 121
0.062441 -0.032579 0.004940 119 125 123
0.032572 0.012003 -0.045760 109 109 107
-0.011841 0.039522 -0.017160 54 51 8
0.015799 -0.024906 0.061540 119 119 119
0.032736 0.006829 -0.043960 190 193 198
-0.160645 -0.085776 0.160340 77 78 80
0.081842 -0.025679 -0.011360 116 125 122
0.037432 0.011634 -0.052060 94 98 97
0.036696 0.024704 -0.041960 95 95 93
0.024209 0.016087 -0.034660 98 98 100
-0.036580 0.001827 0.064140 84 79 15
0.048594 -0.004124 -0.043060 163 152 160
0.009821 0.030812 0.005940 127 123 124
-0.032589 -0.037066 0.101340 109 109 109
-0.097967 0.068637 0.053340 72 78 66
0.021529 0.005739 -0.040760 115 114 122
0.040875 -0.002313 -0.035760 165 156 161
-0.004448 0.019981 -0.004360 107 102 20
0.035334 0.017321 -0.045260 102 102 100
-0.007077 -0.043909 0.073140 120 120 118
0.047348 -0.008934 -0.022560 180 174 184
0.035855 0.015515 -0.046260 89 89 87
0.041494 0.006541 -0.041460 98 92 92
0.031443 0.004255 -0.040060 189 192 199
0.037916 0.019063 -0.046960 99 100 94
-0.052138 -0.040255 0.112940 53 53 55
0.026942 0.011281 -0.040660 112 112 114
0.023980 0.018510 -0.033460 118 117 122
0.016181 0.025512 -0.024660 123 121 124
-0.183447 -0.099631 0.123840 86 94 96
0.047323 -0.031386 0.019440 120 122 121
-0.168212 -0.110167 0.140140 77 81 82
0.018178 -0.000770 -0.031160 188 190 203
0.034094 0.020828 -0.041660 108 108 108
0.022504 0.008579 -0.038360 120 119 127
0.034770 0.014364 -0.046660 103 104 99
0.077191 -0.028605 -0.007560 116 127 123
-0.083707 -0.026757 0.093140 78 77 10
0.036110 0.014061 -0.047860 100 100 98
0.027289 0.005838 -0.043360 190 193 200
0.072997 -0.029472 -0.003260 119 125 123
-0.167494 -0.087105 0.153140 75 76 78
0.025194 0.016300 -0.035560 111 111 113
0.041232 0.005335 -0.040060 94 84 85
-0.163903 -0.051623 0.138940 63 65 2
0.040460 0.007999 -0.044360 159 159 161
0.030123 0.028404 -0.035360 99 97 98
-0.146009 -0.110728 0.167340 76 77 81
0.041200 0.017444 -0.050560 87 89 84
0.029365 0.011301 -0.043160 114 114 116
0.038773 0.008580 -0.045860 183 187 188
-0.107439 0.019126 0.049640 85 92 12
0.032521 -0.034216 0.041840 123 123 123
-0.004735 0.044565 -0.005460 40 39 8
0.048162 -0.004184 -0.042660 148 132 142
-0.094936 0.015728 0.055540 89 92 11
0.000125 0.030097 -0.008160 41 37 8
-0.036803 -0.034254 0.105640 103 103 105
0.050451 -0.032571 0.016240 118 123 119
-0.013582 0.029709 -0.021260 99 98 15
0.082544 -0.020306 -0.007360 142 142 144
-0.007766 -0.029404 0.080740 115 115 115
0.027508 0.010189 -0.041960 118 118 120
-0.013256 -0.000803 0.046340 87 82 14
0.043070 -0.000568 -0.043260 179 169 177
0.071689 -0.029562 -0.002660 122 128 126
-0.014911 0.036719 -0.022560 53 55 8
0.025210 -0.050353 0.041640 124 128 127
0.017372 0.004502 -0.035460 98 96 97
0.034861 0.005428 -0.040360 187 192 196
-0.178500 -0.074316 0.147440 65 70 66
0.003661 0.031281 -0.002260 39 35 8
0.028744 0.011415 -0.042760 116 116 116
0.005721 0.028471 -0.001260 39 35 8
0.028929 0.028256 -0.034560 105 103 106
0.021045 0.011934 -0.035060 119 118 124
-0.143473 -0.095777 0.127240 66 77 69
-0.157021 -0.028451 0.140740 57 57 5
-0.009850 0.030265 -0.019260 77 75 14
0.019149 0.007739 -0.072760 188 191 198
0.021845 0.012423 -0.035460 120 119 125
0.019021 0.007754 -0.072760 76 79 10
0.019056 0.007717 -0.072760 93 93 93
0.033462 0.019420 -0.042560 103 103 103
0.026354 0.019899 -0.035060 116 116 118
-0.001333 0.002850 0.037740 87 83 12
-0.001533 0.027280 -0.011860 42 39 6
-0.074170 0.017912 0.056440 100 99 16
0.037558 0.018705 -0.046660 99 100 95
-0.022240 0.030993 -0.024260 94 98 14
-0.019903 0.027648 -0.018860 104 104 18
-0.008516 -0.043376 0.074840 120 120 118
0.043709 0.005306 -0.047260 181 170 176
0.014233 0.036018 -0.018260 84 83 81
0.030928 0.008834 -0.047560 118 119 123
0.019038 0.007709 -0.072760 85 89 90
-0.067295 0.014142 0.067140 101 99 14
-0.087545 0.018235 0.051840 96 97 17
0.042577 0.011145 -0.050460 172 181 180
0.039976 0.021687 -0.047360 89 94 90
-0.091630 -0.020372 0.098640 67 69 4
0.003694 -0.044919 0.062940 121 122 117
0.002629 -0.067033 0.053940 123 127 126
0.019013 0.007763 -0.072760 88 92 16
0.032143 -0.034467 0.041840 123 123 123
0.045838 0.001931 -0.044360 186 170 180
0.027762 0.026419 -0.033560 109 111 110
0.039739 0.007221 -0.042860 163 164 166
0.018027 -0.058699 0.043940 125 129 128
0.077155 -0.030259 -0.008160 117 126 123
0.016168 0.037337 -0.019660 121 120 118
0.007346 0.013584 0.009340 114 107 26
-0.078128 0.030808 0.031340 94 97 20
-0.087802 0.022054 0.046040 89 92 13
0.070938 -0.032717 -0.003460 120 129 126
0.018632 0.026275 -0.026460 122 122 124
0.047173 0.002096 -0.044560 180 164 174
0.019054 0.007736 -0.072760 94 95 19
-0.007647 0.038418 -0.012860 46 43 10
-0.009182 0.037203 -0.015360 51 48 7
0.019054 0.007718 -0.072760 80 80 80
-0.077716 0.008978 0.074340 100 98 15
0.018374 -0.000402 -0.031860 188 190 203
-0.014941 0.029426 -0.021260 99 99 13
0.038582 0.013557 -0.050160 78 80 69
-0.044712 0.032795 0.029640 105 105 19
0.036176 0.003866 -0.037160 184 187 194
-0.036822 -0.081803 0.084240 121 123 120
0.041412 0.001446 -0.043560 183 170 177
0.022100 0.012333 -0.035860 119 118 124
-0.044995 -0.015263 0.068440 75 71 7
0.000350 0.033762 -0.005660 42 38 9
0.080039 -0.023226 -0.006960 116 122 122
-0.048157 0.030993 0.031140 100 102 18
0.008790 0.031636 0.005240 37 32 12
0.019063 0.007724 -0.072760 100 100 98
-0.058363 0.019525 0.060240 95 89 13
0.064922 -0.027591 0.005240 112 120 122
-0.066629 0.029948 0.033240 98 102 18
-0.060390 0.005484 0.081140 70 68 9
-0.192857 -0.065157 0.132540 75 82 40
0.040545 0.018863 -0.049260 93 95 92
0.023994 0.015338 -0.035660 120 118 123
-0.033269 0.026454 0.046640 111 107 20
0.002139 -0.033628 0.069740 120 120 120
0.059615 -0.034229 0.006940 122 124 123
0.030901 0.008889 -0.047560 113 113 115
0.019060 0.007709 -0.072760 102 104 99
0.004744 0.057277 0.015340 30 28 7
0.034964 0.023304 -0.041360 101 102 97
0.084331 -0.021349 -0.010660 117 126 125
0.015204 0.030764 -0.021560 121 119 124
0.017335 0.002920 -0.037960 151 155 167
0.019028 0.007756 -0.072760 76 79 10
0.002246 0.043228 0.003440 39 35 8
0.060006 -0.026762 0.010040 118 120 119
0.027127 0.010608 -0.041460 116 115 120
-0.006469 0.027495 -0.016060 80 76 12
0.029568 0.015540 -0.041160 110 111 113
0.036420 0.011221 -0.051360 98 100 97
-0.101966 0.071356 0.046240 78 85 77
0.039560 0.014948 -0.050560 94 96 93
0.034683 0.004695 -0.039360 188 191 196
0.034729 -0.024813 0.044240 124 124 124
-0.096028 0.008778 0.069040 96 96 10
0.041425 -0.002344 -0.039060 190 180 188
-0.160008 -0.082397 0.164240 70 71 73
-0.016273 0.034186 -0.024760 54 57 4
0.040971 0.018624 -0.049660 91 96 92
0.001749 0.026348 -0.007860 39 36 5
0.022100 0.015455 -0.033160 124 123 129
-0.023968 0.027101 -0.018060 100 103 16
0.029292 0.021381 -0.037260 112 112 112
-0.001115 0.049099 0.002240 41 37 8
-0.004134 0.038664 -0.008360 43 40 7
0.017064 0.017592 -0.028860 121 120 126
0.082228 -0.020706 -0.007760 117 123 121
0.019061 0.007729 -0.072760 94 94 94
0.005386 0.058710 0.016840 29 28 7
0.024349 0.006206 -0.042960 112 112 120
0.035772 0.020185 -0.044460 99 100 95
0.043595 -0.042243 0.017640 122 124 123
0.039543 0.011838 -0.052960 171 181 182
0.038922 0.011946 -0.052860 142 151 148
-0.139516 0.051315 0.081840 69 74 33
0.033209 0.011835 -0.046460 106 108 105
0.079598 -0.028063 -0.010260 116 125 124
0.027524 0.026822 -0.033260 106 108 107
-0.010804 0.031746 -0.019760 62 59 8
0.032899 0.012746 -0.045760 107 107 105
0.019045 0.007714 -0.072760 80 84 87
0.041826 -0.024499 0.028340 120 120 118
0.046028 0.004027 -0.046360 174 163 171
0.073260 -0.030295 -0.004660 121 127 125
0.010222 0.017571 0.002540 131 127 126
-0.006552 0.043200 -0.008860 43 42 11
0.023526 0.009790 -0.038360 118 117 123
0.041158 0.008711 -0.047860 123 106 114
0.028379 0.016664 -0.039560 111 113 112
0.041192 -0.049663 0.025040 87 87 85
-0.011874 0.038338 -0.017860 57 56 10
0.037731 0.018679 -0.046860 97 97 95
0.038239 0.012231 -0.052560 90 92 87
0.015878 -0.031183 0.058340 121 121 121
-0.114905 -0.011822 0.114040 46 43 0
0.038834 0.012231 -0.052860 93 95 94
0.038602 0.012903 -0.052460 88 93 87
0.039507 0.016171 -0.049960 93 95 92
0.023150 0.015307 -0.034360 112 110 115
-0.039348 -0.057445 0.097640 119 119 117
0.019057 0.007726 -0.072760 89 89 89
-0.175361 -0.112227 0.126840 73 82 81
0.043799 -0.005565 -0.029560 190 183 191
0.067218 -0.032894 0.000140 122 128 126
0.045932 0.003617 -0.045960 172 163 168
-0.068066 0.007679 0.084940 56 53 2
-0.015856 0.034032 -0.024460 55 58 5
0.036694 0.021258 -0.043760 96 96 94
0.064973 -0.035179 0.001040 122 126 125
0.003687 0.012437 0.013140 116 110 34
-0.094809 0.007845 0.071240 97 99 15
0.039308 0.014759 -0.050460 93 98 94
0.061716 -0.022577 0.010540 110 114 113
0.015341 0.020323 -0.026060 125 123 126
-0.035393 -0.041597 0.101140 112 112 112
0.045487 0.003112 -0.045060 167 156 162
0.074252 -0.030145 -0.005460 121 127 127
0.034260 0.020066 -0.042360 96 94 95
-0.063447 0.029852 0.033340 100 102 19
0.028764 0.019071 -0.037760 113 113 113
-0.144600 -0.093547 0.126740 18 20 17
0.019061 0.007705 -0.072760 105 107 104
0.019017 0.007757 -0.072760 77 80 11
0.059506 -0.022191 0.012840 96 98 97
0.025288 0.007485 -0.042860 108 108 110
0.035601 0.020471 -0.043660 100 100 98
0.007998 0.014754 0.007240 111 105 29
0.019042 0.007755 -0.072760 90 91 13
0.019039 0.007751 -0.072760 62 61 7
0.039855 0.018261 -0.048860 96 98 93
0.039767 0.018899 -0.048560 95 97 94
0.026467 0.015881 -0.038060 114 113 118
0.023117 0.006733 -0.039860 95 94 92
0.026893 0.011119 -0.040860 118 117 122
-0.067054 0.036355 0.022040 89 94 14
0.004760 0.029949 -0.001560 38 34 7
0.062018 -0.028630 0.007340 116 120 119
-0.095341 0.071558 0.049640 69 71 66
0.048320 -0.031463 0.018440 118 120 119
0.063786 -0.023048 0.008640 109 114 110
-0.004755 0.029460 -0.014460 42 39 8
0.031929 0.010565 -0.045860 85 84 79
-0.079105 -0.005906 0.092140 70 68 7
0.040347 0.015889 -0.050860 94 96 93
-0.092327 0.011739 0.063740 95 94 11
0.073916 -0.023313 -0.001260 116 120 119
-0.063724 -0.001364 0.082640 72 68 7
0.005138 0.026725 -0.003060 36 35 7
0.019060 0.007733 -0.072760 81 83 82
0.050703 -0.038328 0.012940 124 126 123
0.000851 0.036101 -0.003360 39 35 8
0.019067 0.007719 -0.072760 107 107 105
0.050306 0.000702 -0.042860 134 121 130
0.040799 -0.000493 -0.041960 174 159 164
-0.041111 -0.074197 0.090740 121 123 122
0.016041 0.022523 -0.025760 121 119 124
-0.044298 0.021884 0.055140 102 99 18
0.014388 0.027429 -0.022460 86 85 83
-0.183010 -0.080325 0.137540 79 88 85
0.005146 0.022632 -0.004960 59 54 12
0.039152 0.011141 -0.051860 172 181 180
0.040918 0.019100 -0.049360 93 95 92
0.000172 0.049077 0.004040 39 38 10
0.034540 0.010084 -0.049760 157 161 164
0.072529 -0.027655 -0.002160 118 127 124
0.019070 0.007711 -0.072760 110 111 106
-0.003786 0.048901 -0.001260 41 37 8
0.019069 0.007739 -0.072760 83 84 78
0.041544 -0.001961 -0.030760 150 135 142
0.023653 0.033397 -0.028160 117 115 116
0.041040 0.019976 -0.049060 75 77 76
0.047672 -0.001812 -0.041860 157 141 151
-0.114602 -0.019670 0.111640 53 56 3
0.065663 -0.034933 0.000340 123 128 124
0.025016 0.010430 -0.039360 119 118 124
0.068613 -0.031626 -0.000860 119 125 123
0.021754 0.002776 -0.037760 187 189 202
0.020958 0.021713 -0.029260 121 119 124
0.039444 -0.023507 0.040440 158 159 164
0.039621 0.010402 -0.049860 177 183 183
-0.063510 0.025829 0.041840 99 103 19
-0.021507 0.031608 -0.025060 88 92 15
0.044651 -0.002495 -0.042260 163 150 157
0.022984 0.004316 -0.040960 189 191 204
-0.035148 -0.085117 0.081440 118 123 117
0.072684 -0.022434 -0.000160 115 120 116
-0.074422 0.029100 0.034840 95 99 15
0.044942 0.003943 -0.045760 184 174 182
0.049204 -0.004133 -0.043360 167 157 165
0.028747 0.007091 -0.045560 172 169 186
0.050642 0.000382 -0.042760 119 98 107
0.019100 0.007752 -0.072760 116 110 36
0.032134 0.021147 -0.039860 112 112 112
-0.165100 -0.030633 0.141140 50 53 0
-0.045837 0.004522 0.071340 66 66 6
0.035119 0.011265 -0.050160 97 98 93
0.025232 -0.002796 -0.027360 190 193 202
0.076192 -0.019857 -0.001460 110 116 114
-0.074830 -0.005835 0.089140 72 70 9
0.045350 0.004046 -0.045860 183 174 179
0.038979 0.023298 -0.044860 99 99 97
-0.181656 -0.106422 0.119640 90 98 101
0.043983 0.002599 -0.044760 168 152 162
-0.013749 -0.027044 0.087740 109 109 111
0.019152 0.007736 -0.072760 186 189 196
0.045487 -0.035856 0.019040 121 123 120
0.039276 0.002204 -0.042060 152 136 146
0.019095 0.007749 -0.072760 96 95 93
0.041578 0.007647 -0.048960 171 160 168
0.027290 0.023296 -0.034560 112 110 115
-0.006563 -0.002268 0.042140 100 94 18
0.003617 0.028146 -0.004460 38 34 7
0.033529 0.013884 -0.045860 106 106 106
0.047992 -0.004323 -0.042560 155 144 152
0.000454 -0.000078 0.037940 107 102 20
0.019071 0.007724 -0.072760 110 111 106
0.041852 0.009738 -0.048060 149 150 154
-0.000320 -0.055284 0.061840 126 126 126
0.036363 0.012983 -0.048660 94 95 90
0.054439 -0.033784 0.011740 121 126 122
0.032620 0.018155 -0.042660 108 108 106
-0.000229 -0.049829 0.064340 121 121 121
0.040735 0.003339 -0.044160 184 173 181
0.042041 0.005230 -0.046160 181 165 175
0.041319 0.017811 -0.050060 58 60 57
0.016741 0.005138 -0.034560 121 116 122
0.019148 0.007737 -0.072760 186 189 194
0.031501 0.010218 -0.045760 86 87 82
-0.146094 -0.093195 0.124340 144 155 151
-0.087049 -0.036098 0.096140 92 95 16
0.050570 0.000176 -0.042860 122 101 110
0.035072 0.012852 -0.047460 103 103 101
-0.000360 0.045468 0.000940 39 35 8
0.084375 -0.020365 -0.009960 117 123 123
0.039389 0.014532 -0.050560 95 97 92
0.023443 -0.045777 0.044840 129 131 128
0.027072 0.027972 -0.033560 115 113 116
0.015386 0.005198 -0.033560 105 104 109
-0.074992 0.033147 0.027040 93 96 19
-0.015509 0.023115 -0.010560 106 105 15
0.020594 -0.028182 0.055340 121 121 121
0.008306 -0.030572 0.064940 120 120 120
0.019052 0.007735 -0.072760 87 87 17
-0.101423 0.072969 0.044440 92 97 93
0.018957 0.015375 -0.031460 121 120 128
0.067730 -0.027129 0.002040 117 121 120
0.072257 -0.025370 -0.001060 118 122 121
-0.043958 -0.059886 0.100540 119 119 117
-0.034038 0.010666 0.062640 80 75 9
0.041912 0.002824 -0.044460 174 161 170
-0.028776 -0.039391 0.096640 113 113 111
0.024295 0.032136 -0.029360 102 102 102
0.072220 -0.031891 -0.004360 121 127 125
0.046286 0.003617 -0.045960 176 167 172
0.035788 0.014831 -0.047260 102 103 97
-0.142204 -0.083725 0.184840 61 61 63
0.044607 -0.000669 -0.043360 160 145 152
-0.025474 0.029660 -0.022160 96 100 16
-0.031958 0.001426 0.059940 85 80 14
-0.174755 -0.043637 0.130340 62 66 7
0.013974 -0.039653 0.055540 122 122 120
-0.110709 -0.043129 0.106540 78 79 9
0.027421 0.018860 -0.036560 117 117 119
-0.076490 -0.018781 0.088940 76 75 11
0.017773 0.013162 -0.031360 122 121 126
-0.090083 0.011191 0.065840 99 98 15
0.015808 0.000176 -0.033460 192 191 205
0.054527 -0.028798 0.014240 119 121 118
-0.178527 -0.051986 0.126940 64 68 7
0.029875 0.007337 -0.045960 197 198 202
-0.028108 0.027804 -0.018760 96 101 19
0.002786 0.055834 0.011940 32 30 7
0.036831 0.013050 -0.048960 77 78 72
-0.006603 -0.030527 0.079840 115 117 116
-0.023714 -0.043444 0.089440 116 116 116
0.058616 -0.025613 0.011740 114 116 115
0.045504 0.009058 -0.046960 89 74 81
0.074998 -0.019562 -0.000160 111 115 114
-0.161432 -0.081940 0.163040 72 73 75
0.045228 -0.037626 0.018140 122 122 122
0.030228 0.016425 -0.041360 110 110 110
-0.144439 -0.078786 0.186140 61 62 66
0.033038 0.024352 -0.039160 103 103 101
0.013869 0.016410 -0.026660 128 124 123
0.044989 0.000859 -0.043660 166 153 160
0.025711 0.003763 -0.039560 189 189 201
0.039578 0.004082 -0.044060 166 151 156
-0.169429 -0.057358 0.133540 69 70 10
0.043400 0.010381 -0.048660 170 174 175
-0.021142 0.026241 -0.016460 107 107 21
0.015314 0.032495 -0.020760 120 118 121
-0.020858 0.024992 -0.013960 105 105 19
0.033743 0.021455 -0.041160 107 107 105
0.043106 -0.003635 -0.035960 189 182 189
0.019143 0.007736 -0.072760 187 190 199
-0.168989 -0.092338 0.149340 78 80 79
-0.014933 0.027781 -0.018660 104 102 15
-0.047782 -0.084858 0.092140 121 121 119
-0.118546 -0.012545 0.113140 62 60 9
-0.033545 0.025098 0.050040 103 101 16
-0.041034 -0.006403 0.068240 39 34 2
-0.105902 0.067726 0.054940 81 82 76
0.021559 0.014532 -0.033460 100 99 104
0.019022 0.007752 -0.072760 75 78 9
-0.094749 0.027280 0.037240 84 88 11
-0.180656 -0.091740 0.133440 79 85 85
-0.050646 -0.067471 0.098740 69 69 69
-0.016746 0.033437 -0.025460 72 72 8
-0.015255 0.022458 -0.009260 114 110 23
0.042549 0.001932 -0.034760 88 69 75
0.033458 0.015486 -0.044660 108 108 108
0.061564 -0.019992 0.012440 108 110 107
-0.056570 0.031062 0.030940 100 103 16
0.082025 -0.026709 -0.012160 113 125 123
0.021343 0.016832 -0.031860 124 121 128
-0.059422 0.024491 0.045740 102 101 18
-0.179643 -0.077532 0.143940 74 76 75
0.033696 0.006784 -0.043560 188 193 197
-0.140909 -0.111165 0.172040 65 65 65
0.008753 0.034312 0.006840 35 34 6
0.021759 0.027872 -0.028660 88 87 85
-0.005103 0.039609 -0.009160 43 40 7
0.019037 0.007729 -0.072760 62 64 27
0.016748 -0.000512 -0.031760 191 191 203
-0.181527 -0.048785 0.123440 66 70 9
0.038328 0.022585 -0.044460 99 100 95
0.022727 0.008083 -0.038760 120 119 125
-0.019020 0.034071 -0.027160 81 83 20
0.076351 -0.022859 -0.003360 115 121 117
0.013775 0.033484 -0.019660 110 106 105
-0.025827 0.004872 0.055740 84 80 16
-0.007268 0.019404 -0.002860 113 108 26
0.002122 0.053590 0.009740 34 32 7
0.021187 0.027280 -0.028460 120 118 121
0.046120 0.001206 -0.044060 181 170 178
0.041527 0.002631 -0.034360 124 118 122
0.016876 0.032075 -0.022460 119 119 119
0.019035 0.007741 -0.072760 66 66 6
0.035632 0.011878 -0.049360 91 91 89
-0.045323 0.032310 0.030440 106 106 18
0.035408 0.018798 -0.044660 101 102 97
-0.060000 0.034463 0.024640 99 101 17
0.036853 0.011778 -0.051660 93 95 92
0.019062 0.007706 -0.072760 105 107 104
-0.010655 0.034275 -0.018760 58 56 7
0.025628 0.010223 -0.040160 119 119 121
0.027930 0.025973 -0.033960 109 109 107
0.030535 0.008509 -0.047260 163 163 173
0.016951 0.005684 -0.034560 120 119 125
0.032480 0.012651 -0.045460 108 108 108
-0.017408 0.028092 -0.019560 103 103 13
0.008665 0.029804 0.003640 39 35 6
-0.005106 0.042286 -0.007260 44 41 10
0.040320 -0.047495 0.018940 90 90 90
-0.029731 -0.047823 0.092940 118 119 114
-0.158502 -0.079539 0.167840 70 71 75
0.035778 0.016666 -0.045960 100 100 98
0.000184 0.025399 -0.010460 51 47 10
0.031911 0.020058 -0.040060 111 111 113
0.039685 0.016777 -0.049760 89 91 86
0.019053 0.007713 -0.072760 69 73 72
0.022301 0.025532 -0.029860 121 118 125
0.029462 0.019403 -0.038260 113 113 115
-0.069346 0.002066 0.086940 69 67 8
0.044805 0.009830 -0.047260 111 106 110
0.019038 0.007744 -0.072760 66 65 8
-0.069096 0.020608 0.053640 96 98 14
-0.001836 -0.028194 0.075740 116 116 116
0.042015 0.006608 -0.048060 170 157 164
0.003691 0.021794 -0.005760 89 85 14
0.040754 -0.045992 0.024040 88 88 88
0.033121 -0.032354 0.042640 123 123 123
-0.181255 -0.083369 0.140340 75 81 79
0.019040 0.007736 -0.072760 78 79 13
-0.006103 0.023915 -0.011160 104 98 20
0.044959 0.004546 -0.046560 174 163 169
-0.026623 0.026783 -0.017760 99 103 19
0.062486 -0.022739 0.009740 110 112 111
0.040824 0.009956 -0.048660 176 182 182
-0.051455 -0.054352 0.106540 54 54 54
0.038900 0.012034 -0.052860 123 132 129
0.019018 0.007753 -0.072760 70 75 8
0.075248 -0.019653 -0.000760 110 114 113
0.040872 0.015621 -0.051460 90 95 91
0.019182 0.007731 -0.072760 175 175 185
-0.054098 0.018140 0.065140 86 84 9
-0.036350 -0.011586 0.065440 85 82 15
-0.061126 0.025367 0.042940 98 100 16
0.030398 0.016026 -0.041560 108 108 108
-0.153191 -0.090390 0.168540 83 87 88
-0.010497 0.028795 -0.019260 97 95 12
0.028923 0.016602 -0.040060 108 110 109
-0.067414 -0.023822 0.083140 83 80 11
0.041751 0.010280 -0.048860 175 179 180
0.044063 -0.000824 -0.043160 182 171 179
0.031901 0.019482 -0.040360 109 109 109
-0.000215 0.048814 0.003240 40 36 9
0.043911 -0.021693 0.028240 181 182 186
0.007031 0.042307 0.009640 34 29 9
0.020694 0.014854 -0.032360 103 101 106
0.036243 0.016323 -0.046560 102 102 100
0.020620 0.007198 -0.037260 122 121 127
-0.094334 0.073506 0.045640 75 78 71
0.028126 0.007174 -0.045260 193 195 208
-0.025352 0.030510 -0.022860 95 97 22
0.019067 0.007704 -0.072760 111 113 108
-0.025004 -0.031160 0.096440 108 108 110
-0.026734 -0.077470 0.076640 122 123 118
0.019021 0.007761 -0.072760 92 95 18
0.072005 -0.025429 -0.000760 118 122 121
0.042484 0.020494 -0.050360 80 86 84
-0.019814 0.025230 -0.014460 106 105 15
-0.047603 -0.013171 0.070040 71 70 6
0.059660 -0.026187 0.010640 116 118 117
0.008969 0.032597 0.005840 35 34 6
-0.007905 0.029319 -0.017460 68 65 10
0.029652 0.025124 -0.035860 108 108 108
-0.154725 -0.042749 0.136840 65 66 6
-0.056024 0.017397 0.065340 103 98 14
-0.081808 0.010209 0.070740 100 99 17
0.065842 -0.031282 0.002440 119 125 121
-0.000088 0.016601 0.002740 109 104 23
0.028309 0.010907 -0.042560 117 116 121
0.052518 -0.024443 0.018140 93 93 93
0.019184 0.007729 -0.072760 105 110 114
-0.022636 -0.063668 0.079040 123 125 124
0.023550 -0.046789 0.044240 128 129 131
-0.079441 0.025124 0.041340 92 94 11
-0.097330 -0.038265 0.101540 78 77 10
0.019012 0.007786 -0.072760 75 78 9
0.059224 -0.022943 0.012840 84 90 88
-0.001169 0.017849 0.000940 109 104 23
0.019034 0.007751 -0.072760 77 78 12
0.019185 0.007725 -0.072760 108 114 114
0.038484 0.016930 -0.048260 96 98 93
-0.087037 0.072078 0.047840 82 85 16
0.047200 0.002836 -0.045560 172 161 169
0.040087 0.005765 -0.045460 169 152 162
0.055803 -0.023372 0.015940 82 82 82
-0.012905 -0.039642 0.081140 118 118 118
0.041615 0.021250 -0.048260 19 19 19
0.019017 0.007797 -0.072760 58 60 10
0.019061 0.007730 -0.072760 90 92 91
0.041970 0.020864 -0.050060 8 10 9
0.015762 0.027428 -0.023160 121 119 120
0.035324 0.021316 -0.042560 103 103 101
-0.042012 0.029418 0.035840 105 103 20
0.002392 0.037649 0.000240 38 34 9
-0.121776 0.058732 0.068940 71 73 62
0.019271 0.013581 -0.032560 123 122 130
-0.077854 -0.028905 0.089740 82 84 9
-0.002587 0.037175 -0.007260 44 41 10
0.042182 0.009514 -0.047760 123 119 120
0.031638 0.027639 -0.036460 104 104 102
-0.003129 0.009053 0.038840 78 74 10
-0.091744 0.024599 0.040340 85 90 8
0.033589 0.013824 -0.045860 104 104 104
-0.004040 0.028026 -0.014160 49 45 8
-0.018475 0.029285 -0.021460 99 102 15
0.031071 0.003480 -0.038760 189 192 199
0.040724 0.002839 -0.034660 151 149 150
0.019030 0.007753 -0.072760 75 78 9
0.031559 0.022107 -0.038960 109 109 109
-0.075309 -0.016929 0.088440 76 75 11
0.039540 0.004906 -0.038360 164 164 166
-0.018523 0.032443 -0.026160 88 93 11
0.027278 0.008353 -0.043860 103 103 105
-0.030992 -0.046043 0.095340 117 117 117
0.032247 0.019693 -0.040560 111 111 113
0.019041 0.007748 -0.072760 68 69 12
0.041218 0.020391 -0.049260 8 8 8
0.034136 -0.047155 0.035340 125 129 130
0.032347 0.000442 -0.033260 188 191 198
-0.021047 0.030136 -0.022960 94 100 14
-0.182233 -0.095976 0.129340 79 87 89
0.019029 0.007759 -0.072760 93 96 15
-0.182060 -0.049892 0.123540 67 72 8
0.075449 -0.023604 -0.003060 115 121 119
-0.029175 -0.008477 0.057540 87 83 12
0.038832 0.011331 -0.052360 152 153 158
0.003386 0.031114 -0.002760 37 33 6
0.019184 0.007729 -0.072760 111 120 129
0.044756 0.000610 -0.043560 174 162 166
0.018307 0.007163 -0.035060 118 118 126
-0.118416 -0.012964 0.113240 60 60 10
-0.082241 -0.027231 0.091940 80 79 12
-0.020020 0.031388 -0.024760 91 94 13
0.065964 -0.029261 0.003040 117 121 120
-0.004404 -0.070720 0.058240 126 126 126
0.024964 -0.002294 -0.028260 189 192 201
-0.057421 0.017997 0.063240 102 97 13
-0.013071 0.000909 0.046140 85 80 14
0.015032 0.005603 -0.033060 121 119 122
-0.081151 -0.029086 0.091340 81 80 13
0.045987 -0.005546 -0.021360 163 161 166
0.073781 -0.021156 0.000240 114 118 117
0.019074 0.007733 -0.072760 91 91 91
0.019066 0.007720 -0.072760 107 107 105
0.041392 -0.001434 -0.040560 185 176 181
-0.027985 0.026984 -0.018560 100 104 20
-0.000575 0.029683 -0.009560 42 37 7
0.039881 0.010067 -0.049160 178 184 182
0.030529 0.022850 -0.037660 108 108 108
0.041356 0.010201 -0.048860 177 181 182
-0.062194 0.032279 0.028440 97 101 17
-0.065652 0.022815 0.051240 88 89 11
0.006869 -0.028367 0.067540 119 119 119
0.000616 -0.066747 0.056340 124 128 127
0.038247 0.011466 -0.052360 168 178 177
0.039542 0.000059 -0.038860 146 137 140
0.038473 0.020477 -0.046860 97 97 95
0.005142 -0.055027 0.056440 126 128 127
0.059722 -0.030161 0.008740 119 121 120
-0.092018 0.020131 0.047640 88 91 10
-0.052238 0.018353 0.065940 61 60 4
-0.014526 0.002432 0.047140 80 79 14
0.030475 0.004486 -0.040560 189 189 197
-0.169852 -0.089620 0.150940 72 74 73
-0.010379 0.025321 -0.013060 101 96 15
0.021001 0.013505 -0.034260 122 121 127
0.019024 0.007759 -0.072760 90 92 17
0.034252 0.009858 -0.049460 176 179 184
0.019014 0.007751 -0.072760 74 77 10
0.019183 0.007728 -0.072760 114 130 155
0.032656 0.013920 -0.044460 89 87 90
0.014352 -0.029110 0.060740 123 123 123
0.040125 0.005430 -0.045760 137 120 126
0.066021 -0.027912 0.003540 117 121 120
-0.008104 0.026775 -0.016160 93 90 11
0.018617 0.029870 -0.024960 126 124 125
0.020459 0.029643 -0.026660 120 118 121
0.028302 0.019264 -0.037160 115 115 117
0.035176 0.011357 -0.050360 98 99 93
-0.109835 0.061622 0.062140 77 75 27
0.028040 0.003405 -0.038760 187 191 200
0.037865 0.012570 -0.052060 90 92 87
0.029054 0.008597 -0.046260 109 109 111
0.036490 0.002832 -0.035560 180 181 186
0.018665 0.030903 -0.024560 119 117 118
0.018158 0.033531 -0.022960 120 118 119
0.038026 0.018344 -0.047460 98 98 96
-0.022088 0.006316 0.052940 79 78 13
-0.081386 0.029199 0.035340 81 84 7
-0.113002 0.061478 0.064040 77 75 36
0.029360 0.019504 -0.037960 114 114 116
-0.048328 -0.074660 0.097640 109 109 107
0.063722 -0.029505 0.004940 118 122 121
0.042879 0.010845 -0.049760 173 179 179
0.040556 0.022759 -0.046860 86 88 85
0.031191 0.012019 -0.044460 111 111 111
0.002897 0.009240 0.034640 78 73 15
-0.124360 0.060395 0.065140 68 69 61
0.031209 0.017274 -0.041860 106 106 106
0.025819 0.001060 -0.034560 188 190 202
0.003688 -0.005914 0.049940 110 106 77
0.023225 -0.052731 0.042340 128 130 129
-0.168230 -0.091535 0.151940 77 78 80
0.046050 0.000787 -0.043760 183 170 179
0.014108 0.022687 -0.024560 122 120 123
-0.076729 0.022174 0.047040 96 99 12
0.073074 -0.026704 -0.002360 118 124 122
0.023363 0.018113 -0.033160 120 119 124
-0.013914 -0.074939 0.065540 126 127 122
-0.076134 -0.016295 0.088940 72 71 7
0.004820 0.018116 0.000540 102 99 20
-0.021972 -0.068811 0.075440 124 124 124
-0.070469 0.018244 0.057040 97 97 11
0.024595 0.026867 -0.031760 124 122 127
-0.003180 0.036336 -0.008660 44 41 10
0.042032 0.010500 -0.049460 173 179 179
0.029361 0.002748 -0.037560 189 192 199
-0.071585 -0.026871 0.085340 79 79 9
0.037671 0.010702 -0.051360 152 153 158
0.032601 0.010621 -0.046960 86 87 81
0.020019 0.003358 -0.039260 172 170 184
-0.064370 -0.008458 0.081940 72 70 9
0.046033 0.009781 -0.047160 118 113 117
0.040536 -0.001320 -0.040460 181 172 177
-0.057791 -0.038261 0.117340 66 66 64
-0.011497 0.035148 -0.019260 60 58 10
0.015936 0.011177 -0.030560 121 120 125
-0.094123 0.016251 0.054940 89 93 9
0.034851 0.010431 -0.050260 119 121 120
-0.030668 0.000467 0.058840 82 77 11
-0.182675 -0.022178 0.124140 69 74 10
0.044341 0.004725 -0.046360 184 173 181
-0.011392 0.037372 -0.017860 59 56 11
0.030381 0.014397 -0.042260 112 112 114
0.083539 -0.020101 -0.008660 117 123 121
0.019187 0.007726 -0.072760 109 115 111
-0.105520 0.020946 0.046640 83 88 8
0.039028 0.012513 -0.053060 88 92 91
0.019063 0.007705 -0.072760 104 109 103
0.030687 0.004647 -0.040760 192 193 198
0.063966 -0.018856 0.010640 105 107 104
0.024803 0.012763 -0.037960 120 119 125
-0.032887 -0.019165 0.073640 112 109 40
-0.013835 0.036057 -0.021660 53 54 10
-0.010980 0.035941 -0.018060 56 53 8
-0.010829 0.028197 -0.018660 102 100 17
-0.001922 0.019420 -0.002760 107 102 18
-0.073927 0.028559 0.036340 98 99 19
-0.000805 0.008067 0.036840 79 75 12
0.035545 0.010881 -0.050760 97 99 94
0.037146 0.014178 -0.048960 98 101 94
0.066400 -0.029265 0.002540 116 122 118
-0.015105 0.036319 -0.023160 55 54 8
0.023313 0.008190 -0.039160 119 118 124
-0.003869 -0.036842 0.074140 120 120 120
-0.077126 0.027191 0.040240 89 90 12
0.032828 0.016592 -0.043560 105 105 105
-0.103536 -0.046137 0.111440 88 88 16
-0.014647 0.021149 -0.006760 110 108 21
0.044939 0.001383 -0.043860 187 172 179
-0.011841 0.029521 -0.020760 95 94 12
0.021018 0.004298 -0.040460 180 182 197
-0.076904 0.016314 0.058040 96 95 13
0.041364 0.021017 -0.049160 12 12 12
-0.034586 0.025133 0.049340 103 101 18
-0.138508 -0.102948 0.125140 88 92 93
0.019017 0.007730 -0.072760 70 77 10
0.017758 0.034340 -0.022360 120 118 119
0.004185 0.028351 -0.003260 37 33 6
-0.027111 0.028801 -0.020560 98 101 20
0.019152 0.007740 -0.072760 188 191 198
0.041215 -0.049506 0.025140 88 88 86
0.027247 0.024521 -0.033960 111 109 110
-0.075840 0.004680 0.087840 90 89 9
0.040594 0.020366 -0.048560 91 91 89
0.019055 0.007710 -0.072760 95 97 94
-0.089453 0.008632 0.070640 97 101 17
-0.173073 -0.090566 0.145940 70 74 73
0.040043 0.001252 -0.042660 168 152 162
0.033927 0.022473 -0.040760 107 108 103
0.072105 -0.025953 -0.001160 120 124 123
0.019033 0.007752 -0.072760 74 77 8
-0.143284 0.050601 0.084840 75 74 26
-0.064912 0.021087 0.054240 95 92 11
0.019037 0.007713 -0.072760 24 24 24
-0.048260 -0.067057 0.100840 119 119 117
-0.115467 0.011114 0.062740 92 97 17
0.018922 0.036446 -0.022360 117 115 116
-0.014814 0.029914 -0.021960 98 97 14
0.000341 0.052250 0.006540 36 35 7
0.039448 0.010150 -0.049360 178 184 184
0.026404 0.017896 -0.035860 116 115 120
0.031511 0.008528 -0.047560 193 192 206
-0.026711 -0.058171 0.085040 120 121 116
0.021791 0.016146 -0.032560 123 122 128
0.018746 0.011316 -0.033160 119 118 124
-0.012262 0.036095 -0.019360 57 54 9
0.038118 -0.024410 0.041440 123 123 121
-0.175805 -0.108360 0.130040 66 70 71
0.041813 -0.000897 -0.031860 156 136 145
0.045092 0.000914 -0.043760 175 159 169
0.032484 0.023280 -0.039160 107 107 105
0.037001 0.011365 -0.051760 103 107 106
0.042184 -0.040750 0.019140 122 124 123
0.039086 0.014119 -0.050460 88 89 84
0.040724 0.007724 -0.048260 149 132 140
0.009820 -0.064544 0.049040 127 129 128
-0.038040 -0.064621 0.092240 117 119 114
0.062204 -0.032322 0.005440 119 123 122
0.023276 0.017851 -0.033160 119 118 123
0.046453 -0.002528 -0.042160 168 155 164
-0.049507 -0.010722 0.071740 73 73 9
-0.012492 0.036063 -0.019860 56 54 6
0.037559 0.015910 -0.048160 86 86 84
0.020808 -0.038581 0.050440 124 125 120
-0.031882 -0.037732 0.100240 111 111 111
0.009414 0.032177 0.006440 104 101 94
-0.008906 0.019592 -0.003560 112 110 27
0.043772 0.007379 -0.048660 138 114 130
-0.182335 -0.077373 0.141740 76 80 79
-0.018801 -0.070080 0.072640 124 124 122
0.032807 0.026990 -0.037860 101 102 97
0.037564 0.005868 -0.040560 185 186 190
-0.069402 0.012671 0.069040 104 102 17
0.017980 0.034617 -0.022360 120 119 117
0.038820 -0.031830 0.037640 125 125 125
0.019037 0.007709 -0.072760 74 78 77
0.025169 0.016323 -0.035460 111 111 111
-0.103441 0.070896 0.049140 76 81 75
0.034826 0.017864 -0.044760 101 102 97
-0.092377 0.003223 0.083340 97 99 16
-0.142054 -0.102283 0.175040 66 68 67
-0.014360 0.023650 -0.011660 105 103 16
-0.005899 0.034550 -0.013260 49 44 12
0.076515 -0.017939 -0.000460 177 166 172
-0.179012 -0.086247 0.139440 74 78 77
-0.094475 0.074181 0.042740 75 80 73
-0.004454 0.020171 -0.004560 107 102 18
0.031821 0.011990 -0.045060 109 109 109
0.013287 -0.049235 0.052140 127 127 127
-0.121366 0.061217 0.064140 71 73 62
-0.019483 0.027992 -0.019360 103 103 13
0.049706 -0.003175 -0.043060 139 122 130
0.019025 0.007753 -0.072760 74 77 8
-0.139480 -0.099470 0.125540 94 105 99
0.010216 0.021016 0.000540 120 119 115
0.014955 0.028797 -0.021960 121 119 122
0.044864 -0.006098 -0.028460 185 178 186
-0.035645 -0.004381 0.062940 84 79 13
0.036864 0.015937 -0.046960 79 80 75
0.019031 0.007751 -0.072760 77 78 12
0.023037 0.027470 -0.030060 116 114 119
0.027170 0.010633 -0.041560 117 116 121
0.005046 -0.066167 0.052240 125 127 126
-0.095463 -0.035006 0.100740 76 77 11
0.018745 0.011412 -0.033060 119 118 124
0.073549 -0.032653 -0.005960 118 129 125
-0.093187 0.074287 0.044040 66 68 63
0.042926 -0.002446 -0.041160 167 157 165
-0.111339 -0.019310 0.113340 70 70 10
0.026884 0.011946 -0.040160 118 117 123
0.016838 0.008893 -0.032560 122 119 126
0.076521 -0.023939 -0.004160 116 122 120
-0.009584 0.022758 -0.009760 108 106 19
-0.002753 0.019299 -0.002560 108 103 19
0.019016 0.007750 -0.072760 73 75 10
0.034505 0.006695 -0.042860 187 192 196
-0.163433 -0.096263 0.153640 80 84 83
0.029947 0.007808 -0.046360 195 197 210
-0.032830 0.008282 0.061440 82 78 14
0.019035 0.007729 -0.072760 67 66 18
0.042577 0.019970 -0.050460 80 86 84
-0.034870 0.027418 0.043040 108 103 21
0.019054 0.007716 -0.072760 83 83 83
-0.061803 0.024217 0.047540 101 99 16
-0.065392 0.025637 0.043040 99 101 18
0.037444 0.023839 -0.043060 99 99 97
0.042506 0.006590 -0.048260 176 166 174
0.007967 0.022359 -0.001560 48 43 11
0.019178 0.007720 -0.072760 42 88 121
0.019021 0.007755 -0.072760 75 78 9
-0.144575 -0.099409 0.123040 120 129 124
0.038653 0.014437 -0.049960 94 96 91
0.035569 0.015956 -0.046060 103 104 99
0.019791 0.018956 -0.030460 119 116 123
0.041811 0.018374 -0.050560 90 95 89
0.038078 0.012919 -0.050860 82 83 77
0.045457 -0.026849 0.023740 118 118 118
-0.008701 0.033562 -0.016960 52 49 4
0.019034 0.007740 -0.072760 69 70 10
0.017233 -0.036836 0.054340 123 123 123
0.065930 -0.027003 0.003940 99 128 144
0.036085 0.021708 -0.042860 102 102 100
-0.006115 -0.034896 0.076940 118 118 116
0.061130 -0.026795 0.009040 116 118 117
0.046652 -0.000516 -0.042860 174 163 169
-0.162962 -0.044848 0.139740 63 64 7
0.039101 0.021807 -0.046560 92 94 89
0.037554 0.022926 -0.043560 101 101 99
-0.141231 -0.086198 0.184640 57 61 62
0.040686 0.018739 -0.049360 94 96 93
-0.118152 0.009205 0.065140 90 94 17
-0.056411 0.017520 0.064940 104 99 15
-0.014184 -0.027131 0.088140 108 108 110
-0.035376 -0.000636 0.062640 85 82 15
-0.177080 -0.103028 0.132540 69 73 74
0.038579 0.009452 -0.047860 179 188 185
0.037365 0.005909 -0.040660 186 190 193
0.002801 0.053338 0.010440 33 31 6
-0.038099 -0.029086 0.109140 94 94 92
-0.036563 -0.007875 0.064840 84 79 11
-0.017222 -0.069913 0.071440 123 123 123
0.044997 0.002076 -0.044460 183 166 176
0.027233 0.013704 -0.039760 117 117 119
-0.041919 0.019376 0.063640 102 99 18
0.039479 0.020301 -0.047560 92 97 93
-0.042462 -0.032788 0.111440 95 95 95
0.029962 0.011370 -0.043660 112 112 114
0.028809 0.009196 -0.043560 87 86 82
0.019058 0.007709 -0.072760 100 102 97
0.037652 0.022982 -0.043760 99 100 95
-0.020266 0.026834 -0.017260 102 105 14
-0.019600 0.030827 -0.024160 94 98 11
0.019023 0.007752 -0.072760 75 78 9
0.041475 0.000135 -0.042960 163 150 159
0.077235 -0.021621 -0.003760 113 119 117
-0.170340 -0.042983 0.134040 65 66 6
-0.015537 0.031238 -0.023860 90 92 9
0.037238 0.024987 -0.042360 96 98 95
0.040835 -0.038271 0.032140 89 89 89
0.001128 0.032211 -0.005260 40 36 9
0.038756 0.011812 -0.052760 151 161 160
-0.132215 0.054117 0.076640 72 72 48
0.021738 0.033303 -0.026460 118 116 117
0.042379 0.002076 -0.044460 182 169 178
-0.059322 0.016348 0.065540 103 101 18
0.029304 0.012127 -0.042860 114 114 114
0.001662 0.039444 -0.000060 39 35 8
0.057715 -0.025655 0.013040 114 116 115
0.024592 0.010494 -0.038560 106 106 108
-0.011381 -0.053321 0.073040 121 121 119
0.018182 0.009612 -0.033260 119 118 123
0.023782 0.014515 -0.036360 119 118 123
0.019074 0.007721 -0.072760 103 105 104
0.041959 0.003754 -0.044860 171 159 163
0.019895 0.007385 -0.036460 120 119 125
-0.024981 -0.034866 0.094940 111 111 111
-0.154020 -0.080633 0.172340 86 87 91
-0.040406 0.028140 0.038640 107 105 22
0.043650 0.000231 -0.043460 169 154 161
0.004372 0.027950 -0.003060 39 35 8
0.021651 0.027346 -0.028860 119 117 122
-0.068836 0.029391 0.033940 98 100 17
0.043432 0.007857 -0.048760 156 135 150
0.019012 0.007791 -0.072760 68 68 32
-0.021390 -0.012030 0.056440 120 115 33
0.040682 0.020658 -0.048460 86 90 89
-0.008479 -0.045087 0.074640 120 120 118
0.041564 0.005329 -0.045960 184 168 178
0.018025 0.015541 -0.030560 124 123 131
0.033356 0.016947 -0.043860 106 106 106
0.070234 -0.032990 -0.002860 123 129 127
0.028635 0.008488 -0.045960 112 112 114
0.028389 0.028828 -0.034360 106 106 106
0.061404 -0.035629 0.004140 121 127 125
0.032933 0.001825 -0.035660 190 191 196
0.042018 -0.031798 0.024440 122 122 122
0.029830 0.022673 -0.037160 108 108 108
-0.010327 -0.060067 0.068740 126 126 126
0.004350 -0.005790 0.050040 98 97 92
0.019064 0.007704 -0.072760 106 108 105
0.077773 -0.030520 -0.009260 117 126 125
0.034530 0.016721 -0.044960 103 103 101
0.029879 0.012022 -0.043360 114 114 114
0.032637 0.020615 -0.040560 111 111 111
-0.003038 0.029199 -0.012860 43 38 8
0.019019 0.007731 -0.072760 69 74 8
-0.017538 -0.041317 0.084340 118 118 118
0.060084 -0.037473 0.004840 122 126 125
-0.049034 -0.088626 0.089940 102 102 100
0.029698 0.016829 -0.040660 109 109 109
0.000968 0.040278 -0.000160 39 35 8
-0.019142 0.028852 -0.020860 101 103 20
0.040386 -0.025731 0.036340 79 79 79
0.005294 0.056225 0.015540 30 30 6
0.031245 0.007922 -0.046760 191 194 203
0.019292 0.002260 -0.037160 190 189 203
-0.102165 0.016124 0.055140 90 93 14
-0.013742 0.031428 -0.022660 77 76 11
-0.015773 -0.037175 0.084940 117 117 115
-0.131773 0.054658 0.075240 71 69 57
-0.181831 -0.031951 0.125440 59 64 8
0.040578 0.005580 -0.039960 111 102 103
0.044476 0.006131 -0.048260 173 163 171
0.031012 -0.056642 0.033940 129 131 130
0.019045 0.007718 -0.072760 87 87 87
-0.016574 -0.041285 0.083140 120 120 120
0.016383 0.007120 -0.032360 97 95 98
-0.161311 -0.091748 0.160540 74 78 81
0.022371 0.006965 -0.038960 103 103 105
0.032572 0.008598 -0.047960 164 163 179
-0.008005 0.037879 -0.013660 47 44 9
0.072885 -0.019103 0.001440 108 114 112
-0.086299 -0.019077 0.095240 77 75 14
-0.163064 -0.079535 0.162140 74 75 77
-0.178055 -0.077917 0.146140 63 68 64
0.034121 0.017131 -0.044460 103 103 101
0.058807 -0.030848 0.009440 119 121 118
0.041862 0.010629 -0.049660 174 180 180
0.041771 0.001661 -0.036860 100 84 85
-0.046107 0.024809 0.046140 104 102 17
0.024432 0.006892 -0.042860 111 110 116
0.074221 -0.026160 -0.003160 117 123 121
0.005074 0.019631 -0.001960 97 91 17
0.045909 -0.025505 0.023840 119 119 119
0.049415 -0.000804 -0.042060 133 118 125
-0.176730 -0.083371 0.146540 66 68 67
-0.000123 0.051607 0.005240 36 35 7
0.019851 0.035391 -0.023260 120 118 119
0.026608 -0.040071 0.043840 96 96 98
0.034864 -0.000100 -0.032260 191 192 197
0.040788 0.007975 -0.047260 135 120 125
0.064236 -0.032492 0.003640 120 124 123
0.042597 0.002179 -0.033560 85 70 73
0.019162 0.007736 -0.072760 179 187 189
0.005497 0.053983 0.014240 30 29 8
0.042083 0.007090 -0.048760 175 166 171
0.040346 0.019597 -0.048660 94 96 93
-0.050892 -0.007963 0.072640 71 70 6
0.030757 0.004647 -0.040760 191 192 197
0.036973 0.008145 -0.045160 186 190 191
-0.025389 0.029127 -0.021160 94 98 13
0.014161 0.026522 -0.022960 107 105 106
0.041887 -0.002349 -0.028660 167 167 169
0.000732 -0.055162 0.060640 127 127 127
0.019052 0.007709 -0.072760 85 87 84
-0.041264 -0.072545 0.092140 121 121 121
0.002314 0.018532 -0.000460 108 102 24
0.040828 0.007641 -0.047860 130 113 119
0.027331 -0.054246 0.038040 128 130 127
0.019453 0.029754 -0.025660 119 117 120
-0.017975 0.033761 -0.026460 67 67 13
0.037359 0.013170 -0.049460 78 78 70
0.019041 0.007718 -0.072760 39 41 40
-0.098467 0.014144 0.057740 91 97 11
0.032583 0.000522 -0.033460 190 190 198
0.019037 0.007748 -0.072760 64 63 7
0.043521 -0.043557 0.016640 123 125 122
0.075903 -0.025501 -0.004360 114 123 120
0.034562 0.003735 -0.038060 187 190 195
0.042716 -0.044517 0.016940 122 126 125
0.032615 0.002994 -0.037660 191 191 199
-0.160226 -0.082244 0.163840 70 71 73
-0.042286 0.000296 0.070440 36 31 0
-0.060209 -0.093389 0.097040 111 113 110
0.026777 0.008908 -0.041760 112 112 114
-0.073217 -0.035491 0.095940 98 96 21
0.019061 0.007717 -0.072760 100 100 98
0.024967 -0.038054 0.046940 123 124 119
0.002550 -0.049895 0.061340 101 101 99
0.028039 -0.039166 0.044140 115 115 113
0.025549 0.017840 -0.035160 118 117 122
-0.104578 0.072248 0.045240 100 109 104
0.039042 0.001075 -0.041360 147 134 143
0.043690 -0.043500 0.016540 123 125 122
0.021536 -0.046067 0.046340 125 129 128
0.037749 0.011263 -0.051960 172 177 180
0.018194 0.017911 -0.029760 121 120 125
0.019064 0.007729 -0.072760 98 98 98
0.014463 -0.042600 0.053740 122 122 120
-0.055343 -0.020902 0.075140 87 87 17
-0.015529 -0.046183 0.080040 120 120 118
0.017904 -0.029828 0.057140 121 121 119
0.034815 0.011888 -0.047560 81 81 73
0.014532 0.004353 -0.033260 126 122 121
0.002693 0.025341 -0.007360 39 36 5
-0.024355 0.031400 -0.023860 82 88 16
0.047366 -0.001846 -0.041860 165 149 159
-0.025155 0.029862 -0.022460 94 97 16
0.020672 0.007745 -0.036960 121 120 126
0.019020 0.007800 -0.072760 73 75 25
-0.167402 -0.088940 0.154540 76 80 81
0.021362 -0.035986 0.051140 122 122 122
-0.103821 0.066280 0.057340 71 77 67
0.025127 0.010326 -0.039760 118 117 122
0.038460 0.011026 -0.051860 151 152 157
0.040597 0.018759 -0.049260 94 96 93
0.039475 -0.000310 -0.029960 173 174 176
-0.166822 -0.057271 0.135440 69 70 10
-0.174149 -0.050859 0.130640 67 68 8
-0.016100 -0.006738 0.048940 109 102 22
0.039187 0.012380 -0.053160 89 95 93
0.030580 0.002944 -0.037860 189 192 199
0.078347 -0.024724 -0.006260 119 125 121
0.040496 -0.000539 -0.041660 171 160 168
0.045517 -0.004424 -0.034760 186 181 187
-0.015224 -0.004874 0.047740 96 90 16
-0.166078 -0.091012 0.154140 80 84 85
0.019163 0.007739 -0.072760 177 180 187
0.019044 0.007719 -0.072760 11 13 10
-0.078825 0.019712 0.051540 101 100 17
-0.016216 0.017623 0.049340 74 70 6
0.038499 0.011899 -0.052660 117 126 125
0.051583 -0.038962 0.012040 124 126 123
0.019138 0.011959 -0.033260 119 119 127
0.039929 -0.027040 0.029940 81 81 79
0.019039 0.007710 -0.072760 67 71 72
0.068179 -0.029916 0.000740 122 126 125
0.019058 0.007716 -0.072760 98 98 96
0.019974 0.014080 -0.032760 118 115 122
0.013666 -0.024273 0.063240 119 119 119
0.036882 0.020670 -0.045160 98 98 96
0.019011 0.007754 -0.072760 70 75 9
0.024879 0.015698 -0.036260 116 116 116
0.005738 0.053663 0.014540 34 29 7
0.039602 0.014050 -0.050960 76 77 69
-0.004609 0.026959 -0.014660 68 66 17
0.019046 0.007733 -0.072760 87 87 25
-0.060634 0.020451 0.057740 91 90 8
0.024841 0.012610 -0.037960 121 120 125
0.014719 0.008013 -0.031760 124 119 126
-0.093425 0.027996 0.036540 81 85 9
-0.057067 0.013590 0.072540 102 97 15
0.019048 -0.036583 0.052440 125 125 125
0.026708 0.020173 -0.035360 115 115 117
0.000657 0.031015 -0.006760 39 35 8
0.030102 -0.027829 0.047040 122 122 122
0.035814 0.007841 -0.044860 186 189 194
-0.106000 0.013061 0.059340 91 95 11
0.038359 0.013014 -0.051460 86 91 87
0.038708 0.023951 -0.044360 96 96 94
-0.070141 0.029427 0.033540 95 98 17
0.076973 -0.026896 -0.006160 119 125 123
-0.045231 -0.036727 0.111840 101 101 101
0.028309 0.011007 -0.042560 116 115 120
-0.017977 0.017465 0.050740 77 73 10
0.082299 -0.021768 -0.008560 119 125 125
-0.009519 -0.006920 0.048240 119 115 28
-0.036137 -0.076994 0.085240 124 124 122
-0.087423 -0.015924 0.096440 70 70 6
0.019065 0.007733 -0.072760 93 93 93
-0.140740 -0.119903 0.167740 65 69 70
0.041753 0.007167 -0.048660 135 112 122
0.033217 0.011373 -0.046660 83 84 78
-0.005355 0.026667 -0.015160 83 78 10
-0.001617 0.043208 -0.001960 40 36 7
0.031020 0.009355 -0.047660 107 107 109
0.038745 0.016407 -0.048960 87 86 84
-0.009659 0.034779 -0.017360 53 50 5
0.039978 -0.032924 0.026940 83 83 81
0.019134 0.007739 -0.072760 189 192 199
0.079265 -0.026566 -0.008560 117 126 123
0.040813 0.006152 -0.046860 162 147 154
-0.003637 0.036553 -0.008960 42 39 8
0.034279 0.012772 -0.046860 107 107 105
-0.160793 -0.092597 0.159540 73 77 80
0.042955 0.003386 -0.045060 174 158 168
-0.097750 0.072891 0.045940 73 76 67
0.020988 0.021206 -0.029660 123 121 126
0.008499 0.036186 0.007440 36 34 9
0.000740 0.007107 0.036240 81 77 13
0.037712 0.022206 -0.044160 101 102 97
0.045286 -0.044726 0.014340 121 127 125
0.014707 0.003570 -0.033660 100 99 97
0.030918 0.003392 -0.038660 191 192 197
0.031193 0.006583 -0.044160 191 191 199
0.026179 0.006706 -0.044060 149 152 161
0.043448 -0.030929 0.023340 120 122 121
0.001930 -0.026533 0.072840 115 115 115
0.019036 0.007751 -0.072760 53 52 0
0.042120 -0.000526 -0.043060 180 173 180
0.044039 -0.023707 0.026540 119 119 119
-0.057063 -0.039686 0.115540 60 60 60
-0.028899 0.016096 0.059140 78 73 9
0.038795 0.022622 -0.044860 100 100 98
0.034269 0.018369 -0.044060 103 104 99
0.046342 -0.003666 -0.042360 170 163 170
0.030112 0.021382 -0.037760 112 112 112
0.039585 0.002651 -0.043460 164 148 158
0.035426 0.008781 -0.046760 188 189 191
0.030611 0.010349 -0.044660 84 85 80
0.019069 0.007740 -0.072760 99 99 29
-0.104138 0.071848 0.045940 89 96 89
-0.183203 -0.092570 0.131440 83 88 91
-0.185631 -0.072305 0.139540 84 88 87
0.039933 0.001678 -0.042960 167 152 159
0.041865 -0.034096 0.023340 122 122 122
0.017405 0.010232 -0.032360 119 118 124
0.041698 0.007514 -0.048860 166 153 160
0.055871 -0.035326 0.009540 124 126 123
0.040415 0.000308 -0.042460 164 148 158
-0.027650 -0.067871 0.081840 122 124 121
0.029497 0.000417 -0.033360 190 193 200
-0.097079 0.017696 0.051940 91 94 15
0.031908 0.019805 -0.040160 110 112 111
0.020421 0.004276 -0.040260 147 149 161
0.032891 0.014943 -0.044360 107 107 107
0.019037 0.007756 -0.072760 90 92 17
0.023164 -0.057444 0.040640 129 131 130
-0.011619 0.033242 -0.020160 55 53 2
-0.017779 0.027744 -0.018760 105 105 17
-0.016293 0.032709 -0.025160 68 68 6
-0.001621 -0.026303 0.078940 114 114 114
0.031596 0.022293 -0.038960 110 108 109
0.033041 -0.037234 0.039940 97 97 97
0.036355 0.006717 -0.042560 188 189 193
0.039041 0.010377 -0.049860 178 184 184
0.040857 0.014690 -0.051860 72 75 66
0.003766 0.004060 0.034340 84 79 11
-0.053020 0.031627 0.029940 96 98 14
-0.167037 -0.119721 0.138540 79 84 87
-0.022646 -0.051474 0.084740 120 120 120
0.006235 -0.055808 0.055440 125 127 126
-0.016303 0.026868 -0.017160 107 107 21
0.028874 0.019979 -0.037360 115 115 117
-0.096737 0.073860 0.043740 74 79 73
-0.030897 -0.033839 0.101440 106 106 108
0.039219 0.005603 -0.039760 165 165 167
-0.063285 0.036515 0.021540 91 99 16
0.027709 0.004122 -0.040160 186 189 198
0.049586 -0.000945 -0.042160 120 103 109
0.019094 0.012616 -0.032860 122 121 129
-0.051050 -0.076097 0.095640 91 93 90
-0.177068 -0.088744 0.142940 72 76 75
-0.026553 -0.068701 0.080440 123 123 123
0.041679 -0.002531 -0.038560 187 180 187
0.033383 0.009206 -0.048760 187 190 195
0.002410 0.043414 0.003840 40 36 9
0.038225 0.012635 -0.052360 88 95 88
0.029896 0.009977 -0.044260 87 86 84
0.006714 -0.045844 0.059340 121 122 117
0.030636 0.014299 -0.042560 110 110 112
0.028374 0.008105 -0.045860 110 110 110
0.019070 0.007728 -0.072760 106 106 104
