ply
format ascii 1.0
element vertex 1213
property float x
property float y
property float z
property uchar red
property uchar green
property uchar blue
end_header
-0.033389 0.018594 -0.016918 163 204 210
-0.010409 0.014330 -0.004618 115 138 172
-0.026008 -0.017123 -0.023118 132 195 54
-0.043524 0.020268 -0.023318 127 123 85
-0.031051 0.019854 -0.015118 114 148 160
-0.010955 -0.001979 -0.065618 147 152 158
0.063358 0.035208 0.050582 86 85 90
-0.034350 -0.012547 -0.025418 0 156 31
-0.039203 0.002490 0.001882 2 77 21
-0.036391 0.017190 -0.017218 75 176 120
0.009427 0.034550 0.019782 157 176 182
-0.026158 0.015641 -0.013618 165 206 212
-0.012455 0.007879 -0.005918 78 161 215
-0.015275 -0.018147 0.024282 98 115 122
-0.055358 0.009375 -0.018718 36 66 130
0.104536 0.032669 0.059382 100 100 102
0.064968 -0.004982 0.029682 153 168 173
-0.007513 -0.028298 -0.018218 218 178 129
0.089453 -0.039620 0.030982 217 202 199
0.069659 -0.043801 0.019782 111 14 21
-0.052124 0.007168 -0.014318 8 43 137
-0.026413 -0.019408 -0.023918 3 97 19
0.081148 0.047942 0.032882 79 76 83
0.100134 0.024888 0.067782 126 122 123
-0.051102 0.003956 -0.004418 93 118 122
-0.007018 0.008464 -0.004018 25 85 209
-0.010928 -0.002055 -0.065618 144 161 168
0.058134 0.026045 0.042782 149 151 166
-0.010342 0.015201 -0.004618 181 193 209
-0.040874 -0.010662 -0.028218 115 164 38
-0.045022 0.015058 -0.026718 15 69 178
-0.013674 0.021563 -0.001918 170 155 98
-0.024468 0.014268 -0.011918 145 197 211
-0.009091 -0.007937 0.018182 60 103 96
0.080711 -0.029570 0.035382 9 64 165
-0.017832 0.027537 -0.000318 19 16 121
-0.037325 -0.010925 -0.026518 145 188 47
0.111513 0.001105 0.072182 172 109 38
-0.044562 0.005455 -0.009818 4 120 13
-0.040071 0.014219 -0.017818 7 152 57
-0.016782 0.015351 -0.007918 81 100 143
0.006964 -0.026132 -0.012018 237 179 129
-0.041817 -0.020599 -0.034818 133 187 49
-0.024515 -0.025402 -0.026118 124 196 50
0.045662 0.050179 0.029082 92 89 98
-0.038255 -0.018677 -0.031218 158 192 54
-0.040292 0.012265 -0.016018 8 170 61
0.028422 -0.028382 0.002482 182 203 206
-0.005300 -0.025014 -0.017118 228 169 109
-0.036327 -0.007052 -0.027818 145 164 170
-0.072466 0.006414 0.004282 146 168 181
-0.019798 -0.002913 0.000982 0 35 117
-0.010955 -0.002011 -0.065618 65 105 81
-0.041356 -0.013972 -0.030918 137 189 53
-0.002813 -0.025370 -0.014218 254 220 185
-0.042381 0.005660 -0.009218 0 93 0
-0.010885 -0.002001 -0.065618 120 144 131
0.095390 -0.026842 0.036482 181 201 210
-0.074926 -0.002999 -0.002818 97 106 115
-0.042432 0.014695 -0.025318 5 57 179
0.042494 0.018626 0.061682 128 132 133
0.004426 -0.021087 -0.011618 204 178 151
-0.035814 -0.021456 -0.022318 33 174 59
-0.010934 -0.001986 -0.065618 151 155 158
-0.035195 0.015239 -0.015618 56 193 123
0.080504 -0.037402 0.027382 207 200 194
-0.046971 -0.006892 -0.028718 247 255 255
0.000920 0.041026 0.022082 41 83 69
-0.036499 -0.005917 -0.027118 94 112 122
0.046881 0.044012 0.038182 122 123 127
0.029853 -0.017497 0.051482 88 107 113
0.000542 -0.024295 -0.015118 243 218 187
-0.042597 -0.019345 -0.034818 105 175 40
0.075916 0.031759 0.056582 121 116 122
0.006748 -0.011575 0.023782 63 105 93
0.051936 0.050414 0.030082 119 120 124
-0.027724 -0.005376 -0.000918 62 42 79
0.017230 0.032258 0.023082 37 109 89
0.065345 -0.048497 0.015682 67 27 27
-0.044266 0.017061 -0.024418 157 154 75
-0.024375 -0.015049 -0.020418 169 209 61
-0.010888 -0.001984 -0.065618 130 128 116
0.024347 0.045886 0.032882 75 76 81
-0.032110 0.006744 -0.009818 6 158 24
-0.072102 0.006669 0.004482 142 164 177
-0.042322 -0.019445 -0.034518 112 175 42
0.058632 0.016225 0.066582 122 124 121
0.082476 0.041045 0.043682 90 88 93
0.034805 0.004386 0.017982 188 198 200
0.071256 0.049306 0.032182 89 86 95
-0.051156 0.004570 -0.009518 8 30 116
-0.024801 0.002243 -0.006718 69 154 208
-0.045817 0.004488 -0.006318 0 102 10
-0.005782 -0.010534 0.021182 42 53 59
-0.020974 0.014002 -0.007518 16 67 195
-0.043750 0.014225 -0.025818 15 71 190
0.035853 -0.007947 0.014582 97 114 124
-0.027923 -0.023550 -0.027918 131 185 45
0.063535 0.015064 0.068882 118 120 117
-0.035393 -0.014823 -0.027718 143 194 63
0.067426 -0.050700 0.016082 83 37 37
0.013311 0.038852 0.024082 162 190 191
-0.021371 0.025215 -0.004418 16 14 124
-0.009185 -0.018467 -0.016918 185 170 149
-0.006656 0.037084 0.010782 66 58 82
0.078165 0.051663 0.028582 86 83 90
0.052720 0.041007 0.042082 101 100 106
-0.021535 -0.019943 -0.012718 147 108 67
-0.067271 0.006011 0.006182 105 121 146
-0.010885 -0.002000 -0.065618 102 145 128
-0.024466 -0.024201 -0.025618 157 199 51
-0.005841 0.004748 -0.002018 116 182 217
0.035936 -0.003594 0.017382 160 172 172
0.046371 -0.009297 0.015882 177 194 212
0.088076 -0.040724 0.073482 29 45 68
-0.010879 -0.001999 -0.065618 164 189 95
0.007145 0.030063 0.041882 104 103 101
0.042136 -0.042523 0.004282 166 210 247
-0.017358 -0.006793 0.003082 54 105 168
-0.012047 -0.006380 0.001382 1 27 124
-0.001900 -0.000317 0.002382 108 198 172
0.050200 -0.044341 0.007982 55 121 205
-0.041200 -0.008459 -0.027118 104 159 156
-0.007216 0.022034 0.002182 25 21 141
-0.024309 -0.020533 -0.023018 7 147 25
0.002902 -0.030621 -0.015418 214 196 158
-0.052027 0.008789 -0.017418 4 51 155
0.015599 0.048618 0.029082 48 51 58
-0.042054 0.012694 -0.023418 13 63 184
0.011692 0.046282 0.027982 107 113 127
-0.022912 -0.000693 -0.007718 97 187 237
0.051309 0.028595 0.040882 141 82 52
0.100033 0.040639 0.047382 102 101 106
0.025755 -0.025336 0.005282 198 213 218
-0.026707 0.008684 -0.009618 8 172 59
-0.020087 -0.010630 -0.017318 98 120 143
0.075196 -0.047039 0.021882 130 47 31
0.028138 -0.030733 0.000482 104 128 154
-0.035710 -0.016962 -0.028618 0 115 14
0.035943 0.022654 0.030482 211 212 216
0.062460 -0.033576 0.061882 76 90 90
-0.052148 0.011679 -0.022218 185 184 34
0.076055 0.050060 0.031782 69 66 73
-0.035927 -0.022693 -0.022618 5 166 52
0.010678 -0.031601 -0.011718 149 135 98
-0.046387 -0.011626 -0.031518 2 145 19
0.048598 0.018707 0.062182 117 117 119
0.082747 -0.029304 0.036882 9 72 169
-0.028344 0.005404 0.000082 40 67 84
0.023199 -0.010959 0.020682 44 74 98
0.052544 0.022350 0.038682 163 98 58
-0.031670 -0.019062 -0.028118 139 123 48
0.064400 -0.038477 0.021182 52 22 22
-0.046073 0.022743 -0.022818 93 131 144
-0.070080 -0.001596 0.000982 106 122 135
-0.039240 -0.010514 -0.027018 148 192 53
0.093745 0.037608 0.050882 101 101 103
0.077254 -0.010452 0.034982 153 168 173
-0.002136 -0.018333 -0.013218 196 177 144
-0.029386 -0.001083 0.000982 68 113 168
-0.010884 -0.001976 -0.065618 96 96 96
0.016886 -0.002281 0.007782 132 191 173
-0.022250 0.031049 -0.001718 68 41 120
-0.043635 0.021581 -0.022618 116 123 105
-0.035610 0.023579 -0.015218 67 73 99
-0.040174 0.016917 -0.023318 63 120 147
-0.002307 -0.024583 -0.015218 252 221 200
-0.018800 0.010670 -0.009818 116 155 188
0.028494 -0.038063 -0.002218 181 203 216
-0.010936 -0.002017 -0.065618 13 27 74
0.002364 -0.028661 -0.014518 194 193 173
-0.070306 0.005989 0.005282 136 158 171
0.086462 0.045335 0.038082 76 75 80
-0.044775 -0.007883 -0.029118 73 161 136
-0.000313 0.007802 0.000182 24 158 45
0.061609 -0.004820 0.027782 183 203 210
0.049071 -0.032093 0.013882 207 229 242
0.039260 0.022475 0.037282 141 62 19
0.056711 -0.036564 0.018382 77 37 38
-0.011005 -0.001983 -0.065618 3 13 14
-0.071255 0.005745 0.004482 149 171 184
0.034549 -0.029208 0.006882 194 215 220
-0.066670 -0.006072 -0.000018 105 119 132
0.060585 -0.017332 0.021882 147 176 192
0.000074 -0.019807 -0.013118 200 195 176
0.035880 0.000780 0.017282 185 204 210
-0.035982 -0.016962 -0.028818 0 122 8
-0.010948 -0.002023 -0.065618 95 106 112
-0.034222 -0.015771 -0.027518 21 179 60
-0.010905 -0.002022 -0.065618 78 92 93
0.023333 0.026714 0.047782 105 104 100
-0.041687 0.011143 -0.020618 0 20 98
0.028898 0.023037 0.027582 201 208 214
-0.019072 0.003536 -0.007418 98 189 246
-0.026784 -0.016877 -0.023418 137 196 56
-0.056718 0.008038 -0.016418 137 140 9
0.097473 0.044819 0.039482 101 98 105
0.010913 0.030685 0.017582 6 142 94
-0.026611 0.011214 -0.000818 4 18 27
-0.042239 -0.010150 -0.029218 156 190 51
0.060566 -0.043713 0.017182 92 46 30
-0.041810 -0.010742 -0.028918 155 186 49
-0.004893 0.024140 0.006782 25 31 117
-0.038661 0.005530 -0.008318 3 126 20
0.028247 -0.039255 0.006282 92 111 125
-0.010219 0.008672 -0.005518 135 171 203
0.089522 0.042124 0.043382 84 82 87
-0.041143 0.010891 -0.015418 11 171 61
-0.025090 -0.023356 -0.025718 114 165 34
-0.031009 -0.008230 -0.025018 128 150 163
0.050384 0.049420 0.030782 68 67 73
-0.022559 -0.014608 -0.018918 158 209 213
0.104851 -0.045791 0.080182 78 80 79
0.056726 0.051938 0.027982 81 80 86
-0.004207 -0.003435 0.009082 86 140 126
0.088295 -0.043841 0.030682 128 22 32
-0.015529 0.002621 -0.002418 45 81 143
-0.039491 -0.011764 0.013382 77 96 113
0.042634 0.040416 0.041782 57 58 63
-0.018762 0.006040 -0.007818 88 138 199
-0.035411 -0.009849 -0.025418 32 140 108
-0.075617 0.002083 -0.003218 133 147 160
0.125588 0.004917 0.069782 220 158 99
0.070364 0.035909 0.050382 90 89 94
-0.038129 -0.016082 -0.029518 0 39 0
-0.021815 0.028853 -0.002618 43 44 62
0.089774 -0.032768 0.039882 10 46 132
0.055260 0.045146 0.036682 71 71 79
-0.043187 -0.005300 -0.030118 129 151 165
-0.045109 0.018160 -0.025918 107 102 46
-0.018527 0.027590 -0.000518 15 13 122
0.002102 0.028560 0.016782 165 179 192
0.078770 -0.039320 0.067382 87 97 98
0.103943 0.039691 0.048182 102 102 104
-0.004366 -0.025430 -0.016918 223 187 137
-0.038138 0.028916 -0.012318 29 30 97
0.033268 0.021112 0.057782 124 128 127
0.061728 -0.033642 0.061582 78 92 93
-0.005473 -0.022115 -0.013718 189 141 103
-0.044463 0.008252 -0.014818 0 30 100
-0.029177 -0.016600 -0.024718 133 195 52
-0.022617 -0.021556 -0.022518 75 147 135
0.036493 -0.029909 0.048582 100 114 117
-0.035565 -0.008355 -0.026718 131 166 162
-0.071024 0.004743 0.004482 144 166 179
0.066600 0.045317 0.036082 109 110 115
-0.041429 0.013842 -0.025118 28 88 200
0.002599 -0.031060 -0.015518 222 193 149
0.010982 -0.000036 0.004382 26 95 66
0.013781 -0.020428 -0.004318 223 232 239
-0.038780 -0.011500 0.014082 73 91 111
0.048507 0.041850 0.040682 71 70 76
-0.021031 -0.020686 -0.012918 99 94 62
-0.034616 -0.018516 -0.028418 5 59 43
0.025963 -0.030958 0.001682 176 192 192
-0.052332 -0.005810 0.008982 98 122 134
0.018139 0.024956 0.024082 212 206 216
-0.025803 -0.024291 -0.026618 147 200 50
-0.007680 -0.020659 -0.017618 215 194 151
-0.008201 0.001466 -0.003218 161 206 248
0.037709 -0.030031 0.049082 100 114 117
0.029250 0.005443 0.015482 189 207 209
-0.047873 0.011301 -0.020918 7 52 177
-0.011084 -0.002002 -0.065618 81 90 97
0.062668 -0.046032 0.016082 63 25 24
-0.001973 -0.027623 -0.016718 197 181 83
-0.039393 -0.013025 -0.029118 156 189 50
-0.043756 0.010560 -0.020218 17 66 185
-0.042502 -0.009632 0.012882 85 107 128
-0.001318 0.041062 0.024582 97 126 121
-0.061484 -0.000116 0.007282 106 128 142
0.069466 -0.034108 0.065782 78 90 88
0.053625 0.039265 0.045682 62 66 69
-0.051931 0.013358 -0.025218 75 104 184
0.103437 0.031927 0.059682 97 97 99
-0.038547 -0.019659 -0.032018 131 181 84
-0.018368 0.004624 -0.007418 126 152 213
-0.043503 -0.016682 -0.033518 139 176 37
0.050140 0.043404 0.038882 78 77 82
-0.003038 -0.022411 -0.016318 143 140 149
0.012213 0.004656 0.004382 44 157 67
0.029191 -0.038829 -0.002218 28 109 200
-0.067427 0.005490 0.006482 105 128 144
-0.017392 -0.003826 -0.000418 6 55 148
-0.038948 0.026609 -0.013218 35 47 89
-0.046709 -0.002395 0.014582 76 103 120
-0.011068 -0.001985 -0.065618 49 66 112
-0.074794 -0.004159 -0.003218 73 84 86
-0.036540 -0.016019 -0.028418 119 218 92
-0.021758 -0.013513 -0.017918 85 175 163
-0.035708 0.018151 -0.017718 23 116 87
-0.075662 0.005623 -0.001118 138 152 165
-0.020240 0.025441 -0.002018 13 16 123
0.009772 -0.028674 -0.009518 196 138 75
0.081556 0.025827 0.055882 156 161 167
0.073972 -0.037707 0.066282 72 82 81
0.009764 -0.034805 -0.011318 245 198 156
0.061891 -0.035231 0.022182 176 176 184
-0.010916 -0.001993 -0.065618 170 160 158
-0.072910 -0.002807 -0.001618 112 126 137
-0.052110 0.001972 0.013782 84 106 119
-0.033800 -0.023114 -0.030318 24 150 42
0.038217 -0.026742 0.008082 181 194 200
0.040447 -0.033938 0.007682 148 175 186
-0.005927 0.018398 0.002482 83 18 74
-0.038076 0.005532 -0.007818 0 114 11
-0.040134 -0.015882 -0.030918 38 83 14
-0.037514 0.014964 -0.016418 6 169 54
-0.035450 -0.020863 -0.023118 85 139 115
0.036074 -0.007416 0.015882 55 64 81
-0.035078 0.019634 -0.017818 162 195 202
0.003084 -0.001726 0.005282 141 194 186
0.077783 0.012006 0.056382 110 151 179
-0.010875 -0.001984 -0.065618 109 109 107
-0.074820 -0.002102 -0.002718 115 129 140
-0.040185 0.008600 -0.012218 0 125 10
-0.051237 0.013700 -0.025818 191 192 38
0.071307 -0.046505 0.018682 110 18 23
-0.017421 0.031692 0.001382 60 63 18
0.034122 0.043110 0.037682 65 65 73
-0.010886 -0.001978 -0.065618 104 103 101
0.035192 0.044067 0.036782 74 73 81
-0.011076 -0.002005 -0.065618 91 104 112
-0.042990 -0.017490 -0.033818 145 182 43
-0.041328 -0.011775 0.012082 78 96 110
0.068540 0.048613 0.031882 91 90 96
-0.010414 -0.017749 0.027782 97 115 119
0.115721 0.035027 0.057182 95 95 97
0.074367 -0.013559 0.030482 157 183 200
0.062203 -0.009123 0.025082 183 201 205
-0.039926 -0.006442 0.016082 56 78 102
-0.023002 -0.023496 -0.023818 151 194 44
-0.023845 -0.022213 -0.023618 147 191 44
-0.037879 0.004304 -0.007418 1 68 15
0.083056 -0.028645 0.033182 20 44 130
-0.011004 -0.027329 -0.020418 196 177 72
-0.035374 -0.007623 -0.027618 137 160 166
-0.068761 0.001406 0.003982 113 131 145
-0.041003 -0.019227 -0.033318 92 138 30
-0.003107 -0.019999 -0.015018 145 129 113
-0.013530 -0.004766 -0.000218 3 34 151
-0.040747 -0.020535 -0.034118 134 185 48
-0.009634 0.011554 -0.005918 206 134 198
0.025011 -0.005918 0.016382 110 136 135
-0.007295 0.007906 -0.004118 28 87 207
-0.045169 -0.014077 -0.032518 136 215 98
-0.053692 0.003207 0.012682 79 98 112
-0.034233 -0.013768 -0.026218 9 170 41
-0.021663 -0.010276 -0.019018 166 190 214
-0.043861 0.022238 -0.020418 16 32 45
0.049720 -0.041424 0.008582 177 203 220
0.089109 0.038895 0.046682 86 84 89
0.029002 -0.025028 0.003882 184 199 206
0.059646 -0.022444 0.025382 163 195 218
0.020400 0.036554 0.027582 151 162 166
0.083059 -0.032314 0.075582 81 91 92
0.063746 -0.046301 0.016082 61 26 24
-0.036391 -0.017470 -0.029618 3 150 33
-0.035672 -0.013205 -0.026818 156 188 51
-0.036742 -0.021460 -0.031518 148 190 54
-0.013929 0.035418 0.005982 20 19 123
0.036247 -0.039113 0.001582 185 208 216
0.039150 -0.031338 0.009482 191 212 213
0.044606 -0.011527 0.016582 71 115 176
-0.029811 0.018394 -0.015018 125 161 175
0.021873 0.036018 0.028282 193 171 184
0.087282 0.016352 0.053282 150 184 211
-0.041846 0.004388 -0.005418 3 102 12
-0.034392 0.012301 -0.014118 28 181 101
0.072501 0.013148 0.072982 118 120 115
-0.052250 0.012544 -0.023718 22 64 166
-0.011034 -0.002010 -0.065618 92 108 123
-0.036284 0.019505 -0.018218 162 205 212
-0.034361 -0.013127 -0.021918 27 175 39
-0.025937 -0.016771 -0.022918 150 198 54
-0.024081 -0.012052 -0.018618 178 218 217
-0.049411 0.017375 -0.028118 165 167 22
0.040180 0.041752 0.039882 102 103 107
-0.038119 -0.021791 -0.032718 136 186 53
-0.039053 -0.005570 0.016682 17 11 49
0.026975 0.044336 0.034682 67 70 77
0.007711 0.029900 0.015582 197 214 224
0.073711 0.012235 0.074482 129 132 125
0.075989 0.045380 0.037682 99 96 103
-0.004649 -0.025089 -0.016618 236 175 112
-0.036994 0.007543 -0.010518 0 131 6
-0.024518 -0.012856 0.010682 14 16 67
-0.039395 -0.010062 0.014582 79 101 125
0.003163 0.000771 0.001582 117 185 164
-0.027606 0.010240 -0.010918 34 87 0
-0.041255 0.023475 -0.019618 117 133 148
-0.046115 0.013739 -0.025718 5 59 167
-0.027776 -0.011531 0.012182 0 12 63
-0.049214 0.008771 -0.017018 13 58 173
-0.030392 -0.008411 -0.024718 137 159 170
0.002294 0.030994 0.013082 167 181 194
-0.038855 -0.021311 -0.032918 137 185 50
-0.030338 -0.012215 -0.022318 101 198 56
-0.020783 -0.029258 -0.020018 167 134 80
0.021530 -0.010589 0.020782 109 141 154
-0.030780 0.026332 -0.010618 18 20 131
-0.006533 0.021582 0.002382 19 18 145
0.026454 -0.013452 0.016782 6 40 130
-0.039996 -0.019178 -0.032518 16 76 16
0.085161 0.035487 0.053082 88 88 90
0.069786 -0.009839 0.030182 178 197 203
0.025915 0.007130 0.012382 156 165 164
-0.010912 -0.001994 -0.065618 168 159 154
-0.022599 0.023320 -0.005718 27 39 25
-0.031265 -0.016872 -0.025918 109 199 67
-0.037590 0.006285 -0.008318 0 96 7
0.019072 0.026564 0.047682 109 105 102
0.077675 -0.023198 0.028282 41 100 192
-0.030580 -0.012310 -0.022518 123 202 57
-0.027988 -0.022076 -0.026918 148 192 45
0.076476 -0.046148 0.023382 185 95 84
-0.044697 0.009383 -0.017818 9 50 164
-0.016923 -0.018366 -0.019618 216 203 169
-0.010118 -0.003204 -0.002918 101 186 243
0.025323 -0.004683 0.014482 128 179 164
0.035419 -0.015664 0.022282 0 43 152
0.029540 0.038419 0.032882 187 188 193
-0.015652 -0.014715 0.025882 89 107 111
-0.006793 -0.014273 -0.013818 169 186 202
-0.042399 -0.017968 -0.033418 151 185 46
-0.011035 -0.002009 -0.065618 92 115 123
0.079023 -0.040677 0.026182 135 25 36
-0.002153 -0.023212 -0.016218 156 155 160
-0.076032 0.002559 -0.000318 59 70 76
-0.039968 -0.011156 -0.028218 155 187 50
-0.013712 0.007552 -0.004218 76 120 183
0.015738 0.025016 0.022982 170 177 187
0.076108 0.049683 0.032082 83 82 90
-0.074576 0.001853 -0.000118 128 148 157
0.042139 0.020497 0.058882 112 111 109
0.007831 -0.021028 0.033082 98 111 117
0.124833 0.028212 0.067582 102 101 99
0.075595 -0.046383 0.022682 139 47 36
0.008655 0.027666 0.018882 137 172 165
-0.040946 -0.020703 -0.034418 129 183 46
0.019746 -0.023372 0.042182 97 114 121
-0.039232 -0.008886 -0.026618 86 154 143
0.003464 -0.003768 0.009282 17 153 42
0.062971 0.014017 0.055382 63 71 73
-0.065168 -0.000252 0.004982 107 126 140
0.066468 0.046781 0.035182 93 90 97
0.032417 0.020325 0.032782 185 187 182
-0.009677 -0.016215 0.029182 91 108 115
0.106554 0.011298 0.062482 144 165 109
0.055950 -0.047724 0.010382 70 26 25
-0.032896 0.019867 -0.016218 114 143 161
-0.007604 -0.016268 -0.014018 223 189 177
0.026818 -0.037078 -0.000418 156 171 166
-0.040015 -0.014878 -0.030318 141 206 80
0.033456 -0.037088 0.001382 180 198 210
0.092194 -0.026184 0.034682 177 200 208
-0.059939 0.008594 -0.017818 7 47 132
0.028023 0.026790 0.026482 149 153 156
0.028914 -0.028955 0.012382 138 150 150
-0.028535 -0.022734 -0.028118 156 190 51
-0.038399 0.007482 -0.011218 0 134 5
-0.014910 0.022807 -0.002318 18 19 145
0.027333 -0.033805 -0.000518 180 199 197
-0.010982 -0.002008 -0.065618 58 87 127
-0.045266 -0.007257 -0.028718 193 227 237
0.023712 -0.007649 0.019382 112 138 139
0.038855 -0.010527 0.012382 2 58 167
0.099396 -0.012403 0.046482 204 209 205
-0.062655 -0.005358 0.003082 110 128 142
-0.045627 0.006553 -0.011418 0 112 5
-0.034138 -0.010042 -0.023718 152 194 193
0.051567 0.033449 0.043582 145 147 144
0.001043 0.011999 0.000882 136 161 165
-0.017789 0.007826 -0.008518 132 176 213
-0.060365 0.003160 0.009482 100 126 139
-0.024390 0.018791 -0.011518 130 147 165
0.008136 0.010580 0.004382 169 190 193
-0.040327 0.027817 -0.013018 8 20 92
-0.041218 0.018888 -0.022218 22 32 44
-0.040080 0.015373 -0.024118 47 42 13
-0.018128 -0.007976 0.005482 26 61 129
0.002909 -0.000907 0.002882 169 201 214
-0.042227 -0.018524 -0.033918 153 187 48
0.031294 0.019569 0.037982 85 52 37
-0.040985 0.004030 -0.005018 3 89 18
-0.015307 -0.020090 -0.020118 220 210 183
0.053990 0.017055 0.047382 117 119 158
0.109361 0.005746 0.071282 150 137 103
0.108109 0.026396 0.068682 94 92 93
-0.040232 0.014659 -0.024418 10 48 145
-0.018180 -0.026011 -0.024318 221 178 135
-0.038618 0.016104 -0.017418 0 149 31
0.009696 0.008283 0.004982 20 104 52
-0.046462 0.015379 -0.027518 178 175 20
0.031453 -0.029494 0.045882 98 111 117
0.070059 0.051435 0.028182 82 81 87
-0.042339 0.009259 -0.013518 0 120 0
0.033911 0.033909 0.034182 172 78 94
-0.030718 -0.021660 -0.028818 69 172 37
-0.043314 0.024077 -0.020418 121 134 143
-0.058152 0.003010 0.010982 94 117 131
-0.010932 -0.002027 -0.065618 87 95 97
-0.042505 -0.008922 -0.028718 12 151 24
0.040200 -0.037133 0.005982 98 160 171
-0.028470 -0.019360 -0.025618 2 141 16
-0.035199 -0.013306 -0.026618 9 165 32
0.008514 0.034796 0.019482 99 116 110
0.015159 -0.019415 -0.002618 138 155 163
-0.053965 0.009375 -0.018718 100 132 209
-0.051582 0.006583 -0.013418 6 37 119
0.029507 -0.030849 0.000582 190 164 113
-0.031620 0.025762 -0.009818 8 17 82
0.069427 -0.026414 0.030382 16 80 180
0.050510 -0.005809 0.022182 105 135 135
-0.035165 -0.017941 -0.028518 146 195 192
-0.045120 -0.004814 -0.030818 166 184 198
0.058776 -0.036576 0.019782 66 30 32
-0.033707 -0.009932 -0.023318 172 207 203
-0.011041 -0.002009 -0.065618 94 114 123
0.069503 -0.037015 0.023782 188 178 179
-0.040800 -0.011440 -0.028718 117 149 40
-0.014263 -0.018676 -0.019318 207 212 182
-0.044330 0.011934 -0.022018 9 60 185
-0.010980 -0.002007 -0.065618 14 44 106
0.113630 -0.017031 0.052882 188 205 195
-0.033908 0.030405 -0.009318 19 15 112
0.086507 0.044242 0.039482 61 61 63
0.047237 -0.041406 0.009482 136 163 172
-0.037008 -0.010647 -0.025818 9 169 45
0.034872 -0.033705 0.003982 129 167 186
-0.021612 -0.017137 -0.020118 16 173 44
-0.041563 0.013578 -0.024518 4 60 179
0.044715 0.048236 0.031982 112 113 118
0.030571 0.029812 0.029782 179 174 181
-0.000619 -0.017402 0.034182 85 104 108
-0.043686 0.019482 -0.024118 159 144 19
0.030535 0.004870 0.016082 196 214 216
-0.010967 -0.001974 -0.065618 143 147 156
-0.041702 0.004107 -0.004918 4 92 16
-0.003093 0.000294 0.005082 116 177 169
-0.022602 0.016707 -0.008618 94 120 133
-0.000052 0.005849 -0.000418 96 168 144
-0.012984 -0.014595 0.027982 93 110 117
0.093977 0.046163 0.035982 94 98 101
-0.040536 -0.016181 -0.031118 2 144 26
0.016310 0.044081 0.029382 112 120 131
-0.011018 -0.002012 -0.065618 77 93 106
-0.034963 -0.003564 0.011382 77 120 175
-0.010930 -0.001982 -0.065618 108 99 100
-0.020897 -0.023165 -0.014218 77 73 46
-0.047461 -0.001512 0.014882 81 109 121
-0.035059 0.003124 0.000482 3 77 16
0.010710 0.026244 0.020782 192 209 217
0.067388 0.030186 0.050882 180 165 170
0.003780 -0.021259 0.034282 98 116 120
-0.040774 -0.015651 -0.031018 13 85 12
-0.044563 0.020159 -0.024218 133 153 160
0.021641 -0.013934 0.019582 89 128 161
-0.027669 -0.010967 0.012482 8 32 94
0.076125 0.028227 0.054282 159 157 160
-0.016306 -0.000058 -0.001418 29 64 118
-0.011057 -0.002007 -0.065618 102 118 131
-0.031047 -0.016740 -0.025918 109 197 58
0.031521 -0.028141 0.046382 97 114 122
-0.014625 -0.015864 -0.017218 217 196 153
0.068252 -0.037091 0.024482 177 162 167
0.090812 -0.029384 0.037182 60 86 163
-0.050725 0.011220 -0.021518 83 106 160
0.069895 -0.014603 0.027282 176 188 200
-0.044159 0.011261 -0.021218 118 148 220
0.006168 0.029301 0.015882 193 202 217
0.063574 -0.021838 0.026282 150 185 207
-0.066254 -0.005392 0.000782 109 125 138
0.050440 0.046870 0.034682 64 65 70
-0.011061 -0.002007 -0.065618 102 118 131
-0.016945 -0.015640 -0.017818 224 195 153
-0.016348 0.036594 0.004682 176 168 205
-0.035904 -0.021650 -0.031118 152 193 61
0.004113 -0.028963 -0.013718 224 191 148
-0.030123 -0.013776 -0.023218 168 202 55
0.124851 -0.050611 0.076482 72 62 53
-0.026762 -0.015661 -0.022718 148 184 48
0.079452 -0.023111 0.029282 184 194 204
-0.052513 -0.002630 0.010982 93 121 132
0.009308 0.025822 0.023382 37 145 93
-0.010899 -0.001999 -0.065618 176 169 163
0.040442 -0.008180 0.014182 180 198 210
0.076512 -0.041700 0.025982 163 68 62
-0.022996 -0.013554 -0.018818 22 165 77
-0.021813 -0.022504 -0.022318 0 90 66
0.085804 0.036427 0.051182 105 104 109
-0.024434 -0.018010 -0.022618 128 201 67
0.050979 -0.020303 0.028782 27 46 104
-0.057619 -0.006550 0.005182 108 128 139
-0.038232 0.004976 -0.004318 5 98 18
-0.029747 -0.011323 -0.021118 155 197 196
0.086751 -0.045481 0.029182 127 23 32
0.093962 -0.023419 0.037282 98 126 163
0.075427 0.045875 0.037282 98 97 102
-0.031393 -0.021619 -0.029418 8 160 41
-0.026658 0.007688 -0.008218 2 159 42
-0.039480 -0.014114 -0.029818 142 191 50
0.034043 -0.034702 0.003182 178 196 198
0.005649 0.005299 0.001782 18 114 43
-0.038121 -0.019592 -0.031718 148 188 56
-0.026228 0.009891 -0.010018 13 174 68
-0.030288 -0.021516 -0.028318 144 178 29
0.002504 -0.019555 0.034582 94 113 117
-0.025837 0.026007 -0.006718 14 13 130
-0.039437 0.019563 -0.021118 10 43 88
0.005832 0.044954 0.022582 140 164 168
0.046752 -0.036354 0.011482 154 184 186
-0.038487 -0.015407 -0.029518 133 209 87
-0.047844 0.013427 -0.024318 154 151 18
0.026704 -0.033640 -0.000118 175 195 193
0.018440 0.000470 0.005682 26 128 26
-0.002223 -0.015328 -0.011618 172 189 205
-0.031972 0.012639 -0.013518 9 170 58
-0.033852 -0.011881 -0.024318 8 27 8
0.069177 -0.046876 0.018682 65 16 19
-0.022430 -0.018286 -0.021218 39 186 56
0.101974 0.033988 0.057782 85 85 87
0.007683 -0.030359 -0.012818 220 203 173
-0.024724 0.016398 -0.013418 168 207 222
-0.037593 -0.007314 -0.028318 130 149 153
0.059242 0.044314 0.037582 72 69 76
0.025515 0.000115 0.009782 19 120 26
-0.056692 0.011423 -0.022118 45 86 165
-0.044434 0.011660 -0.021818 145 174 254
0.030459 -0.023649 0.003382 175 185 194
0.026600 -0.041544 0.002982 130 158 172
-0.005865 -0.024733 -0.016918 227 147 88
-0.012230 -0.017089 -0.017218 203 202 172
-0.045455 -0.012177 -0.032418 30 156 30
-0.031624 -0.011072 -0.022318 81 155 138
0.075504 0.050650 0.029182 97 96 104
-0.043214 -0.011291 -0.030218 152 185 46
-0.033123 0.009914 -0.012118 9 170 54
-0.033550 0.004121 -0.002718 3 91 13
-0.004752 -0.025720 -0.017418 235 203 182
-0.017079 0.000739 -0.005618 50 134 198
-0.050502 -0.009439 -0.026418 57 175 53
-0.028184 0.008119 -0.010018 13 176 61
0.073775 -0.030179 0.036382 20 43 95
-0.020263 -0.027086 -0.022218 97 133 105
-0.041920 0.011639 -0.021418 25 85 205
-0.044973 0.005352 -0.008718 6 119 15
0.002818 -0.030070 -0.015118 205 191 144
-0.001757 0.013397 -0.000318 158 170 182
-0.025149 -0.015441 -0.021418 164 199 57
0.012052 -0.019664 -0.005318 204 221 231
-0.023584 -0.024033 -0.024618 153 196 46
-0.015231 -0.018167 -0.019318 208 208 180
0.039519 -0.011013 0.012882 35 82 188
-0.023030 -0.025369 -0.025118 83 184 42
-0.034085 0.019880 -0.016918 127 159 174
-0.030674 -0.007942 -0.024218 119 143 153
-0.036659 -0.016434 -0.028718 0 39 0
0.022529 -0.003834 0.012082 13 44 39
-0.038930 -0.014556 -0.030018 141 193 59
-0.038354 -0.013916 -0.029218 153 194 56
-0.010904 -0.001992 -0.065618 109 101 90
-0.009140 0.027854 0.005582 79 63 48
0.000630 0.036535 0.018582 109 136 131
0.037719 -0.031189 0.008682 202 216 217
0.008294 0.049759 0.026482 80 83 90
-0.040959 -0.019438 -0.033518 155 187 54
-0.037782 0.027362 -0.011618 6 20 95
-0.020674 -0.020315 -0.009618 220 188 149
-0.002158 -0.007163 0.017582 75 119 92
0.016322 0.033679 0.022982 138 165 160
0.005750 -0.023946 -0.012318 212 193 153
-0.025610 0.010085 -0.007618 17 32 39
-0.042527 -0.018349 -0.034518 148 182 46
-0.010922 -0.002057 -0.065618 1 37 95
-0.048471 -0.002648 0.013282 86 114 126
-0.031388 0.017697 -0.015518 141 191 200
0.015589 0.001853 0.005182 120 174 160
-0.043400 0.003788 -0.003318 1 86 19
0.101449 -0.046991 0.076882 91 92 87
0.046936 0.049049 0.030682 80 81 86
-0.010960 -0.001974 -0.065618 133 134 138
0.057099 0.029237 0.044382 122 68 81
0.017261 -0.024032 -0.005518 202 189 155
0.037654 0.018322 0.039182 121 65 30
0.058696 0.029944 0.045582 158 156 169
0.042142 0.025573 0.033382 138 63 8
-0.037843 -0.018631 -0.030918 157 188 58
-0.007541 0.000398 -0.002418 112 189 233
0.018574 0.029380 0.021582 149 153 164
0.025997 -0.042072 0.002982 90 128 167
-0.009866 -0.022641 -0.018518 243 212 181
0.089873 0.012565 0.056582 76 147 175
0.109799 0.036399 0.053082 87 91 92
0.079751 0.019290 0.051482 138 164 189
0.025180 -0.006411 0.017182 108 133 130
-0.021266 -0.012715 -0.017018 178 209 212
0.001575 0.044982 0.019982 145 158 164
-0.035472 -0.015087 -0.027918 67 173 47
-0.011144 0.006373 -0.005418 144 203 245
-0.043093 0.009835 -0.016818 0 31 98
-0.046973 0.006105 -0.010818 0 22 63
0.122451 -0.046147 0.064682 79 55 53
-0.025865 -0.012733 -0.020118 83 184 82
-0.010908 -0.002030 -0.065618 82 91 88
0.069422 -0.028160 0.031782 5 32 101
-0.029411 0.025271 -0.009818 129 124 66
-0.040961 -0.010715 -0.028518 153 190 58
0.001064 0.037367 0.018382 78 118 107
-0.011032 -0.002011 -0.065618 91 107 120
0.097165 0.034587 0.055282 86 84 87
-0.010931 -0.002027 -0.065618 85 97 97
-0.038478 -0.018251 -0.031318 137 169 34
-0.063306 -0.001571 0.004982 109 128 142
-0.016539 -0.027196 -0.023318 215 171 126
0.048231 0.023494 0.036382 163 92 38
-0.031057 0.016651 -0.015518 0 113 52
-0.002962 -0.004979 0.010782 108 130 144
0.032060 -0.037471 -0.000618 185 204 210
0.014652 -0.020007 0.041182 92 111 117
0.005219 0.006384 0.002782 63 143 106
0.002802 -0.016404 -0.009018 154 178 190
-0.029926 -0.008620 0.010182 0 13 74
-0.034819 -0.019956 -0.029718 3 157 37
-0.024534 0.018293 -0.011418 110 133 149
0.090191 -0.022078 0.036782 166 190 202
-0.076336 0.004458 -0.002118 104 121 129
0.070972 0.051235 0.029482 81 78 87
-0.004107 -0.020700 -0.015818 209 176 143
-0.001094 -0.017086 -0.010618 173 154 139
0.035765 -0.003033 0.016282 162 176 179
-0.039600 0.013783 -0.024218 10 65 182
-0.050711 0.008450 -0.017018 6 47 152
0.043750 -0.011594 0.016382 39 74 168
0.028578 -0.035481 0.007182 113 128 121
-0.040930 0.010721 -0.015218 12 172 62
-0.042538 0.023437 -0.020318 112 130 142
-0.010730 -0.013476 -0.015318 175 196 215
-0.035378 -0.012668 -0.026118 5 160 32
0.025189 -0.010172 0.016582 124 163 178
-0.006996 0.011826 -0.004718 39 130 159
-0.013857 0.002072 -0.005418 110 191 247
0.001337 -0.016272 -0.010018 179 198 212
0.066309 0.044901 0.036882 76 75 81
0.112992 0.006298 0.070482 138 70 23
0.060050 0.015492 0.050182 173 168 190
-0.034567 0.020415 -0.016918 110 139 157
-0.042665 -0.019141 -0.034818 102 176 39
0.011938 0.050213 0.025682 102 102 110
0.021883 -0.023610 0.043382 95 112 119
0.070386 -0.040064 0.021982 122 20 31
-0.068769 -0.000692 0.002282 110 127 137
-0.010618 0.009848 -0.005918 58 90 177
-0.036595 -0.011490 -0.026318 84 129 12
0.000860 -0.028248 -0.015418 183 166 60
-0.041976 -0.017544 -0.033118 152 184 49
-0.040912 0.011591 -0.017818 6 166 58
0.051262 -0.033190 0.014682 184 207 221
-0.018947 0.013849 -0.010918 127 172 253
0.042515 -0.038052 0.006882 197 207 217
-0.010934 -0.002018 -0.065618 24 41 71
-0.011068 -0.002007 -0.065618 118 138 149
-0.003426 0.043371 0.019782 159 174 181
-0.024911 0.033474 -0.003018 48 45 26
-0.010878 -0.002030 -0.065618 31 47 96
-0.001990 -0.026238 -0.015918 210 191 151
0.038549 0.000422 0.017482 165 183 185
-0.010930 -0.001987 -0.065618 162 164 163
-0.041474 0.014644 -0.025118 3 54 172
-0.038773 -0.014869 -0.030018 137 197 63
-0.010077 -0.021728 -0.018718 234 209 178
0.063382 -0.046765 0.015782 64 22 23
-0.035040 -0.022184 -0.030718 133 190 59
0.035792 -0.029712 0.007582 195 216 219
-0.022963 -0.002392 -0.000518 5 93 164
-0.053757 0.013024 -0.024918 18 68 181
0.018092 -0.020685 0.043082 93 112 118
-0.019696 -0.023518 -0.017718 223 149 104
0.008680 0.030063 0.041882 105 106 101
0.000533 -0.018238 -0.011218 208 188 164
-0.034169 -0.016465 -0.027118 28 191 72
0.002133 0.005739 0.000482 24 107 55
0.061587 -0.045743 0.016382 78 40 29
0.056593 -0.029128 0.061382 92 106 109
-0.049431 -0.009260 -0.028018 44 97 53
-0.031965 0.030276 -0.009218 29 23 83
-0.013987 -0.002641 -0.004118 154 202 251
0.004073 -0.021194 -0.011818 207 188 158
0.022148 0.032647 0.026182 179 183 195
-0.061266 0.002552 0.008982 103 129 142
0.103293 0.012038 0.060282 153 172 150
-0.039105 -0.010743 -0.027318 157 195 56
-0.020755 -0.000991 -0.006518 78 179 231
-0.015685 0.012744 -0.008918 40 146 160
-0.039613 0.013050 -0.022118 0 22 109
-0.033785 -0.010775 -0.023518 43 94 79
0.035711 0.046334 0.033582 74 74 82
-0.022841 -0.014377 -0.018818 73 129 128
0.089625 0.032747 0.056282 94 94 96
0.102931 0.037906 0.051382 91 89 92
-0.056909 0.007484 -0.015918 58 81 131
-0.031210 -0.015908 -0.025418 87 186 44
0.044160 0.019510 0.041082 172 97 58
-0.014140 0.010553 -0.007518 22 77 194
0.095857 0.044126 0.039482 101 100 105
0.025066 0.029793 0.026682 181 161 173
-0.035574 0.012694 -0.014718 151 190 75
0.060854 0.042637 0.039782 104 103 108
0.085077 -0.049100 0.026282 137 104 37
-0.036234 -0.006819 -0.028018 120 141 146
0.016388 -0.027669 -0.008318 231 210 181
0.024583 -0.023774 0.002582 179 190 194
0.024174 -0.039314 0.002082 148 167 173
0.003353 0.000928 0.001782 128 195 177
-0.036753 0.018410 -0.018218 53 133 124
0.037469 -0.039795 0.002682 195 210 215
0.014125 -0.027854 -0.009018 246 219 192
0.090454 -0.012468 0.042082 185 214 218
0.034110 -0.030482 0.005682 183 207 207
0.034964 0.020114 0.035782 150 78 40
-0.025109 -0.024735 -0.026518 127 196 53
-0.054208 0.002433 0.012682 88 111 125
0.010632 -0.024403 -0.010318 208 197 165
-0.021942 0.016491 -0.007118 80 102 116
0.001405 0.031944 0.013482 191 210 224
-0.023639 -0.002462 -0.000718 16 104 175
-0.022479 0.031663 -0.001618 16 51 153
0.038311 0.042844 0.038382 104 105 110
0.023910 -0.008753 0.019182 123 156 163
-0.033991 -0.011875 -0.024718 18 164 55
0.042207 0.022005 0.038182 156 79 27
-0.010890 -0.001979 -0.065618 93 93 93
-0.010970 -0.001963 -0.065618 101 110 107
-0.039045 0.006513 -0.009318 5 118 12
-0.042527 -0.010983 0.011882 87 106 121
0.060011 0.021473 0.041482 188 95 122
-0.016216 0.002439 -0.004918 39 91 151
-0.029579 -0.000186 0.001682 74 112 161
0.007254 -0.019573 0.034682 77 90 98
0.070133 0.034525 0.052082 78 77 82
0.070243 -0.013530 0.027682 178 196 200
0.085857 -0.039860 0.030782 195 183 183
0.012789 -0.021619 -0.006618 173 153 116
0.125522 0.001016 0.075082 181 162 130
-0.008548 0.000296 -0.003318 138 209 253
-0.010001 -0.028305 -0.020018 218 200 160
-0.009908 -0.019585 0.027182 99 117 121
0.039793 -0.006366 0.014682 106 131 172
0.047047 -0.034479 0.012682 165 198 203
0.067500 -0.020194 0.023182 187 200 216
0.027770 0.022296 0.029082 180 191 195
0.018521 0.007204 0.009482 111 154 135
0.089855 0.015217 0.054482 113 177 202
-0.038991 0.015387 -0.023418 169 150 29
-0.051949 0.004567 -0.009018 16 34 120
0.084007 -0.007729 0.039782 203 208 202
0.028286 -0.035271 -0.001418 177 204 215
-0.013423 0.032957 0.004982 14 16 129
0.082917 0.036934 0.050782 95 96 98
-0.038479 0.003981 -0.006818 0 46 0
-0.047826 0.020895 -0.025718 55 85 96
-0.012506 -0.012355 -0.015118 155 174 189
0.106439 -0.048289 0.078982 93 90 83
0.085155 -0.007989 0.040282 204 203 198
-0.024413 0.003732 -0.006718 99 174 214
0.043991 -0.019362 0.028182 24 36 88
-0.045369 0.014672 -0.026518 18 74 187
-0.027030 -0.014655 -0.022118 147 189 77
-0.044736 -0.014889 -0.033318 0 105 10
-0.025522 -0.017017 -0.022618 153 206 62
-0.017734 -0.023481 -0.023118 215 199 183
-0.020747 -0.022109 -0.020418 0 123 27
-0.035652 0.008796 -0.012118 4 158 34
0.010626 0.028447 0.044582 111 107 108
-0.042084 -0.010623 0.012482 85 106 123
0.044043 -0.008523 0.016282 142 170 182
-0.041931 -0.002587 0.016882 24 49 90
0.006209 0.040386 0.020582 150 180 182
-0.028921 0.016447 -0.015018 164 197 214
-0.043695 -0.017206 -0.034118 147 186 43
-0.052386 0.003872 -0.006618 12 27 92
-0.016328 -0.026383 -0.023518 208 184 138
0.085699 0.038422 0.048482 86 84 89
-0.023982 0.033341 -0.002518 80 78 29
-0.031563 0.003306 0.001882 20 40 49
-0.022315 -0.023528 -0.023118 11 171 47
-0.028473 -0.009149 -0.023818 149 169 180
0.053428 0.028056 0.041882 145 89 62
0.063273 -0.035413 0.060882 80 94 95
0.047921 0.047192 0.032682 92 93 98
0.123357 0.027437 0.070082 91 89 90
-0.019823 -0.010425 0.010682 4 53 94
-0.011779 -0.019820 -0.018718 211 214 193
0.049464 -0.032985 0.013482 199 221 232
-0.028192 -0.022248 -0.027318 156 194 47
0.111590 0.003399 0.072782 144 91 37
-0.041312 0.016834 -0.024118 20 19 0
-0.011068 -0.002005 -0.065618 105 117 131
0.016322 -0.002523 0.007782 145 198 180
-0.034460 -0.021645 -0.026418 54 79 60
-0.046466 0.018020 -0.025318 155 157 94
0.042681 0.020984 0.056382 111 104 98
0.010799 -0.031031 -0.011118 210 195 112
-0.016848 0.009521 -0.008518 160 184 218
-0.044923 -0.011401 -0.031518 76 166 42
-0.051608 0.011450 -0.021718 190 193 44
0.034235 -0.029891 0.006382 189 209 210
-0.019282 0.035275 0.003382 16 18 131
0.056960 0.019375 0.043382 111 142 188
0.090421 0.009872 0.060782 114 142 84
-0.029636 0.014113 -0.014118 171 176 82
-0.048361 0.017039 -0.027718 172 168 19
-0.060886 0.002294 0.008782 104 130 143
0.002695 -0.028190 -0.014118 175 174 179
0.081290 0.051538 0.028182 83 84 88
-0.045371 0.014097 -0.025918 6 62 181
0.002109 -0.023759 -0.014418 227 206 179
-0.021193 -0.003695 0.002982 8 28 61
-0.010904 -0.001996 -0.065618 141 126 119
0.015303 -0.003020 0.008782 17 48 51
-0.005404 0.032421 0.010682 52 54 163
-0.023405 0.016228 -0.009518 61 100 107
0.036160 -0.036366 0.003182 165 185 196
-0.044154 0.009584 -0.016518 5 46 138
-0.039415 -0.007149 -0.028618 134 155 156
0.046377 0.024047 0.035482 169 95 56
0.070863 -0.008815 0.030582 181 200 206
-0.036774 0.013104 -0.015218 42 86 0
0.026110 -0.006344 0.014282 158 188 198
0.018890 0.040421 0.027982 150 164 165
-0.037421 -0.007288 -0.027918 136 157 160
-0.044727 0.017331 -0.024518 162 159 92
-0.043885 -0.014979 -0.032818 0 87 7
-0.010931 -0.002033 -0.065618 171 180 179
0.017249 0.040680 0.026982 151 166 169
-0.011020 -0.002012 -0.065618 78 95 105
0.005191 0.010706 0.002982 216 237 240
-0.005123 0.033439 0.012182 58 58 156
0.024837 0.024104 0.025582 208 217 224
-0.014811 0.016201 -0.007018 168 183 202
0.001453 0.035034 0.016082 78 137 119
0.043886 0.025851 0.034382 180 106 59
-0.033937 -0.020522 -0.027918 50 100 62
-0.036385 0.028463 -0.010918 94 84 57
-0.010917 -0.001991 -0.065618 135 138 131
0.078980 0.046466 0.035682 79 78 83
-0.010930 -0.002018 -0.065618 93 113 124
-0.068415 -0.000464 0.002482 108 124 137
-0.010948 -0.001981 -0.065618 160 164 173
0.111742 0.032170 0.060582 94 92 93
0.001771 0.037801 0.016982 106 148 146
0.018073 0.028381 0.020382 205 219 230
-0.047884 -0.006998 -0.029418 250 254 253
-0.010565 -0.016213 -0.015418 218 189 147
-0.047353 0.021782 -0.024718 98 135 162
0.003856 -0.023609 -0.013418 216 202 173
-0.021936 -0.024311 -0.023318 15 170 53
-0.023073 0.030705 -0.002918 81 43 126
0.023700 0.025369 0.023182 185 196 202
0.065190 0.019554 0.043682 160 67 98
-0.031877 -0.008951 -0.024718 131 154 160
-0.003326 -0.026880 -0.017118 219 205 178
0.119311 0.012598 0.070682 146 118 96
-0.026746 -0.017120 -0.023518 142 201 59
-0.010979 -0.002006 -0.065618 45 86 116
0.127393 0.005263 0.070682 220 168 118
-0.006304 -0.030234 -0.018118 234 161 116
-0.041873 0.005530 -0.008318 1 114 10
-0.040273 0.013124 -0.016418 0 147 47
0.009579 0.008965 0.005382 94 145 130
-0.003690 -0.019455 -0.014818 210 193 165
-0.011952 -0.023631 -0.017818 254 221 178
0.066694 -0.003973 0.031582 182 189 195
-0.038607 0.004405 -0.003318 2 71 17
-0.012317 -0.017815 -0.017918 188 189 171
-0.012796 0.014750 -0.005518 119 143 177
-0.028440 -0.013998 -0.022418 166 201 55
-0.003268 -0.005876 0.013682 70 100 98
0.089837 0.010615 0.059882 132 158 121
0.029059 0.048097 0.030682 112 115 122
-0.047699 0.018294 -0.026418 143 155 105
0.026707 0.007005 0.012782 159 167 169
-0.027070 0.034151 -0.002918 24 34 106
0.004079 -0.030177 -0.014418 215 199 150
-0.043506 -0.009410 -0.028918 78 151 33
0.036354 -0.006952 0.012782 166 190 200
0.008810 -0.023779 -0.010818 208 184 146
-0.040312 0.011582 -0.015518 6 167 61
0.111887 0.003633 0.071082 162 97 57
-0.036672 0.000542 0.010182 10 39 45
0.026807 -0.000286 0.010382 39 118 52
-0.044427 0.009419 -0.017218 3 33 131
-0.025373 -0.014469 -0.020718 164 202 55
0.012154 0.040871 0.024182 136 166 168
-0.048837 0.014332 -0.027018 152 188 248
-0.067891 0.003106 0.005282 115 134 149
0.053597 -0.014070 0.019882 9 78 182
0.036068 0.040460 0.038982 103 106 115
0.069643 0.013817 0.052882 110 150 175
-0.069643 -0.004031 -0.000718 105 117 131
0.003104 -0.019733 -0.011218 194 180 145
-0.017040 -0.013471 0.025582 83 101 111
-0.039962 -0.011255 0.013482 82 100 122
-0.043402 -0.013207 -0.031618 121 182 45
0.006921 -0.010448 0.021282 11 86 29
0.067681 -0.048322 0.017782 154 96 76
-0.030132 -0.011636 -0.021918 108 200 159
-0.040677 -0.008979 -0.027518 75 173 114
-0.043189 -0.009308 -0.028818 118 188 53
0.127685 -0.050905 0.075082 77 68 61
-0.035819 -0.013988 -0.027318 161 198 58
-0.031099 -0.015376 -0.025018 107 187 40
-0.045022 -0.005255 -0.031418 147 167 174
-0.000502 -0.028046 -0.016118 204 198 182
0.089529 0.034202 0.054882 87 87 89
-0.033770 -0.014189 -0.026118 1 167 31
-0.011067 -0.001985 -0.065618 38 56 106
-0.046063 -0.004476 -0.030718 123 141 151
0.099972 -0.020107 0.042482 157 182 189
-0.016100 0.002009 -0.002218 37 77 136
0.017130 0.034525 0.023382 158 180 178
0.029307 0.029271 0.028782 177 180 187
0.095341 -0.019555 0.040582 140 176 174
-0.004444 -0.016462 -0.011818 220 187 178
0.104962 0.028814 0.065782 105 103 104
-0.030790 0.009592 -0.011418 11 176 58
0.102319 -0.017497 0.044182 167 192 197
0.048743 0.016138 0.047082 106 88 68
0.025413 -0.006542 0.014682 151 183 194
0.003883 -0.029555 -0.014318 219 195 149
0.047666 -0.035594 0.011682 188 211 225
-0.011626 -0.002373 -0.003618 130 190 242
-0.019752 0.007582 -0.009218 134 202 251
0.053302 -0.005983 0.021782 162 189 198
-0.027856 0.004238 -0.006218 0 22 6
-0.023419 0.001309 -0.008318 75 181 233
0.061809 -0.011301 0.023982 172 192 201
-0.017794 -0.018802 -0.020218 213 189 153
-0.009102 0.001449 -0.003518 151 196 255
0.080712 0.034750 0.054082 90 91 93
0.036749 -0.013153 0.016582 25 64 169
0.057459 -0.044686 0.013582 72 31 27
-0.031904 0.005822 -0.008018 0 128 9
0.082652 -0.043239 0.027182 139 33 43
0.017429 0.006791 0.008782 104 152 130
-0.010899 -0.002029 -0.065618 26 32 48
0.034085 -0.040511 0.000682 186 194 213
-0.020878 0.022736 -0.003718 4 15 97
0.015242 -0.031483 -0.008618 137 126 122
0.048987 0.048561 0.031782 68 69 73
-0.043518 0.015891 -0.025618 11 49 150
0.063042 -0.030231 0.063882 78 90 90
-0.022404 -0.018444 -0.021318 60 194 63
-0.010902 -0.025084 -0.018818 221 198 157
-0.055816 -0.001542 0.009882 98 126 137
0.028443 -0.033520 -0.000218 195 193 155
-0.043335 0.009460 -0.016118 1 26 93
-0.039061 0.018711 -0.018718 13 144 64
-0.005076 -0.003179 0.008482 83 140 125
-0.045800 -0.009863 -0.031018 65 174 47
0.016579 0.024273 0.024782 187 196 203
0.007663 0.000090 0.003482 100 176 138
-0.047636 -0.005703 0.011882 87 113 128
-0.042562 0.010785 -0.015618 5 167 58
-0.028338 -0.019448 -0.025618 14 146 24
-0.045265 0.002170 0.009482 6 76 42
0.026388 -0.031050 0.001382 180 195 200
-0.063410 -0.004531 0.003182 110 128 142
0.001321 -0.027306 -0.014418 220 205 166
-0.010140 0.004214 -0.004518 83 135 195
-0.045936 -0.005546 -0.031518 144 162 172
0.046239 -0.017886 0.027982 18 62 149
-0.032542 0.003699 -0.002018 8 82 21
-0.008546 0.026782 0.004682 73 59 46
-0.028923 -0.008459 -0.023518 118 144 159
-0.019128 0.025629 -0.001418 14 16 119
-0.039546 0.009820 -0.014318 10 174 53
-0.029202 0.016891 -0.015318 104 152 162
-0.010965 -0.001972 -0.065618 126 125 131
-0.042299 0.014251 -0.025318 19 76 192
-0.010917 -0.002029 -0.065618 88 96 98
-0.006342 -0.018333 -0.013218 205 153 114
0.051713 -0.005430 0.022382 154 183 191
0.012948 0.048200 0.028882 58 61 68
-0.024573 0.010440 -0.003618 0 24 57
-0.040229 -0.011587 -0.028618 121 155 43
-0.020301 0.028707 -0.000118 14 15 121
0.020087 0.006945 0.010082 120 154 138
0.003616 -0.027044 -0.011318 253 223 187
-0.036870 0.022779 -0.017218 135 147 159
-0.040287 -0.015150 -0.030318 139 219 96
0.040771 -0.036570 0.006782 113 176 185
-0.041794 -0.005374 -0.029318 108 128 139
0.124557 0.024312 0.074882 95 93 94
0.038303 0.041575 0.040582 93 96 103
0.064231 -0.048455 0.014682 68 31 25
-0.010605 0.000753 -0.003818 125 203 242
-0.057085 0.010782 -0.020318 157 159 13
-0.028561 0.011712 -0.012218 10 171 67
-0.026649 -0.009601 0.011682 35 67 126
0.031215 0.005687 0.016182 172 176 179
-0.049668 0.009031 -0.017518 25 71 182
-0.036027 -0.020175 -0.030518 157 194 55
0.084289 -0.039400 0.071982 69 77 79
-0.018895 0.035905 0.003982 15 16 122
-0.010993 -0.002016 -0.065618 87 102 109
-0.042663 -0.008782 -0.028818 22 167 46
0.167551 -0.008357 0.112582 162 162 150
-0.024530 -0.024397 -0.025818 154 200 52
0.059139 0.017589 0.046882 166 153 171
0.094535 0.046163 0.035982 92 93 97
-0.026621 -0.015802 -0.022718 164 194 48
-0.017146 -0.026879 -0.023618 216 173 131
0.006353 -0.017413 0.037182 48 63 60
-0.047754 0.021492 -0.025218 97 134 160
-0.010402 -0.014221 0.029882 84 102 104
0.077665 0.050418 0.030282 75 75 83
-0.028138 0.027699 -0.005918 12 14 115
0.035317 -0.039458 0.000882 180 198 208
0.003624 -0.006659 0.015182 71 103 92
0.026811 -0.038866 0.004782 94 117 133
0.030159 -0.003490 0.011982 173 198 205
-0.031197 0.018442 -0.015718 99 149 156
-0.009762 0.042289 0.010782 14 16 125
-0.053969 0.010908 -0.020918 100 132 193
0.031112 -0.002478 0.013782 167 171 172
-0.013934 0.020117 -0.000818 0 23 123
0.038356 -0.042432 0.003082 70 147 215
-0.070450 0.005655 0.005082 142 161 176
-0.035578 -0.007593 -0.027818 137 160 166
-0.000799 0.044215 0.019782 152 167 174
0.115165 0.016735 0.071382 139 117 94
-0.044936 -0.004449 -0.029418 98 110 126
0.016447 -0.006957 0.017182 48 141 110
0.046714 -0.046138 0.008282 117 125 188
0.002383 -0.015250 0.036182 75 97 95
-0.015615 -0.013934 -0.015718 248 249 253
-0.040876 -0.010516 -0.028318 105 155 30
-0.007284 0.033614 0.008282 124 138 138
-0.002983 -0.030900 -0.017618 230 179 136
-0.045746 -0.008052 -0.030018 8 161 35
-0.005145 -0.019948 -0.015318 200 156 117
-0.038828 0.003944 -0.005218 1 69 18
0.069444 0.049632 0.030782 77 78 83
-0.026191 0.008985 -0.009018 8 159 44
0.004090 0.034003 0.015782 37 133 105
-0.032221 -0.011630 -0.023218 57 184 53
-0.044858 0.003811 -0.004518 9 101 28
-0.024046 0.018368 -0.011218 121 144 162
-0.011643 -0.027836 -0.020918 190 177 85
-0.014732 0.033000 0.003382 14 16 129
0.038847 0.048679 0.030382 98 98 106
-0.018663 0.008736 -0.009018 193 199 235
-0.020459 0.029259 -0.000018 13 15 118
0.039981 -0.041888 0.004382 18 78 166
-0.036856 -0.011276 0.015182 66 86 110
-0.015433 -0.013449 -0.015918 222 231 240
-0.011377 -0.023803 -0.017318 253 224 184
-0.039650 0.015820 -0.019918 6 58 131
0.054337 0.015981 0.050882 130 139 144
-0.044031 -0.008238 -0.028918 69 170 114
-0.008897 0.002405 -0.003518 90 132 192
-0.046147 0.014542 -0.026418 75 113 198
-0.041650 0.012959 -0.023718 96 132 192
-0.010953 -0.001979 -0.065618 150 153 160
-0.023974 0.014300 -0.011018 22 79 73
0.011259 -0.024728 -0.010118 207 202 172
-0.028779 -0.005007 -0.001218 40 17 61
-0.044839 0.021283 -0.023418 93 135 160
0.104362 -0.038250 0.049982 45 71 122
0.041031 -0.032646 0.050882 97 111 112
-0.027432 -0.004577 0.000482 2 12 81
-0.017581 -0.017657 -0.019618 204 179 139
0.058290 0.042715 0.038882 88 89 93
-0.036706 0.015703 -0.016618 13 175 63
-0.019080 0.012234 -0.010418 110 144 207
0.062123 -0.034541 0.021882 199 200 205
-0.000831 0.010217 -0.000818 5 100 16
0.074545 0.048765 0.032382 97 96 102
-0.037084 0.023093 -0.016918 124 131 147
-0.046202 0.017997 -0.025718 150 153 86
-0.041153 0.011080 -0.019618 6 34 131
-0.030822 -0.007732 -0.023418 99 123 133
-0.045750 0.010903 -0.020418 4 49 176
0.027508 -0.027479 0.010282 197 214 224
-0.042874 -0.015863 -0.032518 18 132 21
-0.038085 -0.014488 -0.029418 134 192 56
0.007722 -0.031874 -0.013518 226 192 155
0.003768 0.050394 0.024782 95 97 110
-0.008840 -0.004278 -0.001818 68 169 225
0.006038 -0.030753 -0.012518 201 148 96
-0.037207 -0.021576 -0.032218 117 183 51
-0.011311 -0.021825 -0.019218 238 212 179
-0.068590 -0.003628 0.000282 106 122 135
-0.011556 -0.025295 -0.020018 190 162 63
-0.051203 0.009545 -0.018018 24 62 163
0.016034 -0.021396 0.041082 97 114 122
0.033590 -0.031444 0.004982 177 201 203
-0.043708 -0.008481 -0.028918 8 163 45
-0.010927 -0.002045 -0.065618 102 112 75
0.082423 0.027953 0.059182 157 160 165
-0.040651 0.013016 -0.016418 1 151 52
0.097461 0.045220 0.038582 112 112 112
-0.008092 -0.001129 -0.002318 113 186 237
-0.042895 0.023722 -0.020518 121 134 150
-0.010897 -0.002032 -0.065618 91 88 79
-0.041744 -0.015520 -0.031918 0 105 13
0.049650 0.040573 0.041882 96 94 99
-0.066632 0.004151 0.006582 108 134 147
-0.013662 0.040023 0.007282 33 55 115
0.008882 -0.022723 0.032382 104 115 121
0.034402 0.018937 0.039382 127 67 31
-0.039274 0.015490 -0.023618 164 154 20
