ply
format ascii 1.0
element vertex 1210
property float x
property float y
property float z
property uchar blue
property uchar green
property uchar red
end_header
-0.067858 -0.058445 0.062567 106 112 112
-0.041461 -0.021513 0.003167 135 139 138
0.071176 0.005333 0.013267 7 11 11
0.033655 0.027268 -0.003233 136 144 146
-0.039253 0.034197 -0.022433 128 128 128
-0.000695 -0.046884 0.024667 120 117 114
0.065275 -0.011263 0.005567 41 45 44
0.033469 -0.025738 -0.018933 118 117 114
0.067062 0.006897 0.010267 5 9 9
-0.024143 -0.016138 0.027567 49 44 48
-0.053158 0.009404 -0.016533 129 133 132
0.037160 0.001782 0.020767 60 66 66
0.015022 -0.025195 -0.022733 112 109 106
0.042870 0.009372 0.001467 10 15 11
0.016422 0.016023 0.004767 129 138 142
-0.022242 -0.005197 0.018667 141 145 145
0.001942 -0.019080 0.036967 95 97 102
-0.042403 -0.020825 0.004467 145 146 143
0.030894 -0.033964 -0.012533 62 63 60
0.024465 0.007509 -0.000433 21 25 24
0.035359 0.004824 0.019267 93 102 101
-0.059797 0.009999 -0.018733 122 131 129
0.018572 -0.008709 -0.014233 146 155 159
0.026950 0.009051 -0.001433 31 29 30
0.015804 0.033687 -0.011633 152 156 155
0.028762 -0.019759 -0.010833 27 36 40
0.033785 0.032831 -0.008133 133 139 138
-0.042062 -0.010246 -0.020733 102 108 108
-0.048335 0.033100 -0.022233 138 140 134
-0.032411 0.026993 -0.014433 137 141 140
-0.027724 0.003002 0.011267 128 131 134
0.057614 0.034973 -0.007833 89 89 89
-0.027947 -0.024088 0.036367 137 141 141
-0.016285 -0.007777 0.022067 137 137 138
0.061564 -0.003549 0.014267 70 69 66
0.011957 0.006159 0.013367 56 61 64
0.023004 -0.008535 -0.016933 161 169 171
-0.040426 -0.058071 0.046667 132 127 122
-0.004465 0.032124 -0.013933 155 155 156
-0.007647 0.003301 0.012367 140 138 138
-0.062042 -0.061465 0.057567 120 117 114
-0.013287 0.030920 -0.014133 155 159 159
-0.022437 0.013336 0.000767 144 147 150
0.031866 0.036460 -0.011833 130 134 133
0.008520 -0.046652 0.016667 116 113 110
-0.017503 -0.036562 0.042867 71 68 72
0.020641 -0.000056 0.019867 98 102 102
-0.011232 0.034543 -0.017433 156 162 162
-0.031126 0.022886 -0.010333 140 144 143
-0.065721 0.016269 -0.009633 119 128 126
0.020339 0.020708 0.001567 139 145 145
-0.041734 -0.015562 -0.037333 146 145 142
0.047787 -0.016527 -0.025633 12 18 18
-0.047324 0.005701 -0.010833 113 117 117
0.050461 -0.002163 0.019467 8 8 9
0.045043 0.012510 -0.000733 11 12 9
0.053480 0.019276 -0.006233 4 13 11
0.057496 0.004293 0.009667 11 11 11
0.013525 -0.018236 -0.014233 47 47 47
-0.046389 -0.004687 -0.031733 139 139 139
0.035283 0.035458 -0.010333 126 130 130
-0.028215 0.024709 -0.011333 139 143 143
-0.050226 -0.000443 -0.030133 131 137 137
0.035668 0.027090 -0.002033 128 141 140
-0.008581 0.035172 -0.018133 156 160 159
0.028692 0.002553 0.020567 88 96 98
0.021599 -0.035553 -0.003333 112 108 108
0.034947 0.020979 0.003967 130 138 140
0.040418 -0.015175 -0.011933 74 88 91
-0.042972 0.003841 0.006667 108 112 112
-0.024071 0.034558 -0.019933 149 149 150
0.034747 -0.017682 -0.016433 81 88 99
-0.054325 0.020495 -0.011533 135 141 140
-0.021901 0.003705 0.010767 136 140 140
0.003450 -0.022326 0.039067 27 31 31
-0.006159 -0.008179 0.023867 129 132 135
0.001759 0.020479 -0.001433 151 154 157
-0.009530 0.034589 -0.018233 158 162 162
-0.001199 -0.030523 0.037667 106 103 100
-0.058862 0.025702 -0.017333 133 139 139
0.061745 0.031937 -0.004033 63 70 66
0.033803 0.027159 -0.003033 136 144 146
0.041316 0.016103 -0.005333 15 16 13
-0.029087 -0.017609 0.029567 49 46 50
-0.042216 -0.022544 -0.032633 208 202 195
-0.059571 0.028020 -0.019433 123 135 125
-0.047325 0.000857 -0.024733 139 138 135
0.004948 0.015619 0.003667 135 140 143
0.006507 0.021364 -0.001433 149 152 155
0.030516 -0.030717 -0.015433 100 95 90
0.008594 0.035222 -0.014433 154 160 160
0.061902 0.013571 -0.015533 107 87 34
-0.020812 0.034797 -0.019833 149 149 150
-0.057345 0.010222 -0.017933 125 131 130
-0.017162 -0.016429 0.030067 132 136 136
-0.001842 -0.031739 0.038767 106 103 100
-0.041092 0.027645 -0.016333 139 139 139
0.048553 0.026377 0.000367 101 110 109
-0.043419 -0.022746 -0.032533 210 205 195
-0.020264 0.014382 -0.000033 143 146 149
0.019135 0.028714 -0.006333 153 159 159
-0.051293 0.010569 -0.006333 97 106 105
0.033394 0.036605 -0.012033 124 130 130
-0.044735 0.003498 0.006767 112 116 116
-0.026561 0.015935 -0.002233 146 150 150
0.015824 0.006535 0.013567 79 85 85
0.015761 -0.030855 -0.027433 20 25 21
-0.027266 0.021483 -0.007833 150 150 151
0.038673 -0.015758 -0.007633 83 93 100
-0.040694 -0.015838 -0.027933 124 124 124
-0.052087 0.011698 -0.003733 91 95 95
-0.013490 -0.047754 0.032367 125 122 119
0.028092 -0.030882 -0.014033 105 102 99
0.035318 0.020660 0.004067 131 136 139
0.028738 0.028813 -0.004833 140 149 148
0.040004 0.021016 0.004167 107 113 113
0.023545 -0.010553 -0.018633 172 179 183
0.065857 0.035005 -0.006833 68 75 71
0.018644 -0.020597 -0.010333 99 97 98
-0.031206 0.033978 -0.020233 142 141 138
-0.041003 -0.019693 0.028967 138 138 139
-0.002610 -0.030500 0.039167 105 102 99
-0.050035 -0.003682 0.012567 109 115 114
0.017399 0.033915 -0.012033 154 159 155
0.019534 -0.026811 -0.012233 134 129 124
0.020992 0.017502 0.003867 139 144 147
-0.023576 -0.016275 0.027867 51 41 51
0.001539 -0.001541 0.015567 25 22 26
-0.032743 0.028048 -0.015433 140 140 140
-0.027755 -0.010138 0.022267 137 137 137
-0.035056 0.028107 -0.015233 140 144 143
-0.011845 0.018937 -0.002433 140 140 141
0.045212 0.026245 -0.000533 105 110 113
-0.030903 -0.015033 0.026767 130 134 134
0.049888 0.032420 -0.006033 93 100 96
0.012319 0.033633 -0.012433 149 153 152
-0.034913 -0.007311 0.009567 115 114 106
0.039659 0.023103 0.002367 132 138 137
0.042218 0.022085 0.003567 98 107 106
0.050009 0.017103 -0.003933 9 14 10
-0.027288 0.026439 -0.013333 145 145 145
0.036700 -0.019140 -0.019433 150 153 161
-0.072661 -0.046980 0.051967 20 24 23
-0.025350 0.030422 -0.016133 139 139 139
-0.076063 -0.055642 0.053167 17 17 18
0.044596 0.034205 -0.007633 111 117 116
0.056147 0.037640 -0.009433 79 87 89
-0.041050 -0.008199 0.012267 149 149 149
-0.057012 -0.013512 0.021767 111 115 115
-0.065912 -0.037139 0.041067 48 48 48
0.042221 -0.013925 -0.015033 74 88 91
-0.052571 0.012916 -0.004733 88 97 96
-0.009099 -0.048534 0.027967 122 119 116
0.002132 -0.005378 0.023167 116 120 120
0.055944 0.029864 -0.002133 81 87 86
-0.006528 0.001333 0.014767 139 139 139
-0.025165 0.005985 0.008067 127 132 135
-0.004390 0.003772 0.012967 135 135 135
-0.017714 -0.001263 0.015667 132 135 138
-0.039607 -0.008030 0.016767 112 111 108
-0.032649 0.030386 -0.017533 142 142 142
0.009850 0.020022 0.000967 144 147 150
0.044995 0.006878 0.003967 9 14 10
0.033508 0.036278 -0.011333 126 132 132
0.006039 -0.003903 0.019967 22 22 23
0.067018 0.033992 -0.004733 40 46 46
0.029201 0.022942 0.000767 114 121 125
0.049355 0.018961 -0.007533 10 11 8
-0.049900 -0.055731 0.054867 115 112 109
-0.031524 -0.017584 0.029367 136 136 136
-0.010297 0.032080 -0.015133 152 156 156
-0.052618 -0.008559 0.017667 107 113 113
0.011715 0.011367 0.008567 135 139 139
0.024187 0.026987 -0.004033 144 153 152
0.031095 -0.014287 -0.011533 77 87 94
-0.039745 -0.010895 0.013067 130 129 126
0.020002 0.008709 0.011967 99 105 105
-0.007675 0.008608 0.008067 134 137 140
0.011263 -0.029665 0.029467 101 97 97
0.025561 -0.023966 -0.014633 100 98 98
0.062684 0.037677 -0.009933 74 84 79
-0.031967 0.025944 -0.013033 140 144 143
0.025633 -0.018911 -0.007833 125 134 143
-0.042723 -0.006288 -0.020433 118 119 116
0.063606 -0.030978 -0.011433 45 51 44
0.045163 -0.006895 0.020167 8 9 6
0.046200 0.036672 -0.009633 109 118 116
-0.012871 -0.035206 0.042867 99 93 91
0.013500 -0.021206 -0.017133 28 26 26
0.055798 0.024538 -0.010533 9 14 10
0.015955 0.033163 -0.011233 154 158 157
-0.048131 0.001358 -0.025133 138 138 138
0.020929 -0.016746 0.037467 19 19 19
-0.046577 0.016491 -0.005833 103 108 111
-0.017283 -0.025680 0.038067 52 47 51
-0.054499 -0.048384 0.055567 118 127 126
-0.016513 0.016479 -0.000733 142 142 142
0.009126 -0.023810 0.033367 102 98 98
0.016798 0.025589 -0.003633 146 151 154
-0.041778 -0.030595 -0.005433 132 132 133
0.045189 0.015357 -0.002933 15 15 15
0.028344 -0.020105 -0.014133 110 108 108
0.047252 -0.008563 -0.033033 13 21 14
0.019665 -0.006732 0.026667 73 76 79
0.042225 -0.024966 -0.043533 16 16 17
-0.045152 0.013930 -0.003533 100 106 106
0.007911 -0.009151 0.019367 22 22 23
0.029707 -0.008379 -0.017133 49 53 52
-0.037809 0.020382 -0.008033 132 138 138
0.018803 0.007020 0.002167 122 126 125
0.050773 0.001534 0.024567 7 11 10
-0.007736 0.000317 0.014967 140 140 140
0.035556 0.006499 0.016467 62 65 68
-0.044935 -0.015348 -0.039833 200 199 191
-0.014612 0.026679 -0.010533 140 143 146
0.060500 0.021259 -0.010333 68 48 2
0.049635 0.033628 -0.006833 33 42 53
0.002936 0.025351 -0.005933 151 155 155
0.052288 -0.012373 0.011467 16 21 17
-0.014922 -0.009622 0.023267 62 61 65
-0.053750 0.025489 -0.016333 130 137 133
0.034100 0.025031 -0.001233 126 135 139
-0.040710 -0.021657 -0.033133 194 192 186
0.030318 0.012156 -0.001733 27 27 27
-0.039644 0.034457 -0.022433 132 133 130
-0.041693 0.032387 -0.021133 131 137 137
0.007115 0.022643 -0.002633 148 152 152
-0.007277 0.022179 -0.005233 141 145 145
0.031053 -0.028892 -0.017033 102 97 92
-0.059182 0.019870 -0.011733 134 140 139
0.006367 -0.020001 0.038167 80 82 87
0.025501 -0.001167 -0.014833 115 120 129
-0.065978 -0.065314 0.059867 129 123 116
-0.043901 -0.010719 -0.037133 143 144 141
0.015112 -0.027187 -0.023833 60 58 58
0.019000 -0.010885 -0.016333 171 175 180
-0.047639 0.024677 -0.014333 139 139 139
-0.003082 0.023111 -0.005233 151 151 152
-0.046948 0.003622 -0.013333 119 123 122
-0.043426 -0.006614 -0.016733 117 117 117
-0.040677 -0.044111 0.052867 118 124 124
-0.039345 -0.029989 -0.004833 91 89 89
-0.040446 -0.020602 -0.031233 137 131 129
0.045507 0.025991 -0.000233 105 110 113
-0.035804 0.028470 -0.016133 139 143 142
0.025020 0.000813 0.020567 94 102 104
-0.031626 0.002005 0.010667 118 122 122
-0.060055 -0.017875 0.026067 112 118 117
0.050025 -0.013416 -0.027433 14 19 22
-0.023852 0.031893 -0.016933 147 153 153
-0.075930 -0.054819 0.052867 21 25 25
-0.015102 -0.049470 0.032767 129 124 119
0.043398 0.036716 -0.010533 110 116 115
-0.020203 0.014899 -0.000433 145 144 148
0.041073 0.026293 -0.000333 118 124 124
-0.057931 0.008561 -0.021033 123 132 130
-0.033836 0.026259 -0.013733 136 141 137
0.064166 0.003422 0.013467 7 11 10
0.003958 0.027243 -0.007833 144 149 152
0.057232 0.032662 -0.004233 81 90 89
0.066865 -0.005860 0.008867 64 64 64
-0.045577 -0.027741 -0.027933 210 205 195
0.051379 0.022851 -0.009833 10 16 16
-0.028112 0.029833 -0.016233 142 143 140
-0.040877 -0.017773 -0.036233 141 136 131
0.052260 -0.013710 -0.032433 91 87 87
0.044515 0.035173 -0.008133 111 118 114
0.016778 0.005705 0.002467 29 27 27
0.064104 -0.031946 -0.012733 62 62 56
0.001891 -0.030415 0.035567 107 103 103
-0.012879 -0.002216 0.016967 143 143 144
0.013092 0.027305 -0.006133 151 154 157
0.054671 -0.027127 -0.007133 8 13 9
0.029395 -0.014746 -0.013333 115 126 130
0.046291 -0.017398 -0.014933 30 41 54
-0.044997 -0.008804 -0.036333 144 143 140
0.003304 0.018981 0.000167 143 142 146
0.041440 -0.001268 0.026167 41 47 47
-0.044963 -0.005522 -0.029733 141 140 137
0.027014 0.018988 0.003667 133 140 144
0.016890 0.035730 -0.013433 155 159 158
-0.034781 0.017129 -0.005233 126 132 132
-0.051773 0.005720 0.002767 104 110 109
0.042146 0.035263 -0.008533 106 112 111
0.049192 -0.003762 0.015267 5 9 8
-0.012215 0.006834 0.009167 133 136 139
-0.046147 -0.007970 -0.036433 142 142 142
0.034423 0.038356 -0.013133 131 137 136
0.051799 -0.011779 -0.030233 0 19 55
0.032655 -0.015396 -0.015533 140 148 155
0.051262 -0.013118 -0.028533 9 11 16
-0.047373 -0.024612 -0.031533 210 203 193
0.019232 -0.015143 -0.016233 182 186 186
-0.007931 0.012985 0.003467 140 140 141
0.027920 0.031272 -0.007033 150 156 155
-0.046046 -0.025037 -0.030733 209 204 194
-0.017997 -0.050946 0.034267 129 124 119
-0.051188 0.013826 -0.004333 94 102 104
0.023402 -0.028334 -0.013733 128 123 118
0.030777 -0.028892 -0.017033 106 101 96
-0.040558 -0.016186 -0.026433 116 120 119
0.040866 0.038490 -0.012233 111 119 112
0.036342 0.038545 -0.012833 132 138 137
-0.049414 -0.023608 -0.032733 210 203 193
-0.023400 -0.005678 0.018767 144 144 144
0.037498 0.025904 -0.001633 128 134 134
-0.031134 0.026555 -0.013433 142 142 142
-0.035731 0.018240 -0.006433 126 132 132
0.063640 0.031651 -0.003133 28 34 33
0.044436 0.014377 -0.001933 13 14 11
0.032753 0.031692 -0.005633 133 142 141
-0.060362 0.023159 -0.015033 132 142 137
0.013052 -0.020975 -0.016933 19 19 19
0.047034 0.020847 -0.002033 41 47 46
-0.065244 -0.063203 0.060267 121 118 108
-0.065387 -0.061707 0.063867 27 31 31
-0.046629 -0.036284 0.046067 123 127 126
0.012977 -0.028709 -0.000133 100 96 97
-0.046157 0.001309 -0.019633 132 132 132
0.021596 -0.016474 0.029567 38 38 38
-0.048044 -0.028073 0.036267 25 25 26
-0.012798 -0.005338 0.019767 133 137 137
-0.052738 -0.060575 0.052167 114 113 110
-0.017421 0.033530 -0.018333 151 152 149
-0.004730 -0.004662 0.019667 52 52 53
-0.040829 -0.017039 -0.033833 138 136 136
0.021269 0.032088 -0.008333 149 153 153
0.019994 -0.015722 0.037067 22 22 22
0.041561 -0.011751 -0.031233 24 22 16
-0.028756 -0.040885 0.048267 25 31 30
-0.008091 0.001054 0.014567 142 142 142
0.021837 -0.036818 -0.003333 106 104 104
0.015661 0.000697 0.016767 69 74 77
0.042324 -0.013944 -0.008133 29 35 42
-0.004909 -0.046902 0.027367 125 119 117
0.055298 0.007755 0.004467 11 12 9
-0.024205 0.034558 -0.019933 147 147 148
0.005928 0.025765 -0.006133 155 158 161
0.007251 0.035639 -0.015033 153 159 159
0.012277 0.019663 0.001267 141 144 147
-0.020102 0.032136 -0.017033 149 149 150
-0.055626 0.014861 -0.006433 77 84 88
-0.054674 0.033667 -0.024633 122 133 125
0.005800 0.007622 0.010467 110 105 114
0.036587 -0.028737 -0.035433 36 37 45
0.009092 0.026557 -0.005433 146 151 154
0.009674 -0.010715 0.019767 18 18 19
0.009668 -0.019099 0.010767 18 16 17
-0.018524 -0.029560 0.044067 126 126 127
0.031245 -0.024180 -0.017633 136 132 125
0.045455 0.008500 0.003067 12 12 12
0.068100 0.008688 0.009167 3 9 8
0.031569 -0.029068 -0.017133 94 92 86
-0.036002 -0.019194 0.031367 132 135 138
-0.023028 0.007445 0.006267 137 142 145
-0.045003 -0.010743 -0.038433 137 142 138
0.016847 0.028511 -0.006233 150 154 154
-0.042148 -0.020486 0.004467 144 145 142
0.067879 0.010762 0.003967 5 9 8
0.033297 -0.014670 -0.013833 83 94 98
-0.025256 -0.045529 0.044167 123 120 117
0.018924 -0.020884 -0.010733 105 103 103
-0.009316 -0.049559 0.028267 125 122 119
-0.030737 0.027376 -0.014333 138 138 138
0.038042 -0.005615 -0.024633 20 19 16
-0.015861 0.029242 -0.014033 144 144 144
0.015810 0.028303 -0.006433 149 153 153
0.021898 -0.020819 -0.010333 108 112 112
-0.075261 -0.057101 0.052167 86 88 82
0.040520 -0.017722 -0.037133 14 18 17
-0.008925 0.022008 -0.004933 140 144 144
-0.025441 0.009282 0.004467 133 137 142
0.020216 0.023078 -0.000933 146 150 150
-0.001449 0.001802 0.009067 26 24 24
0.045523 -0.008143 0.021667 53 55 49
0.010127 0.008452 0.010867 128 132 132
0.007161 0.027523 -0.007633 149 152 155
0.052344 -0.014150 -0.032233 97 95 95
0.061800 0.012727 -0.012833 114 102 78
-0.061194 0.025385 -0.017233 130 143 135
0.003765 0.014092 0.004967 133 137 142
0.051738 0.017385 -0.006033 11 12 9
0.025567 -0.036491 -0.012933 74 75 72
0.025450 0.026170 -0.002533 140 145 148
0.025351 -0.002988 -0.015333 159 166 170
0.071318 -0.002408 0.007967 50 54 54
-0.045423 -0.012332 -0.040333 139 140 137
0.063499 -0.000332 0.015667 43 44 41
-0.016360 -0.010655 0.023867 59 55 56
0.000904 0.025513 -0.006533 155 155 156
0.055397 0.009639 0.003667 9 10 7
0.045820 -0.030005 -0.014333 1 5 5
-0.042336 -0.015179 -0.038133 142 143 140
0.050817 0.036970 -0.009633 93 102 101
0.069417 0.010572 0.004667 6 10 9
-0.029210 -0.023839 0.036167 137 141 141
0.034433 -0.027950 -0.036933 20 26 25
-0.006575 0.002862 0.012967 141 139 139
0.021279 -0.004529 -0.013933 164 173 177
-0.002647 0.016160 0.001567 139 143 143
0.061292 0.015371 -0.005033 67 47 15
-0.006145 0.032607 -0.015033 160 160 160
-0.033565 0.031826 -0.018933 137 138 135
-0.035795 -0.017189 0.028667 121 147 128
0.042983 0.036901 -0.010633 112 118 117
-0.025511 0.029312 -0.015433 147 147 147
0.039903 -0.023348 -0.020333 110 110 104
0.048740 0.031036 -0.005233 97 106 104
0.003673 0.022263 -0.002933 149 153 153
0.037819 0.015215 -0.003933 21 26 22
0.019287 -0.029664 -0.010433 132 127 122
-0.038485 0.031890 -0.019333 133 137 136
0.001356 -0.008735 0.026367 112 115 118
-0.070855 -0.054655 0.047167 73 88 89
-0.000908 0.036109 -0.016933 159 163 162
0.066043 0.036947 -0.008033 66 75 73
-0.059753 0.026848 -0.018133 129 140 132
0.023322 0.019442 0.003367 137 144 148
-0.051034 -0.059912 0.051667 118 117 114
0.035300 -0.027031 -0.035233 93 95 89
0.040969 0.020209 0.005367 61 67 67
-0.073794 -0.062319 0.063067 17 21 21
-0.044462 -0.013192 -0.040733 138 138 138
-0.022110 0.013314 0.001267 147 150 153
0.031445 -0.019405 -0.017833 164 172 174
-0.046251 -0.009140 -0.038033 138 144 144
-0.016344 -0.038391 0.043867 116 112 112
-0.042870 -0.007110 -0.025733 135 134 131
-0.016680 0.027628 -0.011633 143 147 147
-0.033881 0.030244 -0.017333 139 139 139
-0.052784 0.011293 -0.012133 113 119 118
-0.057431 0.014971 -0.008833 103 112 111
0.010908 -0.010252 0.018767 16 16 17
-0.059190 0.014707 -0.010133 110 119 117
0.036553 -0.022578 -0.017733 55 51 51
-0.025727 0.023995 -0.010333 140 144 144
-0.043951 -0.005899 -0.028633 136 136 136
0.021847 -0.015759 -0.012833 158 160 165
-0.025366 0.007074 0.007267 127 130 133
0.025052 0.026177 -0.002833 141 146 149
-0.002157 0.024139 -0.005833 150 154 154
0.011512 -0.014652 -0.011533 21 19 19
-0.046340 -0.006527 0.013167 144 149 145
-0.051291 0.032738 -0.023033 133 139 132
-0.043477 -0.008137 -0.031033 140 139 136
0.012400 -0.036009 -0.008133 48 44 44
-0.030547 0.009622 0.003467 110 115 118
-0.045639 -0.024947 -0.030833 209 204 194
-0.026141 0.021110 -0.007433 143 143 144
-0.045072 -0.020957 0.029867 136 140 139
-0.030881 0.020006 -0.007633 144 148 148
-0.047426 -0.019830 -0.035933 203 199 192
-0.001628 -0.049662 0.021967 122 115 116
0.063533 -0.013039 0.005367 55 59 58
-0.049707 -0.002400 -0.032233 136 140 139
0.061941 0.012483 -0.010733 104 92 68
-0.026632 -0.048613 0.043467 128 123 118
-0.023203 0.035112 -0.020233 149 149 149
0.017030 -0.014263 -0.015133 106 102 103
-0.026750 0.033039 -0.019133 142 140 140
-0.013035 0.015892 0.000267 143 143 143
-0.047350 -0.005392 -0.034133 139 144 140
0.064626 -0.009146 0.006967 55 60 56
-0.057976 -0.013655 0.021267 108 112 112
0.025450 -0.004226 -0.015933 155 164 168
0.024886 0.037291 -0.014033 150 154 153
-0.058338 0.021055 -0.012333 130 136 135
-0.014234 0.033989 -0.017633 155 155 156
-0.027771 0.010510 0.003067 126 132 132
-0.034924 0.006979 0.005667 111 115 115
-0.043188 0.023302 -0.012333 144 144 144
-0.017054 0.021183 -0.005933 137 141 141
-0.034105 0.033533 -0.020533 141 140 137
0.069588 -0.000499 0.011067 51 55 54
-0.009186 0.024199 -0.007233 147 151 150
-0.026223 -0.039283 0.049367 25 31 31
-0.025264 0.003087 0.011067 129 132 135
-0.003204 0.001695 0.014267 125 125 126
-0.024121 -0.000790 0.014467 129 133 133
-0.050728 0.022801 -0.012933 137 143 142
0.027661 -0.016844 -0.011533 165 174 178
-0.011246 -0.015998 0.031767 125 128 131
0.079336 0.005852 0.010767 44 48 47
0.034362 -0.027543 -0.031333 13 12 16
0.014232 0.026240 -0.004833 144 149 152
-0.006160 0.017545 -0.000133 140 140 141
-0.038159 0.025751 -0.014033 135 140 136
0.008510 0.036865 -0.016233 153 159 159
0.034428 -0.026665 -0.019233 105 105 99
-0.043026 -0.046130 0.050667 35 39 39
-0.043685 0.013573 -0.003233 102 108 108
0.055032 -0.031811 -0.007033 20 24 23
-0.045484 -0.021802 -0.034033 209 204 194
0.006588 -0.044022 0.020867 116 113 110
-0.046198 -0.015632 -0.039733 200 199 191
-0.031163 0.006200 0.007167 113 117 117
0.027483 0.032790 -0.008733 145 151 151
0.052825 -0.019044 -0.030633 58 29 10
0.021739 -0.008320 -0.016233 158 165 169
0.035086 -0.028092 -0.033533 95 100 103
0.045940 0.023789 0.002067 84 88 87
0.053042 0.018642 -0.006333 5 10 6
0.063064 -0.027705 -0.010033 13 12 9
-0.054633 0.023092 -0.014133 135 141 140
0.036703 -0.024643 -0.019733 111 110 107
-0.036483 0.024851 -0.013933 137 141 140
0.054574 0.033258 -0.007033 86 92 91
0.067211 0.003533 0.014167 7 10 13
-0.044946 -0.005595 -0.029533 139 138 135
0.037466 0.014101 -0.004033 10 14 13
-0.022217 -0.010168 0.023967 138 138 139
-0.062885 0.016648 -0.009133 111 124 122
0.024826 0.032083 -0.008833 142 148 147
0.023381 -0.024340 -0.014833 115 112 109
0.050480 -0.011002 -0.031133 7 16 27
-0.003633 0.019370 -0.001333 151 150 154
-0.046742 -0.000657 -0.025633 134 139 135
0.043487 -0.020932 -0.017433 122 131 135
-0.046426 0.034044 -0.023333 132 138 137
0.020114 -0.022385 -0.012233 101 97 97
0.025155 0.027721 -0.004233 145 150 153
0.018862 0.023741 -0.001233 147 151 151
0.034915 -0.028206 -0.033533 96 101 104
0.061241 0.016571 -0.013133 95 76 21
-0.055253 -0.023610 0.030267 128 128 128
-0.043503 -0.026906 -0.028433 209 204 199
0.041316 -0.022289 -0.020033 115 116 113
0.012385 -0.034660 -0.006733 22 20 20
0.023720 -0.026377 -0.015133 135 132 129
0.027422 -0.019926 -0.011833 55 66 65
-0.043033 0.032987 -0.021833 132 137 133
0.018476 -0.021835 -0.011433 134 128 126
0.008534 0.022448 -0.002033 150 154 154
0.042884 0.021233 0.003967 62 67 70
-0.041713 0.028806 -0.017533 135 139 138
0.037489 -0.005297 -0.022533 24 25 22
0.008868 -0.002162 0.019367 88 90 95
0.032191 0.019476 0.004067 128 136 138
-0.046799 -0.011371 0.010367 127 127 121
-0.022205 0.018536 -0.004733 142 146 146
0.066164 -0.003890 0.010567 59 63 62
0.013347 -0.006248 0.009567 21 25 25
0.010002 0.020086 0.000867 144 147 150
-0.037683 -0.011238 0.014867 62 62 63
-0.052488 0.033631 -0.024233 123 128 124
0.069422 -0.004938 0.007867 48 52 51
-0.046801 0.002227 -0.020533 137 137 138
-0.005587 -0.041188 0.031867 119 116 113
-0.042473 0.026531 -0.015333 133 137 136
-0.042511 -0.026857 -0.027833 166 162 155
0.062572 -0.009159 0.008267 67 67 67
-0.018810 0.004852 0.010367 135 139 139
0.070633 0.033741 -0.005033 6 11 14
0.012370 0.029061 -0.007833 119 125 125
0.011158 0.005620 0.013567 70 75 78
-0.037220 0.002335 0.009267 121 121 122
0.036992 0.006692 0.016567 67 72 75
-0.000512 0.013414 0.004267 132 137 140
0.036770 -0.027995 -0.019733 85 84 81
-0.001266 -0.035316 0.033167 114 111 108
-0.014338 0.023825 -0.007533 147 151 151
0.029501 -0.028569 -0.016733 102 100 94
0.052951 -0.019699 -0.028633 55 41 37
-0.001647 -0.034005 0.036667 113 110 107
-0.051059 0.004256 0.003867 109 113 112
0.062099 0.029117 -0.001333 7 13 13
-0.024681 0.024563 -0.010733 140 144 144
-0.025960 -0.038818 0.050867 25 31 31
0.066151 0.036955 -0.008433 62 73 71
-0.005117 0.026552 -0.009033 155 153 154
-0.027015 -0.000976 0.014667 133 137 137
0.035933 0.017755 0.006667 69 75 74
0.059600 0.015805 -0.002033 5 9 8
-0.014238 -0.045958 0.035367 129 121 119
-0.036681 0.013384 -0.001533 102 108 108
0.032354 0.005546 0.016067 74 79 82
0.058959 0.036971 -0.009833 79 85 85
-0.047395 -0.018800 -0.036733 203 200 190
-0.015552 0.024652 -0.008833 151 151 151
-0.057576 -0.013410 0.020767 107 113 113
0.024623 -0.005750 -0.016133 166 173 177
-0.020636 -0.004439 0.018767 142 142 143
-0.061954 0.022807 -0.014733 129 140 138
0.017346 0.028610 -0.006433 152 156 156
0.067224 0.037147 -0.008733 62 75 74
-0.041666 0.023447 -0.012333 135 139 138
-0.047531 -0.026483 -0.029733 210 204 192
0.019424 0.037574 -0.015133 154 158 158
-0.009413 -0.007347 0.021367 33 31 32
-0.053643 0.025991 -0.016533 132 141 139
0.050208 0.016535 -0.003533 11 12 9
-0.034916 -0.008041 0.008567 118 119 111
0.019390 0.007110 0.000967 24 22 23
0.009372 0.023438 -0.003733 150 153 156
0.063172 -0.006283 0.011967 73 74 71
0.011233 -0.025950 0.002767 18 16 16
0.055796 0.034403 -0.007033 84 93 91
-0.002537 -0.000905 0.017667 131 131 132
0.036089 0.024600 -0.000633 131 140 139
0.061867 -0.006349 0.013267 74 75 72
-0.051768 -0.025954 -0.030633 205 200 190
0.061735 0.012082 -0.014533 125 115 93
-0.012393 0.009388 0.006867 134 137 140
-0.043020 0.007494 0.003067 118 118 118
-0.045189 -0.003945 -0.027733 138 139 136
-0.030369 0.011292 0.001667 111 114 117
0.046216 0.032852 -0.006133 110 119 117
-0.019505 -0.046461 0.038367 130 122 120
-0.079308 -0.055491 0.052367 30 33 36
0.046051 0.007210 0.017467 29 35 34
-0.029257 0.031519 -0.017633 145 144 141
0.036135 -0.017727 -0.016933 90 103 109
-0.041100 -0.023584 -0.029433 135 132 129
0.060637 -0.001830 0.016267 66 65 62
0.032510 0.020384 0.003467 125 133 135
0.012001 -0.001596 0.006067 49 52 55
-0.012288 0.007087 0.008967 133 136 139
-0.052501 0.022970 -0.013133 139 144 140
-0.042072 -0.025372 -0.000833 141 146 142
-0.057279 -0.056457 0.057767 10 14 14
-0.041355 0.012236 -0.001733 105 111 111
0.004146 0.017680 0.001767 145 144 148
-0.002651 0.001513 0.014367 100 100 101
-0.035680 0.021609 -0.009733 139 145 145
0.036301 0.020392 0.004467 126 134 136
-0.003471 0.021686 -0.003433 149 152 155
0.062740 0.012654 -0.017133 114 83 1
-0.071093 -0.041572 0.045567 32 32 32
-0.034609 0.030699 -0.017833 138 139 136
0.020087 -0.007273 -0.014433 164 171 175
0.049123 -0.010695 -0.031233 22 29 33
-0.016269 0.017179 -0.001433 145 145 146
-0.043586 -0.024621 -0.030933 209 203 196
-0.000190 -0.004608 0.020867 121 125 125
0.021129 -0.001029 0.021467 107 107 108
-0.034667 0.024487 -0.012233 140 144 144
-0.046331 -0.006800 -0.035433 140 141 138
-0.053843 -0.044200 0.051867 22 23 20
0.022301 0.024929 -0.002033 147 152 155
0.025726 -0.009629 -0.019033 168 175 179
-0.030787 -0.053533 0.041967 132 125 120
-0.054078 0.030600 -0.021533 129 134 130
0.043366 0.023705 0.001667 114 118 118
-0.001747 -0.033208 0.037467 112 109 106
-0.057099 0.028496 -0.019633 129 135 128
-0.001584 -0.008665 0.025267 127 130 133
-0.037909 0.009496 0.001967 115 115 115
0.030517 -0.007721 -0.015033 48 52 52
0.053508 0.027085 0.001267 58 67 66
0.020244 0.016249 0.005167 137 142 145
-0.067439 -0.045712 0.050867 72 72 73
-0.044997 0.008935 0.001167 102 108 107
-0.018341 -0.011225 0.024767 95 98 101
0.013700 -0.033527 -0.005233 90 88 88
-0.019238 0.011333 0.003767 140 143 146
0.037939 -0.014394 -0.004233 43 52 50
0.026880 0.027956 -0.004233 138 147 146
0.018831 -0.026039 -0.012133 130 125 120
0.023239 0.003484 0.015767 90 90 90
0.022479 0.028316 -0.005233 144 150 150
0.027826 -0.020638 -0.014633 118 115 112
-0.065779 -0.033699 0.039667 123 127 127
0.013111 -0.041063 0.017367 111 107 107
-0.029528 -0.002658 0.015667 108 109 106
0.069774 0.035461 -0.005933 45 51 51
0.071083 -0.000847 0.009567 53 54 51
0.041269 -0.017639 -0.036333 13 17 16
0.014081 0.016915 0.004467 133 138 141
0.016246 0.004132 0.002767 16 16 17
-0.031984 0.018139 -0.005233 145 145 145
0.046315 0.031442 -0.005433 102 110 112
-0.007163 -0.051751 0.024367 127 121 119
-0.024921 0.020488 -0.006333 141 145 145
-0.039542 0.027791 -0.015833 133 137 137
-0.019829 0.021823 -0.006933 142 142 143
0.060739 0.016740 -0.012133 92 81 54
0.045372 -0.014956 0.014267 59 60 57
-0.029004 0.023505 -0.010533 135 141 140
0.049969 0.019699 -0.008833 13 14 11
-0.060207 0.014589 -0.010433 123 133 128
-0.062656 -0.036586 0.040167 31 31 32
0.041458 0.028058 -0.002933 104 112 114
0.009558 0.008789 0.010567 126 132 132
0.025396 0.036638 -0.012533 148 152 152
0.026980 -0.010360 -0.019733 166 170 175
0.063069 0.005157 0.009167 10 10 10
0.026270 0.037330 -0.013933 149 153 152
0.060455 0.008925 0.006467 9 9 9
0.059493 0.020998 -0.007233 16 10 0
0.005893 -0.035313 0.029367 115 111 111
-0.045529 -0.005811 0.013467 123 118 122
0.009872 0.009763 0.009367 132 135 138
0.010136 -0.043574 0.018667 115 112 109
0.007918 0.019705 0.000567 144 147 150
0.023551 -0.024224 -0.014733 116 113 110
0.028629 -0.025432 -0.016033 109 104 99
0.040019 -0.023581 -0.039133 11 17 16
0.022765 -0.017772 0.030867 68 67 64
-0.046954 -0.022057 -0.033933 208 203 193
-0.000396 0.016760 0.002267 143 146 149
-0.039132 0.007456 0.003767 115 115 115
-0.042420 -0.021856 -0.033033 206 202 195
-0.042239 -0.010080 -0.023333 126 124 124
-0.024476 0.012122 0.002467 140 145 148
0.022229 0.016605 0.005267 138 144 144
-0.036212 0.034874 -0.022033 135 136 133
0.041304 -0.001169 0.026367 41 47 47
-0.008891 -0.037642 0.039067 119 116 113
0.031789 -0.031475 -0.014833 70 70 64
-0.048261 -0.046427 0.055567 127 131 131
0.033346 -0.014585 -0.008933 70 83 89
0.042862 0.010117 -0.000333 12 13 10
-0.012965 -0.039406 0.040767 120 117 114
-0.050921 -0.001472 0.009967 103 114 113
-0.017741 0.025696 -0.010333 144 148 148
-0.031216 -0.013233 0.005567 65 127 56
0.057112 0.027980 -0.000733 24 30 30
-0.054315 0.006182 -0.023833 125 131 130
-0.041588 0.006319 0.004567 115 115 115
-0.045664 -0.003892 -0.028833 137 138 135
-0.023225 0.001319 0.013467 126 130 130
-0.047358 0.000158 -0.025533 139 139 139
0.038282 0.031465 -0.006133 116 125 124
-0.043230 0.011706 -0.001433 104 110 110
0.017514 -0.020800 -0.011833 106 102 102
-0.042743 -0.011643 -0.034633 142 142 136
0.001998 0.018573 0.000167 146 143 147
0.036109 0.028297 -0.003233 132 141 140
-0.023873 0.002475 0.011867 130 134 134
-0.058560 0.022807 -0.014733 135 141 140
0.028906 -0.030100 -0.015833 110 109 106
0.039919 -0.028737 -0.035433 53 62 61
0.021779 -0.013274 -0.017633 184 189 192
-0.021588 0.026782 -0.012333 147 147 147
0.054996 0.031728 -0.004733 86 93 89
0.044260 0.010190 0.000467 9 13 12
0.063336 -0.000054 0.016067 43 43 43
0.000402 -0.040486 0.028367 112 108 108
-0.007329 0.026912 -0.009933 151 155 154
0.023470 0.014768 0.006967 130 136 136
0.049780 -0.003011 0.023067 8 12 11
0.009010 -0.039705 0.022967 118 112 110
-0.043376 -0.004833 0.014167 161 166 162
0.012499 0.023714 -0.002833 139 145 145
0.007017 -0.005450 0.020167 19 17 17
-0.046442 -0.038453 0.048367 126 126 127
0.001284 0.035165 -0.015933 154 158 158
-0.040840 -0.014365 0.019767 125 125 125
0.004773 0.025765 -0.006133 151 155 155
-0.047604 0.021259 -0.011033 135 141 141
0.005848 -0.028829 0.035167 107 103 103
0.027495 0.024195 -0.000633 138 147 146
0.007647 -0.036865 0.025567 116 112 112
0.020391 -0.014502 -0.016333 181 186 189
0.063419 -0.030063 -0.009833 44 48 47
0.018629 -0.023592 -0.011733 117 109 107
0.063359 -0.003074 0.013667 66 68 62
-0.044127 0.022133 -0.010733 133 139 139
0.061793 0.023029 -0.011633 12 12 12
-0.036323 -0.002797 0.013567 110 110 110
-0.053947 0.024889 -0.015433 137 143 142
-0.049532 0.020565 -0.010833 128 132 131
0.011097 -0.009286 0.012267 19 19 20
0.020501 -0.002580 -0.012133 160 170 177
-0.047628 -0.000153 -0.026933 140 140 140
0.026627 -0.018277 -0.008833 128 135 144
0.028149 -0.022983 -0.016633 130 124 122
-0.017183 -0.045741 0.038167 127 121 119
0.047471 -0.020935 -0.018933 80 91 95
0.057414 0.036325 -0.008933 82 89 85
0.015709 -0.016086 -0.014333 29 28 25
-0.046150 -0.007542 -0.036333 140 144 143
0.061295 0.012794 -0.009433 95 84 57
0.005383 0.006931 0.010867 116 120 120
-0.061738 -0.028918 0.036167 137 138 135
-0.060800 0.022571 -0.014533 137 142 138
-0.030934 0.023462 -0.011033 137 143 142
0.009838 0.010988 0.008267 134 138 138
-0.014114 0.021402 -0.005233 141 145 144
0.031577 -0.035008 -0.014833 59 59 59
0.041320 0.033760 -0.007833 110 116 116
-0.034309 0.012322 -0.000233 106 112 112
-0.010024 0.025427 -0.008433 139 145 145
-0.049632 -0.001038 -0.030133 129 137 139
-0.042432 -0.008598 -0.023333 127 125 125
-0.003718 -0.024298 0.041767 103 107 112
0.012069 0.021060 0.000367 143 147 147
0.000247 -0.028330 0.038767 85 83 83
0.030249 -0.026827 -0.017733 109 107 101
-0.055731 -0.007478 0.015367 106 112 111
-0.012493 -0.051744 0.028367 125 121 114
0.023370 -0.020673 -0.009233 113 113 107
0.067167 -0.003009 0.011067 56 60 59
-0.042468 0.030506 -0.018833 139 139 139
-0.028917 0.033457 -0.019833 145 144 141
0.026302 -0.013041 -0.016333 173 178 181
-0.055963 0.029779 -0.021233 124 133 124
0.048087 0.012111 0.000067 13 13 13
0.044479 0.019652 -0.005033 40 46 45
0.044326 -0.000160 0.026067 27 33 33
0.048743 -0.012993 0.016667 66 66 66
-0.048538 -0.027027 -0.029533 213 203 194
0.025191 -0.004029 -0.015633 161 168 172
0.050484 0.021881 -0.010533 14 18 17
0.053534 -0.023016 -0.029533 52 70 109
-0.011412 -0.051881 0.027367 125 120 115
-0.053844 0.011253 -0.013733 120 126 126
0.045378 -0.021942 -0.017233 123 131 138
0.035805 0.038440 -0.012733 132 136 135
-0.013745 -0.039852 0.040767 121 118 115
0.020067 -0.004972 -0.013633 165 173 180
0.075716 0.000125 0.006967 53 53 53
0.020803 0.029071 -0.006433 150 154 153
0.037915 -0.004442 -0.022733 16 20 19
0.074329 0.001092 0.008567 49 55 54
0.009289 -0.035445 0.027067 112 110 110
0.021843 0.008151 -0.000533 33 29 29
0.031036 0.024022 0.000067 110 120 127
-0.037109 0.006866 0.003767 107 113 113
0.014166 0.026685 -0.005233 145 150 153
-0.076459 -0.055903 0.052167 26 24 24
0.016700 0.033940 -0.011533 152 156 155
0.061948 0.033518 -0.005733 70 79 77
0.036737 0.008120 0.015467 71 77 76
-0.065882 -0.038082 0.041267 27 27 27
0.077370 0.005120 0.010367 36 42 41
0.040829 -0.014903 -0.010333 76 87 91
-0.006968 0.015096 0.002267 135 139 139
0.059711 0.009003 0.006367 3 7 6
0.005981 -0.028262 0.035567 107 103 103
-0.032555 -0.004372 0.011567 128 128 117
-0.025335 -0.054783 0.036267 134 129 124
-0.045102 -0.000501 -0.020033 130 130 130
-0.051500 -0.030628 -0.026533 210 204 190
-0.034974 0.004476 0.007467 115 115 115
0.028218 0.021851 0.001067 131 139 141
-0.049646 0.026393 -0.016333 133 139 139
0.022700 0.035190 -0.012333 152 156 155
0.043241 0.014153 -0.003033 15 16 13
-0.042037 -0.017271 0.026067 131 131 132
0.059010 0.018208 -0.005733 13 11 5
0.033859 0.017582 0.006667 90 96 96
0.013675 0.015567 0.005167 109 113 118
0.022907 0.017399 0.004867 139 145 145
0.015504 -0.030236 -0.026933 21 25 24
-0.056987 -0.015683 0.023667 112 118 117
0.043441 -0.013418 -0.015133 60 72 74
-0.045380 -0.006312 -0.032533 140 141 138
0.042719 -0.022505 -0.039533 16 20 19
-0.060456 0.012501 -0.014033 122 131 129
0.025858 0.016862 0.006467 131 137 137
0.056231 0.018909 -0.006133 8 13 9
0.010135 0.022688 -0.002033 150 154 154
0.025980 -0.035697 -0.011533 74 73 70
-0.046811 0.011475 -0.001333 96 105 104
0.003867 0.024157 -0.004733 150 154 154
-0.002333 -0.004842 0.019367 42 35 44
0.060561 0.017604 -0.010933 110 106 92
-0.030123 0.026187 -0.012933 139 144 140
0.014583 -0.024953 -0.021033 41 41 41
0.060349 0.026396 -0.009633 8 12 11
0.042985 0.025503 -0.000233 108 118 120
-0.052967 -0.027652 -0.029633 209 202 192
0.030563 -0.018114 -0.017433 144 151 160
-0.044659 0.032871 -0.021433 128 133 129
0.044616 0.036303 -0.009833 113 121 114
0.046659 0.030938 -0.005033 103 112 110
0.018216 0.003037 0.009067 107 106 110
0.043563 -0.018027 -0.018233 141 151 158
0.074558 -0.005399 0.002867 29 35 35
0.008091 0.008849 0.010167 134 137 140
0.030559 0.029637 -0.005233 142 148 147
0.044156 0.000041 0.025867 29 35 35
0.023523 -0.027166 -0.014833 139 134 129
-0.051950 -0.040293 0.049167 126 126 126
0.038021 -0.025130 -0.038933 15 19 18
-0.060133 0.016172 -0.008833 82 88 88
-0.039178 -0.045156 0.053167 30 34 34
0.061976 -0.009589 0.009267 67 68 65
0.038723 0.013917 -0.003633 15 16 13
-0.061117 0.018412 -0.010133 127 138 137
0.036967 -0.024615 -0.038733 52 53 50
-0.017775 0.028001 -0.012633 145 145 146
-0.039823 -0.007285 0.016867 123 124 121
0.012647 -0.013431 -0.010833 75 74 71
0.028392 -0.034162 -0.011533 78 75 72
0.040099 -0.001267 0.026067 44 48 48
0.010178 -0.044893 0.017267 118 115 112
-0.040327 0.020330 -0.009433 132 136 136
0.015065 -0.028416 -0.025533 25 23 23
-0.036901 -0.051454 0.046967 131 124 119
-0.042982 -0.008650 0.010967 153 153 153
0.015754 0.032902 -0.011133 154 158 157
-0.003021 0.027689 -0.009533 159 159 160
0.009983 0.025699 -0.005133 150 155 158
-0.021655 0.006449 0.008567 133 138 141
0.045818 -0.015257 0.014467 61 62 59
0.000124 0.029865 -0.011233 152 157 160
-0.042698 -0.014297 -0.039333 149 148 145
-0.061745 0.019823 -0.012333 137 146 144
-0.047329 0.010026 -0.000433 103 109 108
-0.027741 0.022814 -0.009333 142 145 148
0.061667 0.019323 -0.013033 68 42 0
0.006333 0.035589 -0.015733 156 159 162
-0.024161 0.034462 -0.019833 147 147 148
0.055768 0.019217 -0.006133 4 11 7
-0.005785 -0.049957 0.025167 123 118 113
0.013475 0.015966 0.004967 141 144 147
0.029226 -0.028670 -0.030133 36 40 39
0.041209 0.029007 -0.003533 100 107 116
0.012039 0.017983 0.003167 140 143 146
-0.043071 0.001966 0.008267 111 115 115
-0.044300 -0.002254 -0.016633 124 123 120
-0.051532 -0.026013 -0.030633 202 198 191
0.064782 0.028625 -0.014433 6 10 9
-0.011296 0.001857 0.012767 140 140 140
-0.029755 0.021928 -0.009633 144 148 147
-0.048507 0.004464 -0.019633 135 135 136
-0.015135 0.020076 -0.004433 142 146 146
-0.021024 0.001142 0.014067 128 133 136
-0.047973 0.004633 -0.018933 131 131 131
-0.028767 -0.056282 0.037367 134 126 124
0.060754 0.023588 -0.011433 9 9 9
-0.034074 0.032460 -0.019433 132 132 132
-0.025128 -0.045614 0.044067 123 120 117
-0.017581 -0.033968 0.044967 30 34 34
0.061832 0.012076 -0.013433 109 99 75
-0.042236 -0.009858 -0.028933 133 132 129
0.069616 0.002993 0.014667 42 46 45
0.020810 -0.010862 -0.017133 161 168 172
0.046132 0.026822 -0.000833 103 112 111
0.029265 0.010042 -0.002033 23 27 27
-0.024163 0.007849 0.005867 139 142 145
-0.004924 -0.034006 0.039067 114 111 108
-0.043942 -0.009855 -0.035433 144 145 142
-0.045351 -0.036954 0.046467 127 131 130
-0.021060 0.035562 -0.019933 148 152 152
0.027129 0.019207 0.003467 133 140 144
-0.050844 -0.009112 0.017467 96 105 104
0.004220 0.033624 -0.014133 152 156 156
-0.002233 0.023930 -0.005733 149 153 153
-0.031514 0.027800 -0.014833 142 142 142
-0.051043 0.004617 -0.023133 132 136 136
0.001662 -0.044396 0.023767 120 113 114
-0.058918 0.020765 -0.012333 139 144 140
0.048383 -0.003219 0.027767 12 12 13
-0.052049 0.001800 -0.028033 133 134 131
-0.018334 0.015225 0.000167 142 142 143
0.042213 0.008061 0.000467 13 14 11
0.052894 0.028662 -0.001533 91 97 96
0.010582 0.021442 -0.001033 147 151 151
0.005634 -0.042380 0.023967 114 110 110
-0.039423 0.020410 -0.009033 128 132 132
-0.003696 -0.013615 0.030967 113 118 121
-0.028741 0.028820 -0.015433 139 140 137
0.006289 -0.042957 0.022067 114 107 108
-0.043936 -0.005975 0.013067 154 153 150
0.075576 0.003406 0.009667 45 52 48
-0.050322 0.033126 -0.023033 129 135 128
0.077095 0.005602 0.011167 38 44 44
0.046955 -0.013323 -0.029133 16 18 23
0.023705 0.034551 -0.011033 151 155 154
0.056315 0.003859 0.009967 9 13 12
-0.051481 0.027218 -0.018033 128 134 134
0.037545 0.029266 -0.004033 125 131 131
0.061694 0.015658 -0.015633 96 72 4
0.052651 -0.017991 -0.031633 69 43 23
-0.046522 -0.004247 0.013167 97 103 103
-0.008508 0.031921 -0.014333 159 159 159
0.029432 -0.029107 -0.016333 107 106 98
-0.032310 0.008095 0.004467 111 115 115
-0.052008 -0.026762 -0.030333 207 202 192
0.000640 0.024463 -0.005433 153 153 154
-0.031358 -0.017816 0.029567 129 128 132
0.040489 0.030494 -0.004133 112 117 120
0.074019 -0.006636 0.002567 31 40 38
0.041252 -0.028904 -0.035433 48 40 38
-0.000525 0.032107 -0.013333 157 157 158
-0.030040 0.005718 0.007967 120 124 123
0.075717 -0.003427 0.004067 62 61 65
0.037411 0.003537 0.021267 62 68 68
0.060349 0.018570 -0.008433 68 64 57
-0.040564 0.026088 -0.014633 135 139 138
-0.042877 -0.009312 -0.031533 136 140 139
-0.055350 -0.011231 0.019067 103 109 109
0.009596 0.023889 -0.003833 147 151 151
0.021144 0.021020 0.001467 138 144 144
-0.004410 0.012696 0.004667 133 136 139
-0.019688 -0.026911 0.040067 45 41 42
-0.016912 0.021927 -0.006433 137 141 141
-0.003833 0.007502 0.009967 124 129 132
-0.002328 0.025979 -0.007433 154 158 158
0.045458 0.028213 -0.002333 105 111 111
0.041426 -0.003210 0.027367 8 12 12
-0.040238 0.019475 -0.008433 123 129 129
0.045961 -0.013108 0.015067 54 58 57
-0.041910 -0.051249 0.051467 125 123 117
0.006200 0.005376 0.012167 93 96 99
0.062272 -0.007157 0.011467 76 77 74
0.023006 0.031228 -0.007433 148 152 151
-0.078715 -0.058776 0.053167 77 77 71
-0.032288 0.034965 -0.021633 137 138 135
0.012495 0.037113 -0.016133 151 155 154
0.049787 -0.005739 0.020167 13 17 17
-0.019679 -0.018145 0.032167 127 130 133
0.011615 -0.013510 -0.011333 19 19 19
0.026996 -0.035445 -0.012033 73 71 71
-0.031538 0.021200 -0.008833 141 145 145
-0.048975 0.003179 -0.023633 139 140 137
-0.046747 -0.014050 0.012767 24 22 23
-0.048947 0.022991 -0.012733 139 143 142
0.045292 -0.022861 -0.017133 126 137 141
-0.025656 -0.026090 0.039167 125 128 131
0.043938 -0.026762 -0.018433 32 30 31
-0.024055 0.011462 0.003367 139 145 145
0.071690 -0.004460 0.006767 50 50 50
-0.048635 -0.002038 0.011967 110 119 118
0.004716 0.008322 0.010267 130 133 136
0.072230 -0.006257 0.003267 32 38 38
0.031263 -0.028516 -0.030233 29 32 35
-0.037309 0.010825 0.000267 111 111 111
0.036710 0.015035 -0.003533 27 27 27
-0.021452 0.007903 0.006667 135 139 144
-0.041345 -0.011713 -0.029033 134 139 135
-0.041295 -0.017125 -0.037133 150 146 139
0.003857 0.012031 0.006467 123 131 138
0.022218 -0.010953 -0.017533 175 182 186
-0.038516 0.025090 -0.013833 137 141 140
0.034049 -0.023863 -0.018333 107 104 101
-0.018648 0.032411 -0.016633 150 150 151
0.011974 0.004220 0.012767 89 94 97
-0.046498 0.027964 -0.017133 134 138 137
0.069936 -0.002536 0.009867 51 54 57
-0.046158 -0.003671 -0.029733 138 139 136
0.066307 -0.006305 0.008967 61 66 62
-0.043096 -0.008403 -0.030733 140 139 136
-0.031418 -0.053317 0.042967 131 126 121
0.014232 -0.025832 -0.023433 20 20 20
-0.017516 -0.013087 0.025467 50 49 53
-0.001802 -0.015033 0.032567 106 109 112
0.015874 0.002863 0.005567 86 91 94
0.073094 -0.003063 0.006267 47 51 50
-0.029042 0.024587 -0.011533 140 144 144
-0.029593 -0.031590 0.042867 19 23 23
0.044825 0.008477 0.002767 15 16 13
-0.014980 0.001511 0.014267 132 131 135
-0.045745 -0.002490 0.011967 109 118 117
-0.025847 0.022338 -0.008433 146 150 150
-0.044913 -0.017315 -0.037933 205 200 190
0.033489 0.024812 -0.001133 119 128 132
0.057334 0.039117 -0.010433 79 90 89
-0.006661 0.016219 0.000267 133 132 136
0.033402 -0.028240 -0.029833 61 54 63
0.028808 -0.024049 -0.016533 112 105 100
-0.028393 0.027873 -0.014333 139 144 140
-0.051944 0.026074 -0.016733 132 138 137
0.010892 0.007631 0.012067 100 106 106
-0.019073 0.027017 -0.011733 149 149 150
-0.063614 -0.057685 0.059567 24 28 28
0.028468 0.021084 0.001367 134 139 142
0.045271 0.034871 -0.008133 111 118 114
-0.043963 -0.014207 0.011767 151 151 152
-0.033248 0.017872 -0.005433 134 140 139
-0.013264 0.032160 -0.015733 155 159 159
-0.028741 0.013486 -0.000033 131 136 139
-0.034797 0.025643 -0.013633 134 140 139
-0.035567 -0.047408 0.050167 120 119 111
0.050443 0.037455 -0.010333 90 99 98
-0.039434 0.033369 -0.021333 127 132 128
0.009520 0.010401 0.008567 130 134 134
0.001860 -0.043901 0.023767 119 115 115
-0.007266 0.010201 0.006267 130 134 134
-0.049521 -0.022943 -0.033233 203 200 190
0.044514 0.029347 -0.003733 105 114 113
0.042721 -0.023108 -0.040733 58 58 59
0.051920 0.011166 0.002067 9 13 13
0.025729 -0.003737 -0.015933 126 133 142
0.019095 -0.014762 0.036167 23 23 23
0.051773 0.011385 0.001767 9 13 12
-0.020118 0.000959 0.014167 132 135 138
0.007958 0.029611 -0.009333 150 154 154
-0.059338 -0.057805 0.060667 13 17 16
0.044945 -0.014800 -0.027933 10 19 17
0.042054 -0.013928 -0.014033 66 80 83
0.010589 0.017616 0.002967 142 145 148
-0.010466 -0.045839 0.032967 127 121 119
-0.045484 0.018549 -0.008133 116 122 121
0.009829 -0.009278 0.018467 13 17 17
-0.044562 -0.001806 -0.018233 126 127 124
-0.001599 -0.025125 0.040667 23 27 27
-0.045586 0.006017 0.003667 109 114 110
-0.060385 0.021976 -0.014033 137 144 140
-0.041282 -0.013588 -0.033133 136 136 136
-0.040363 -0.017069 -0.031033 129 125 125
-0.003032 0.007449 0.010567 87 89 94
0.062228 0.018125 -0.014433 42 26 0
-0.029222 0.029290 -0.015733 142 141 138
0.024435 -0.013499 -0.016533 176 181 184
0.052891 -0.018852 -0.028633 59 42 39
-0.012425 -0.042337 0.037367 124 118 116
-0.031014 -0.023904 0.036567 133 137 137
-0.045614 -0.002186 -0.024733 135 140 136
-0.011149 0.018589 -0.002133 137 141 141
-0.051177 0.029670 -0.019533 136 140 139
-0.045246 -0.039705 0.049167 52 52 52
0.007787 0.011995 0.006967 114 111 120
0.053488 -0.002011 0.022067 8 12 11
0.006734 -0.026863 0.035567 102 98 98
0.030551 -0.024965 -0.018033 123 120 117
0.052880 -0.020904 -0.027933 29 33 47
0.065453 -0.004904 0.011367 65 66 63
0.046279 0.028295 -0.002633 104 113 112
-0.003166 0.025904 -0.007733 151 155 154
-0.043899 -0.029581 -0.026333 146 141 131
-0.042872 0.002827 0.007667 111 115 115
-0.016986 0.011437 0.003967 136 139 142
0.008689 -0.039151 0.023767 115 112 109
0.021835 0.013925 0.008667 134 138 138
-0.048695 -0.004015 -0.034533 132 138 131
0.019562 0.016164 0.005167 137 142 145
-0.020874 0.023769 -0.008433 143 147 147
0.037857 -0.016408 -0.012833 99 110 114
-0.021783 0.034381 -0.019333 147 147 147
0.013886 -0.020509 -0.016533 60 58 59
0.052978 -0.032982 -0.005733 44 48 48
-0.050345 0.019839 -0.010033 127 131 131
-0.015945 -0.039778 0.041767 124 118 116
-0.040246 -0.019808 -0.028933 118 118 118
0.075446 0.000388 0.007867 54 58 57
-0.057140 0.033861 -0.024133 125 132 128
0.039871 0.003823 0.021067 57 63 63
-0.025820 -0.030627 0.042567 49 46 43
-0.044509 -0.007474 -0.032433 143 143 143
0.022454 -0.002901 -0.013533 165 173 180
0.041754 0.033706 -0.007533 110 116 116
-0.037918 -0.033230 0.045267 123 126 129
-0.044320 -0.011500 -0.038033 143 144 141
-0.001104 -0.006803 0.024067 121 125 125
0.034120 -0.028354 -0.032333 70 77 93
-0.019283 0.030760 -0.015733 147 151 151
0.046925 0.012493 0.000567 10 14 13
0.050190 0.021811 -0.009833 14 18 18
0.047517 -0.001802 0.028467 5 9 9
-0.013349 -0.001078 0.015767 139 139 140
-0.012221 -0.016895 0.032267 126 129 132
0.030867 -0.007829 -0.015433 41 45 45
-0.050631 0.001957 -0.026533 133 137 136
-0.045191 -0.012304 0.011667 22 19 23
0.010219 -0.042501 0.019467 114 110 110
-0.052797 -0.061458 0.051967 114 113 110
0.002913 -0.024907 0.042067 26 30 30
0.042862 -0.023076 -0.040833 66 65 69
-0.008432 0.032172 -0.014433 162 160 160
0.049781 -0.013414 0.014467 57 57 57
-0.045326 -0.052267 0.053167 120 120 114
-0.058056 0.031760 -0.022333 131 140 131
0.025310 -0.012181 -0.018633 182 187 190
-0.060201 -0.024769 0.030967 123 127 126
-0.048094 -0.025967 0.035367 129 129 129
0.069598 -0.010139 0.002567 38 42 41
0.034022 -0.021643 -0.017033 126 122 122
-0.026926 0.027475 -0.014233 139 145 144
-0.015093 -0.021318 0.036667 107 112 115
-0.042065 -0.010076 -0.028133 132 131 128
-0.056042 0.022372 -0.013233 131 142 141
-0.011340 0.021540 -0.004933 149 149 150
0.034264 0.022397 0.002167 132 141 139
-0.033074 -0.011168 0.005467 126 131 118
-0.000231 0.009690 0.008467 131 136 139
0.010664 -0.026800 0.004267 42 39 43
0.005727 0.029042 -0.009233 150 156 156
-0.063057 0.018671 -0.010733 135 147 142
-0.042192 -0.009906 -0.029533 136 137 134
0.039353 0.003537 0.021267 52 58 58
0.062606 0.012708 -0.016733 111 82 3
0.017009 0.029959 -0.008133 147 153 153
-0.044834 -0.022429 -0.033233 207 202 192
-0.037685 -0.001598 0.012867 115 119 119
0.018774 -0.013444 0.034767 66 70 70
-0.053542 0.007619 -0.019633 125 131 131
-0.036602 0.027108 -0.015033 135 139 138
0.074264 0.002183 0.010667 48 50 44
-0.062542 0.020041 -0.012333 140 149 147
0.035055 0.030217 -0.004833 126 135 134
-0.048824 0.004061 -0.021133 137 137 137
-0.017130 -0.005438 0.019867 139 139 140
-0.035153 -0.046729 0.049867 104 102 96
-0.007018 0.013284 0.003867 132 136 136
0.022786 -0.025928 0.026067 86 82 82
0.040333 -0.011630 -0.030033 26 32 32
-0.005934 -0.001281 0.017467 136 136 137
0.008978 0.023438 -0.003733 151 154 157
-0.025907 -0.022052 0.035067 136 135 139
0.047490 0.016475 -0.004433 12 12 12
0.015953 -0.025053 -0.014533 113 106 107
-0.073764 -0.063392 0.064267 13 19 19
0.011038 0.025290 -0.004233 145 150 153
0.012291 -0.026906 0.002567 77 77 78
-0.046105 0.002315 -0.016933 130 129 126
0.031844 0.005409 0.017267 83 88 91
0.048363 -0.013640 -0.027933 15 18 21
0.026406 0.033046 -0.009333 145 151 150
-0.057317 0.028702 -0.019833 127 132 128
0.051468 -0.009464 -0.031233 12 17 26
0.006415 0.005256 0.011467 78 80 85
0.037978 0.030870 -0.005533 118 126 128
-0.043144 -0.034364 0.044167 120 124 123
-0.065486 -0.040101 0.044767 132 136 136
0.012243 0.006164 0.013467 59 64 67
0.029547 -0.014685 -0.013733 124 136 138
