ply
format ascii 1.0
element vertex 1243
property float x
property float y
property float z
property uchar blue
property uchar green
property uchar red
end_header
0.040124 0.010557 -0.073877 172 173 170
0.067875 -0.013496 -0.034377 95 105 100
0.048153 -0.018289 -0.018377 99 103 102
-0.077506 -0.055221 0.089723 83 87 86
-0.017456 0.031332 0.010023 12 57 62
0.058521 -0.013654 -0.026577 97 103 102
0.024747 0.020025 -0.077877 97 103 103
-0.032671 0.019651 0.023223 22 59 61
0.058828 -0.015327 -0.027277 97 104 100
-0.046161 -0.011845 0.040723 32 84 86
0.034531 0.009429 -0.072077 177 173 173
0.051901 -0.008387 -0.016377 94 103 101
-0.068450 -0.049520 0.080423 81 89 82
-0.081202 -0.010269 0.053723 18 63 66
0.004976 0.028076 -0.039177 37 91 97
0.037220 0.011661 -0.076477 173 172 169
0.012175 0.009657 -0.000577 36 91 99
0.000671 0.017154 -0.003077 19 64 67
-0.005579 0.024698 0.001623 19 62 65
0.040972 -0.003304 0.004723 99 103 103
-0.043181 0.022902 0.029823 11 57 58
0.038137 -0.029804 -0.004377 106 110 109
0.033369 0.009740 -0.072877 176 172 172
0.070145 -0.012024 -0.036177 94 104 99
0.051792 0.003368 -0.057577 159 158 155
0.006444 -0.003644 0.034923 86 90 89
-0.133793 -0.070661 0.124523 67 68 60
0.008938 0.034443 -0.052477 27 77 81
-0.013065 -0.020142 0.045323 90 96 96
0.022567 0.018407 -0.052577 89 103 106
-0.079325 0.013870 0.053523 8 45 47
0.042632 -0.026590 -0.007277 104 110 110
0.043480 -0.019087 -0.004677 99 105 105
0.015318 0.027645 -0.037977 29 87 94
-0.077180 -0.058615 0.090323 81 91 86
0.032736 0.009254 -0.071777 174 172 172
0.024848 -0.018112 0.011623 98 103 106
-0.017108 -0.044659 0.036923 84 95 87
0.035153 0.007140 -0.067077 175 173 173
-0.051725 0.027465 0.030923 26 88 88
-0.033798 0.036573 0.007323 29 89 91
0.016760 0.031588 -0.045077 17 67 69
0.023543 0.026752 -0.073877 102 108 108
0.048113 0.009611 -0.070877 152 152 153
0.034798 -0.023473 0.001123 98 107 106
0.045922 0.012252 -0.076777 149 149 150
0.030636 -0.025400 0.003523 96 105 104
0.023855 -0.025667 0.009823 96 104 106
-0.014404 0.017711 0.007823 19 64 67
0.024375 0.026767 -0.074677 102 106 105
0.033271 0.030950 -0.057377 99 106 102
0.045141 -0.005590 -0.000277 95 101 101
0.013694 -0.020011 0.022123 97 103 103
0.060617 -0.011467 -0.027877 72 80 73
0.050345 0.008008 -0.067377 152 152 153
-0.073013 -0.023485 0.063923 29 79 81
-0.042611 -0.012891 0.042323 37 85 87
-0.090828 -0.047680 0.107723 74 80 73
0.066718 -0.016854 -0.035677 105 111 104
-0.085001 -0.058265 0.092523 84 85 82
0.018618 -0.031340 0.009723 74 79 75
0.028778 -0.034114 0.002323 104 110 110
-0.028343 0.038228 0.004923 29 86 89
-0.128209 -0.047040 0.123823 49 56 52
0.056825 -0.008945 -0.022777 93 102 100
-0.021904 0.010346 0.013623 19 64 67
0.045472 -0.017618 -0.014677 61 67 67
-0.058075 0.011041 0.039223 11 56 59
0.015405 0.033839 -0.047577 6 40 43
0.029981 -0.034428 0.000823 104 110 110
-0.019679 -0.037984 0.042623 90 99 97
0.064375 -0.004744 -0.028677 168 168 162
0.001454 0.031097 -0.046577 29 89 91
-0.025734 -0.039456 0.048723 91 102 100
0.004061 0.028180 -0.039477 41 92 99
0.057087 -0.012356 -0.024777 67 79 74
0.050383 -0.009356 -0.015977 95 104 103
-0.057552 0.034839 0.011723 23 83 83
0.064054 -0.012462 -0.030377 97 103 102
0.063964 -0.021234 -0.035077 110 110 104
0.016059 0.029121 -0.041477 27 78 85
0.038776 -0.019416 -0.000777 102 106 106
-0.065902 0.031349 0.016723 27 87 87
-0.030555 0.045268 -0.013277 38 93 94
0.041390 0.012579 -0.077877 167 167 167
0.037231 -0.027740 -0.002577 106 110 110
0.046031 0.008699 -0.069277 175 173 173
0.069458 -0.016958 -0.038177 103 111 104
-0.034059 0.046618 -0.017377 37 89 91
-0.094063 -0.010695 0.063923 9 54 52
0.043031 0.007607 -0.067477 176 174 174
-0.053285 -0.003460 0.034123 18 63 66
0.068583 -0.014086 -0.035677 101 106 102
0.030313 0.010796 -0.075477 175 172 169
-0.074127 0.008750 0.050323 12 56 57
-0.107242 0.005699 0.074723 0 38 35
-0.050443 0.030695 0.023823 31 88 91
0.047522 0.012171 -0.076577 122 124 129
-0.031921 0.035008 0.017323 28 85 88
0.003323 0.012356 -0.003377 27 80 88
-0.029796 0.017801 0.019623 15 63 67
-0.051581 -0.001488 0.033123 17 62 65
0.047506 0.009647 -0.070977 157 157 158
0.031725 -0.028932 0.001823 106 110 109
0.054378 -0.000163 -0.050177 171 170 167
0.049006 0.018665 -0.077677 167 167 161
-0.088974 -0.000105 0.058323 14 59 57
0.031161 0.008505 -0.070677 178 174 174
0.036430 -0.013732 0.004323 99 105 105
-0.056706 -0.018050 0.052123 34 82 84
0.019862 -0.011054 0.019923 96 102 102
-0.027790 -0.006659 0.028123 30 82 86
0.010209 -0.033489 0.018123 97 103 103
-0.042481 -0.045295 0.061223 98 102 101
0.038266 -0.024318 -0.001877 76 82 81
0.036568 -0.021346 0.000023 102 107 110
-0.050465 0.033561 0.018123 26 85 90
0.056242 -0.021733 -0.028277 102 108 107
0.000396 0.029705 -0.042677 39 94 97
0.073544 -0.013830 -0.041777 98 107 98
0.058560 0.050382 0.015423 98 102 101
0.022942 0.004559 0.023223 82 88 87
-0.086575 -0.060696 0.094723 83 88 84
0.050200 -0.009658 -0.015577 95 104 103
-0.081855 0.013545 0.056323 8 46 45
-0.043936 -0.022489 0.071223 83 88 84
-0.067970 -0.026686 0.088423 60 67 63
0.057912 0.002770 -0.065077 159 158 162
-0.004246 0.034685 -0.054577 39 96 99
-0.102297 0.004824 0.070823 11 52 55
0.044564 -0.024232 -0.008077 104 110 110
0.046635 -0.009003 -0.011777 56 67 66
-0.009441 -0.011386 0.045123 86 91 87
0.051641 0.006853 -0.064977 151 151 151
-0.010406 -0.028249 0.040323 93 102 101
0.001530 -0.039289 0.021823 102 106 105
-0.033904 0.036770 0.006523 29 89 91
-0.031770 0.003432 0.023023 2 33 33
-0.013192 -0.039535 0.035123 96 102 102
0.011807 0.033880 -0.050677 15 65 67
-0.013722 0.012098 0.008023 16 64 68
0.022398 0.018029 -0.077477 96 103 107
-0.036117 0.038742 0.001423 26 82 88
0.028303 0.000336 0.017423 91 95 95
0.047989 0.010817 -0.073577 129 132 135
0.027272 -0.007221 0.014623 96 102 101
-0.027641 -0.020377 0.058323 86 90 89
0.005303 -0.015035 0.030823 94 98 98
-0.036667 0.046105 -0.017577 37 90 90
0.007047 0.026681 -0.036077 36 92 98
-0.000755 -0.011981 0.038423 91 95 95
0.000822 0.013625 -0.002977 25 70 75
0.000208 -0.004093 0.039823 78 84 84
0.024379 0.023516 -0.076077 102 106 105
-0.084603 0.015074 0.056223 21 78 79
0.021510 -0.029468 0.008823 96 102 101
-0.001334 0.032965 -0.050477 35 95 97
-0.057385 0.012743 0.037623 11 55 56
-0.068773 -0.003800 0.044423 17 63 64
-0.100171 -0.011263 0.068823 11 53 54
0.044743 0.010033 -0.072377 175 173 173
0.005779 0.029740 -0.043177 39 91 95
-0.026913 -0.048995 0.042823 62 68 67
-0.027139 0.044928 -0.013377 34 89 90
0.046630 0.016509 -0.075577 173 172 169
0.029614 0.008634 -0.071377 176 173 170
0.014958 -0.007201 0.026423 91 97 97
-0.005142 0.013397 0.001223 23 66 69
0.001927 0.031439 -0.047177 33 89 95
0.024488 0.024284 -0.075877 102 106 105
-0.056844 -0.015642 0.047123 30 82 84
-0.005457 -0.025634 0.035123 95 101 101
0.045250 0.007209 -0.066377 175 173 173
0.048418 0.010068 -0.072777 130 125 134
-0.012916 0.011447 0.007423 17 65 67
0.026108 0.011165 -0.077077 176 172 172
0.040476 0.009731 -0.072177 176 175 172
-0.019332 0.041985 -0.003577 27 87 89
-0.130869 -0.066249 0.119123 62 60 60
-0.040853 0.042316 -0.008177 30 91 89
-0.058185 -0.044149 0.077323 84 93 91
-0.049184 0.019804 0.033923 10 55 58
0.000692 -0.037171 0.025623 94 102 104
-0.000254 0.032371 -0.003077 14 55 58
0.042252 -0.028771 -0.007977 103 109 109
0.001633 0.005354 0.008323 42 95 103
0.056738 0.001123 -0.052277 171 172 169
-0.057164 -0.014086 0.044023 32 84 88
0.047961 0.012062 -0.076277 98 100 110
0.032056 0.010395 -0.074377 176 172 172
0.057018 -0.013242 -0.024777 74 80 73
0.045507 0.003515 -0.058477 173 172 169
-0.074414 -0.065140 0.087323 86 90 89
-0.020491 0.002442 0.013723 35 90 93
0.043144 -0.018692 -0.004277 97 106 105
0.017301 -0.020874 0.017423 98 104 104
0.029906 -0.013246 0.009423 98 103 106
-0.055353 -0.002150 0.035823 14 60 61
0.016364 0.036996 -0.045577 4 28 28
0.040434 0.006580 -0.065477 174 173 170
0.005422 -0.013929 0.030723 92 98 98
0.049793 -0.022034 -0.022777 99 105 105
0.042345 0.021893 -0.077677 169 171 165
-0.035650 0.040611 -0.003077 29 89 91
0.039006 -0.003151 0.006623 95 101 101
0.009910 -0.023995 0.023323 95 104 103
0.044150 0.009829 -0.071977 174 174 174
0.043774 -0.003531 0.002023 100 106 106
-0.097044 -0.027463 0.068423 21 72 72
0.019069 -0.013169 0.018723 96 102 102
0.002812 -0.017309 0.032523 93 99 99
0.027348 0.011171 -0.076777 175 172 169
0.039017 -0.000292 0.007323 95 101 101
-0.079252 -0.039348 0.094723 74 76 70
0.022241 -0.029890 0.007823 80 80 80
-0.046846 0.039296 -0.000577 28 88 88
0.023875 0.022177 -0.076277 100 104 103
-0.027738 0.043285 -0.009477 31 88 89
-0.042886 0.000449 0.027423 14 62 64
0.039682 -0.015537 -0.000477 102 106 106
0.032552 -0.020905 0.004023 98 104 104
-0.056720 0.027331 0.028823 26 83 84
-0.104142 0.004526 0.071523 1 34 34
0.034151 0.009705 -0.072677 175 174 171
-0.094893 -0.001557 0.062723 13 56 59
0.001881 0.007123 0.004323 42 97 105
-0.031550 0.040018 -0.000777 26 83 86
0.048651 -0.017331 -0.018677 95 104 103
0.003883 0.029102 -0.041777 39 93 99
0.033740 -0.010814 0.007723 98 103 106
-0.044373 0.042299 -0.006277 25 88 93
-0.038637 0.029829 0.029023 0 31 29
0.005126 0.017630 -0.006077 20 65 70
-0.023915 0.039987 0.000123 27 87 89
-0.061525 -0.009587 0.040323 23 68 71
0.006964 0.025353 -0.007677 15 58 61
0.050740 -0.008498 -0.015777 94 103 102
0.021612 0.021265 -0.075577 91 103 105
-0.041941 0.042220 -0.007677 30 88 87
0.011443 0.032933 -0.049077 26 77 84
-0.136565 -0.068220 0.139823 56 57 49
0.058124 -0.013651 -0.026077 97 103 102
0.054820 0.003316 -0.068377 167 163 169
-0.002361 0.033882 -0.052177 33 90 93
0.023717 -0.010479 0.016223 97 103 103
-0.073867 0.021209 0.038123 27 87 89
-0.055464 -0.033735 0.073723 76 86 81
-0.026900 0.040568 -0.002277 24 81 84
0.026071 0.025642 -0.076677 102 106 105
0.014900 -0.015506 0.022723 96 102 102
-0.107140 -0.056617 0.117023 62 68 61
-0.078999 -0.036524 0.098223 72 74 68
-0.037474 0.048050 -0.020877 32 88 87
0.044975 -0.004895 0.001023 96 102 102
-0.006471 -0.021954 0.039023 93 102 101
-0.057639 0.038971 0.005023 11 67 66
-0.031149 0.035406 0.011223 26 86 88
0.013241 0.001616 0.031123 78 84 84
-0.131722 -0.053841 0.151623 43 44 41
0.070091 -0.016831 -0.038377 105 112 103
0.016658 -0.003261 0.026123 91 95 94
-0.008244 0.033999 -0.052777 32 94 96
0.012761 -0.016700 0.024123 95 101 100
-0.019446 0.033653 0.012523 13 56 59
-0.001255 -0.012024 0.038723 91 95 95
0.007593 0.005863 0.007023 43 92 99
0.047454 -0.020258 -0.019077 87 87 87
0.046111 -0.010090 -0.012977 58 67 66
0.049613 0.057129 0.017423 99 105 104
-0.019552 0.001441 0.015723 38 94 100
-0.035994 0.043562 -0.010377 30 90 90
0.025236 0.023472 -0.076877 104 104 104
-0.106204 -0.063457 0.107423 65 70 66
0.000829 0.033182 -0.051277 36 93 96
0.066862 -0.008667 -0.032177 72 73 70
-0.101476 -0.055629 0.110623 76 78 72
0.034831 0.011196 -0.075577 176 172 172
-0.106452 -0.059199 0.117023 71 78 69
0.027218 -0.023656 0.007923 100 104 104
-0.050717 0.036263 0.011723 8 56 58
0.064549 -0.018120 -0.034077 101 106 102
-0.072433 -0.005142 0.047323 16 64 66
0.057140 -0.019241 -0.027677 99 106 102
-0.013721 -0.005078 0.053323 70 79 77
0.053317 0.003967 -0.069477 168 163 172
0.044406 0.003887 -0.059477 174 173 170
0.000179 -0.030624 0.028523 95 104 102
-0.044780 0.007992 0.028323 14 57 60
-0.032064 0.047051 -0.019177 31 89 88
-0.018638 0.020245 0.010823 18 66 68
0.004538 0.024192 -0.005977 13 58 61
-0.037040 0.039333 -0.000077 28 88 90
-0.035493 -0.009608 0.036023 30 85 86
-0.136707 -0.052091 0.146723 47 50 42
0.033341 0.008715 -0.070777 176 172 172
0.018449 -0.027074 0.014123 98 104 104
-0.125563 -0.055076 0.111623 16 15 7
-0.028203 0.043462 -0.009677 37 92 93
0.050989 -0.014417 -0.019577 68 77 75
-0.057902 0.009320 0.038423 11 56 59
0.066232 -0.019115 -0.035577 105 110 106
0.057674 -0.009328 -0.023277 95 101 100
0.002083 0.035087 -0.054377 25 80 81
-0.002432 0.033809 -0.051977 33 90 93
-0.050102 -0.013909 0.044423 27 82 85
0.032910 0.006191 -0.065877 175 171 171
-0.042586 0.000675 0.027223 14 59 62
0.003593 0.010936 -0.002377 36 94 101
0.025810 0.024062 -0.077077 104 108 107
-0.007995 0.026235 0.003323 14 62 64
-0.049797 0.009578 0.032623 13 56 59
-0.094274 -0.054959 0.110623 80 81 78
0.004742 -0.022560 0.027023 94 103 102
-0.039363 -0.021149 0.068223 79 86 82
0.036520 0.000970 0.010123 94 98 98
-0.084210 0.016090 0.048723 23 79 78
-0.005736 0.005210 0.007323 40 95 103
0.067945 -0.018222 -0.037577 105 110 106
0.010546 0.033101 -0.049477 26 77 84
-0.020846 0.012351 0.012423 15 63 65
0.020976 -0.003571 0.021823 93 97 97
-0.000595 -0.030876 0.029423 96 105 103
-0.058748 0.028374 0.022723 26 86 86
-0.063403 0.003132 0.041023 13 58 61
-0.071492 -0.051061 0.085523 85 91 84
0.036963 0.005197 -0.062977 174 173 170
0.000949 0.031688 -0.047377 34 93 98
0.043920 0.003659 -0.058977 175 174 171
0.055916 0.001959 -0.063577 163 157 163
0.049783 -0.012861 -0.017277 95 104 103
0.035596 0.008171 -0.069377 176 175 172
-0.054404 0.035996 0.009923 20 78 77
0.026864 0.024352 -0.077777 101 105 104
0.037336 0.004125 -0.060877 175 172 169
0.025225 0.021367 -0.077777 96 102 102
-0.031424 0.029384 0.021823 12 57 60
0.048500 -0.003605 -0.010877 93 102 101
-0.072870 -0.022203 0.059123 27 79 81
-0.041647 -0.053852 0.055623 94 103 101
0.053175 0.003967 -0.069477 166 161 170
0.024845 -0.025699 0.008623 95 103 105
0.043248 0.005992 -0.063877 176 173 170
-0.045938 -0.042570 0.063123 73 82 80
0.011096 0.032080 -0.047277 31 81 83
0.004728 -0.039202 0.020723 102 108 108
0.024445 0.003714 0.021423 86 92 92
-0.054031 0.027745 0.030523 26 83 84
-0.129319 -0.048003 0.125623 52 59 55
0.016453 0.032420 -0.046177 11 59 61
-0.010743 -0.040211 0.034123 95 103 105
-0.034932 -0.049918 0.050323 96 104 97
-0.052043 -0.005190 0.033623 20 63 66
-0.011674 0.001481 0.015123 42 95 103
-0.023036 0.015095 0.014423 17 62 65
-0.016094 0.003221 0.011823 40 93 101
-0.015449 0.002585 0.012923 40 95 103
-0.016995 -0.005817 0.054523 64 73 72
-0.078632 -0.019686 0.055823 28 80 82
0.106321 0.016143 0.003923 92 95 103
-0.059710 0.027497 0.025723 29 89 89
0.003466 -0.031248 0.024423 93 104 103
-0.074983 0.020977 0.036423 18 82 84
0.021270 -0.011952 0.018623 96 102 102
-0.132566 -0.068869 0.122323 64 67 59
0.045348 0.009407 -0.070977 175 173 173
0.000107 0.025160 -0.002277 17 62 65
-0.038415 0.024081 0.027423 5 48 51
0.012914 0.009309 -0.000077 41 91 100
-0.106749 -0.055673 0.119823 68 75 66
-0.009715 0.016889 0.004523 19 64 67
-0.041637 0.033498 0.019523 28 85 86
0.048595 -0.017855 -0.018877 98 104 103
0.024748 0.021505 -0.077277 97 103 103
-0.007905 -0.040440 0.031523 94 103 101
-0.038161 0.005604 0.026023 13 57 58
0.002545 0.028480 -0.004277 15 58 63
-0.061047 0.023646 0.037223 24 81 82
-0.086798 0.001861 0.057723 12 58 59
0.023047 0.017525 -0.077977 97 101 106
0.005544 -0.030467 0.023523 95 103 105
-0.035256 -0.025897 0.063323 85 92 88
0.066144 -0.006544 -0.030177 87 96 94
0.052209 0.006494 -0.064277 154 153 150
0.059249 -0.013642 -0.027377 96 102 101
0.003522 0.028030 -0.039377 44 92 96
-0.129112 -0.065511 0.110623 15 16 8
0.016680 0.034156 -0.046477 1 28 27
-0.004562 0.002260 0.015123 40 95 103
0.063884 -0.020904 -0.034177 103 110 106
0.044441 -0.025694 -0.008277 104 110 110
-0.024446 0.044349 -0.009377 29 86 87
-0.014393 0.039811 0.005523 26 81 84
-0.003540 0.014928 0.000223 21 66 69
-0.039242 0.031429 0.028923 1 24 26
0.035283 0.010864 -0.074977 176 173 170
0.011070 0.027036 -0.036677 32 87 95
-0.076041 -0.048788 0.092823 79 86 82
0.051524 0.014787 -0.067077 153 153 153
-0.005570 -0.013081 0.041223 86 92 91
-0.030966 0.003354 0.022523 1 25 25
0.032285 -0.008880 0.008923 99 102 105
0.052416 0.015299 -0.066777 146 146 147
-0.082815 -0.012639 0.054523 13 60 58
-0.123634 -0.051862 0.144123 48 54 47
-0.028184 0.008453 0.018223 22 63 66
-0.031564 0.020897 0.021923 15 58 63
-0.035110 0.036249 0.008423 30 87 88
-0.080826 -0.018060 0.055223 17 69 71
0.033018 0.032816 -0.056877 101 105 104
-0.039570 0.034698 0.015623 24 86 88
0.049245 -0.023772 -0.022977 100 106 105
0.006789 -0.036423 0.019423 75 75 75
0.025878 0.023219 -0.077477 102 106 106
-0.130491 -0.075801 0.127523 55 59 48
0.046189 0.006803 -0.065377 174 172 172
0.048311 0.007729 -0.066977 175 174 171
-0.054965 0.027843 0.027723 24 84 86
-0.000454 0.032297 -0.049177 37 94 97
-0.021675 0.039679 0.000623 27 87 89
-0.049571 0.035371 0.014023 8 61 61
-0.006736 -0.042849 0.028223 100 104 103
-0.057499 -0.013507 0.042523 34 84 86
0.042871 -0.008653 0.000023 98 104 104
-0.002959 0.034281 -0.053677 36 93 96
-0.016310 -0.002733 0.022723 46 95 102
-0.054038 0.026889 0.031623 28 83 84
0.059131 -0.008471 -0.024777 93 99 98
0.015331 0.008679 0.001823 44 93 100
-0.073127 -0.035582 0.095323 75 76 73
-0.045778 -0.004151 0.029823 19 69 71
-0.079997 -0.061210 0.093023 81 88 84
0.022983 -0.029525 0.008123 72 76 76
-0.030087 -0.000713 0.023223 3 37 40
0.023515 0.023272 -0.075277 101 106 102
-0.019296 0.012714 0.011423 21 66 69
0.014524 0.033263 -0.048077 14 62 66
0.017459 -0.031925 0.011223 77 81 80
-0.006905 0.033014 -0.050477 39 96 99
-0.062028 0.027389 0.024823 31 88 91
-0.095667 -0.023049 0.063723 16 65 65
-0.057714 0.035951 0.008323 26 87 85
0.032291 -0.002605 0.012123 95 101 101
-0.050572 -0.028552 0.069723 76 83 79
0.006365 -0.029427 0.024623 95 102 106
-0.005316 0.033276 0.001623 13 58 61
-0.031663 0.046803 -0.017877 32 89 90
-0.024530 0.016276 0.014823 19 64 69
-0.027756 0.000137 0.020123 36 79 84
-0.035996 -0.003556 0.024823 26 83 86
-0.007527 -0.009271 0.044423 83 89 88
0.023356 0.026371 -0.073777 99 105 105
0.063756 -0.011418 -0.029677 95 103 96
0.029912 0.003564 0.016323 91 95 95
0.031187 0.011835 -0.077477 176 172 172
-0.016865 -0.045484 0.037323 64 70 63
-0.014741 -0.001524 0.020623 41 91 100
0.037452 0.011637 -0.076277 172 173 170
0.040915 -0.020812 -0.002277 102 106 106
0.070745 -0.015463 -0.039177 104 113 104
-0.033096 0.030548 0.023523 11 56 61
-0.000570 0.031864 -0.047977 37 92 95
0.038871 0.011497 -0.075877 174 172 172
0.022974 -0.004173 0.018823 94 98 98
-0.051362 0.033338 0.016823 21 83 85
0.041661 -0.027845 -0.005977 106 110 109
0.023882 -0.013876 0.014923 97 103 103
-0.019316 0.033976 0.012723 15 58 61
0.006817 -0.022107 0.026423 96 102 102
-0.072903 0.007662 0.049023 9 53 54
-0.001438 0.018627 -0.001277 17 62 65
-0.002701 -0.022335 0.035423 96 102 102
0.027142 0.000690 0.018023 92 96 96
0.053801 -0.006142 -0.017377 94 103 102
0.013419 -0.039286 0.012423 102 108 108
-0.032777 -0.048755 0.050523 95 101 100
0.054458 -0.013540 -0.022777 69 78 76
0.022533 0.004236 0.023523 85 91 91
-0.004397 0.032412 -0.048977 34 94 96
-0.040693 0.006117 0.026523 12 55 58
0.007724 0.014555 -0.007277 23 76 84
-0.027849 0.018816 0.018123 18 63 66
0.042516 0.009933 -0.072377 175 173 173
0.056137 -0.021481 -0.027877 98 107 105
-0.002699 -0.009869 0.040723 86 92 91
0.023848 0.024961 -0.074977 102 108 107
0.056732 -0.001238 -0.065277 22 11 0
0.056561 -0.000356 -0.065077 106 105 102
0.034573 -0.016013 0.004523 100 104 104
-0.131433 -0.045993 0.146323 32 42 37
-0.026141 0.026677 0.017223 15 58 61
-0.057788 -0.030668 0.079923 76 83 79
0.049457 -0.008511 -0.014477 95 104 103
-0.034303 -0.043195 0.056523 97 103 102
0.026483 0.025863 -0.020177 95 98 101
0.043694 0.009519 -0.071477 174 174 175
0.007927 -0.018739 0.027023 95 101 101
0.002246 0.019769 -0.003977 17 62 67
-0.082954 -0.036397 0.103623 64 71 67
-0.001447 0.028386 -0.001677 18 61 66
0.026806 0.009355 -0.073277 176 172 172
-0.025781 0.020517 0.015623 12 60 62
-0.092739 -0.052635 0.111923 77 82 78
0.066959 -0.014046 -0.034377 99 105 98
-0.019186 -0.002902 0.023423 43 92 99
0.063611 -0.011378 -0.029577 96 104 97
-0.083985 0.002344 0.055623 13 56 59
-0.023699 -0.048280 0.043123 63 68 64
-0.003006 -0.034820 0.030323 94 103 102
-0.044696 -0.005017 0.029823 21 71 75
0.045229 -0.013451 -0.003477 98 104 104
0.020489 -0.031079 0.008923 80 84 83
-0.016412 -0.034064 0.041223 95 101 101
0.026807 0.024952 -0.077577 102 108 108
0.045086 -0.017676 -0.005677 99 105 105
0.012401 0.028420 -0.039677 28 86 93
0.012520 0.035476 -0.050877 3 36 36
-0.004227 -0.010073 0.042323 87 91 90
0.052076 0.007040 -0.065477 148 151 154
-0.027954 -0.020153 0.058523 86 90 89
-0.080162 0.014017 0.054523 6 44 43
0.039210 0.009935 -0.072577 174 173 170
0.045350 0.016810 -0.054177 174 173 170
-0.062933 0.030210 0.017023 28 90 90
0.048979 0.004376 -0.060077 172 172 172
-0.073193 0.005490 0.048023 16 57 60
0.048403 0.006783 -0.075977 154 150 156
-0.045707 -0.020999 0.073123 25 32 28
0.042591 -0.027144 -0.007077 105 111 111
0.068033 -0.008970 -0.032777 67 73 72
-0.085696 -0.046377 0.103923 72 79 75
-0.001889 0.033222 -0.050877 36 95 100
-0.005688 0.032594 0.001723 14 59 62
0.044271 -0.005034 0.001423 98 104 104
0.004011 -0.019173 0.029723 93 102 101
-0.034542 0.033725 0.017923 26 88 90
-0.079728 -0.024317 0.059323 24 74 76
-0.051285 -0.042647 0.066623 82 93 91
0.052305 -0.019194 -0.023177 99 105 105
0.010329 0.009916 -0.001077 35 90 98
0.032360 0.007882 -0.069277 175 173 173
0.067652 -0.007496 -0.032677 66 75 73
-0.029540 0.001980 0.021423 1 32 39
0.044306 0.001952 -0.055577 176 173 170
0.043735 0.006957 -0.065977 175 174 171
-0.048474 0.017407 0.032623 12 57 60
-0.006998 -0.019747 0.040723 90 99 98
0.006506 0.034724 -0.053377 28 80 84
-0.045391 -0.049552 0.060223 76 83 79
0.033553 -0.032025 -0.001477 105 111 111
-0.011027 0.003742 0.010923 40 95 103
0.037244 -0.012545 0.003723 98 104 104
0.004991 0.000400 0.038223 75 81 80
0.049161 -0.001801 -0.047277 173 169 169
-0.084946 -0.058322 0.087623 79 84 80
-0.057729 0.039061 0.005023 15 71 70
0.016047 -0.019705 0.019323 96 102 102
0.052100 0.005901 -0.071577 161 158 167
0.053994 0.004733 -0.069977 166 162 168
0.056801 -0.001303 -0.065677 57 43 5
0.029888 0.007721 -0.069577 176 172 172
0.028522 -0.029054 0.003823 109 109 109
0.051906 -0.022582 -0.024577 101 105 104
0.023958 0.022057 -0.076377 100 104 104
0.010666 -0.019447 0.024323 96 102 102
-0.036092 0.016467 0.026123 5 44 46
0.040683 0.011441 -0.075677 173 172 169
0.033052 -0.030270 -0.001377 106 110 109
-0.045930 -0.034210 0.067523 62 69 65
0.027608 0.025222 -0.077877 95 101 100
0.041877 -0.004911 0.003223 97 103 103
0.052558 -0.006339 -0.016177 94 103 102
-0.046405 -0.016886 0.074723 45 50 46
-0.005121 0.007568 0.004423 39 94 102
0.016121 0.031375 -0.045077 22 72 76
0.047946 0.007860 -0.067377 174 174 175
0.035406 0.009871 -0.072777 175 174 171
-0.019947 0.002646 0.013523 35 91 97
-0.007458 0.012910 0.002923 20 65 68
0.012361 0.012709 -0.006477 35 90 98
0.057117 -0.018375 -0.027077 101 105 104
0.033851 0.007698 -0.068477 178 174 174
-0.041321 0.038534 0.002023 28 88 88
-0.135590 -0.051827 0.154923 36 43 34
0.018878 0.001196 0.025723 88 91 94
0.047152 0.009790 -0.071477 157 157 158
-0.023849 -0.045197 0.040723 93 100 96
0.035122 0.011399 -0.076077 176 173 170
0.020458 0.003867 0.024823 82 88 87
-0.019276 0.038476 0.007223 30 87 90
-0.099223 -0.043987 0.116023 63 68 64
0.039967 0.002745 -0.057877 173 171 165
0.056484 0.001837 -0.053677 173 172 169
-0.043041 0.043486 -0.011877 29 89 89
0.024717 0.011703 -0.077877 176 172 172
0.039195 -0.020799 -0.001377 99 105 105
0.051329 -0.004065 -0.013777 95 104 103
0.045769 -0.019193 -0.007377 95 101 100
0.040995 -0.004155 0.004323 98 104 104
0.036402 -0.007653 0.006223 97 103 103
0.070605 -0.014616 -0.038577 101 107 100
0.066469 -0.017161 -0.035477 102 108 101
-0.031452 0.021385 0.021623 12 60 62
-0.002114 0.018656 -0.000877 18 63 66
0.050050 0.007380 -0.066077 163 162 159
0.042251 -0.016640 -0.002377 100 105 108
0.015760 -0.038035 0.011123 104 108 108
0.067957 -0.006955 -0.032577 87 96 94
-0.009226 0.011333 0.004723 18 66 68
0.046240 -0.011836 -0.013077 59 68 66
0.024066 0.027214 -0.074177 99 106 102
0.057316 0.000357 -0.065377 107 103 103
0.023673 0.018994 -0.077377 98 102 102
-0.064253 -0.018198 0.051523 30 85 86
0.048713 0.007367 -0.077677 151 147 160
0.007678 -0.007368 0.032323 88 92 91
-0.067227 -0.027644 0.089523 61 68 64
0.013219 -0.021696 0.021423 97 103 103
-0.065965 -0.003139 0.043623 15 63 65
-0.011191 0.012156 0.005723 17 65 69
0.053081 -0.013635 -0.021277 69 75 75
0.015664 0.032515 -0.046877 24 69 72
0.060887 -0.021602 -0.032477 102 112 107
-0.037545 0.038446 0.002023 30 87 90
0.035945 -0.015191 0.004023 99 105 105
0.056217 0.000965 -0.052177 171 170 167
-0.014688 0.039463 0.007523 23 78 81
0.053059 -0.008657 -0.018077 94 103 102
0.043218 -0.026517 -0.007977 103 109 109
0.022608 0.021318 -0.076077 94 96 101
-0.064299 -0.051613 0.079223 85 92 88
0.041627 0.006436 -0.065077 177 174 171
-0.091724 -0.024679 0.062523 26 77 77
0.054024 0.003280 -0.068377 170 165 174
0.053152 -0.013564 -0.021277 69 75 75
0.064223 -0.006413 -0.027777 89 95 94
0.013033 0.006970 0.030923 53 68 69
0.043428 -0.007647 0.000223 102 108 108
-0.043722 0.020629 0.029823 13 58 61
-0.001541 0.031813 -0.047977 34 95 100
-0.018112 -0.033084 0.045423 93 102 101
0.058168 -0.007704 -0.023077 91 100 99
0.032839 -0.018034 0.005123 98 104 104
0.029211 0.011032 -0.076177 176 172 172
-0.027322 0.025613 0.018323 12 60 62
0.023712 0.023335 -0.075577 101 105 104
0.025840 0.023943 -0.077077 104 108 107
0.035594 -0.022868 0.000523 96 105 104
-0.039222 0.043779 -0.012177 28 89 87
-0.066320 -0.009529 0.043623 20 66 67
-0.035798 -0.042283 0.055623 92 103 101
-0.034555 -0.035866 0.057323 89 100 98
0.015799 0.002888 0.029723 79 85 85
-0.097991 -0.054120 0.113623 75 83 76
0.036729 0.012351 -0.077777 174 173 170
-0.005644 0.012706 0.001523 21 69 73
0.022714 -0.000186 0.021723 92 96 96
-0.070952 -0.019041 0.055023 29 81 83
0.034693 0.010586 -0.074377 176 173 170
0.014657 0.031034 -0.044777 21 73 75
-0.056811 0.035954 0.011123 21 84 82
0.052041 0.006730 -0.065977 100 100 110
0.136325 0.122852 0.226823 96 102 101
0.010630 0.031371 -0.046177 26 81 84
0.053584 -0.014488 -0.022077 72 82 77
-0.057074 0.029292 0.023423 28 85 88
-0.038239 0.041729 -0.005977 28 88 88
0.028083 0.025767 -0.077677 89 96 92
-0.040876 -0.031513 0.065823 88 97 95
0.034184 0.008999 -0.071077 177 173 173
-0.015777 0.034273 0.009723 11 56 59
-0.041933 0.040395 -0.003577 28 88 88
-0.017920 -0.034025 0.043623 93 102 101
-0.028616 0.007431 0.019423 21 64 67
0.020579 -0.028237 0.011223 96 104 106
0.016643 -0.034947 0.013123 105 109 109
0.028620 0.009882 -0.073877 177 173 173
0.002112 0.030578 -0.004177 16 59 64
0.013010 -0.037662 0.014523 104 108 108
0.000758 0.034061 -0.052477 28 88 90
0.054900 0.001856 -0.054177 174 173 170
0.002930 0.030207 -0.044277 31 90 95
-0.009076 -0.030780 0.037623 94 103 102
0.005586 0.034411 -0.053077 32 84 86
-0.021678 0.028593 0.013223 12 60 64
0.029447 0.011658 -0.077477 175 171 171
0.046905 -0.023354 -0.020577 71 77 76
0.006742 0.034724 -0.053377 27 79 83
0.010067 0.023240 -0.010477 18 61 64
-0.049385 0.031253 0.019323 28 88 90
0.047183 -0.012541 -0.015077 62 71 70
-0.109500 -0.056544 0.122323 63 69 62
0.014884 -0.033067 0.013823 75 75 75
-0.035183 0.006611 0.023823 12 55 58
0.040565 0.012144 -0.077177 173 171 172
0.014120 0.032605 -0.047577 16 66 70
0.006124 0.034979 -0.054177 22 76 82
0.027370 -0.005474 0.014623 95 101 101
0.001976 -0.021160 0.030423 95 103 105
0.053876 -0.010446 -0.019977 95 101 100
-0.022452 0.026072 0.013823 16 61 64
0.015108 0.036596 -0.047077 4 27 24
0.053042 -0.008440 -0.017677 94 103 102
0.033894 -0.033474 -0.001477 103 109 108
0.063842 -0.012830 -0.030677 93 99 98
0.054842 -0.012381 -0.022677 91 100 98
0.037453 0.004725 -0.061877 176 173 170
0.031360 0.011387 -0.076577 175 171 171
0.049808 -0.007131 -0.014577 94 102 104
0.054086 -0.021176 -0.026277 99 105 104
0.027471 0.025874 -0.077477 90 96 96
0.035871 -0.019689 0.002023 99 105 105
0.069112 -0.016325 -0.037977 105 108 100
0.064965 -0.010906 -0.030977 93 101 94
0.061955 -0.009403 -0.027977 90 99 98
0.000292 0.031567 -0.047777 38 93 96
0.010411 -0.011976 0.027923 90 99 98
-0.063829 -0.035890 0.085023 76 83 79
-0.077781 -0.019709 0.055223 30 85 86
-0.013682 -0.029281 0.042623 93 99 99
0.004691 0.001619 0.038923 75 81 80
0.010239 0.033397 -0.050077 27 76 83
0.024969 0.024090 -0.076277 102 106 105
0.036156 0.008771 -0.070377 176 175 172
0.025871 -0.018852 0.011123 99 103 103
-0.047616 0.007957 0.030523 11 55 56
-0.083371 -0.022797 0.060223 25 80 81
0.056589 -0.013660 -0.024477 75 82 78
-0.014797 -0.032243 0.041823 92 103 102
0.129501 0.068513 0.226823 173 171 171
0.024898 0.023905 -0.076377 101 105 104
-0.046319 0.014353 0.029823 12 55 58
0.050504 -0.010278 -0.016577 96 102 102
0.055132 -0.008330 -0.021277 93 102 100
0.005387 0.030288 -0.044177 30 90 92
0.027035 0.025640 -0.021577 99 102 105
0.021895 0.019218 -0.076477 99 105 105
0.037117 0.009385 -0.071577 176 174 174
0.038615 0.007629 -0.067877 177 173 173
0.045677 -0.017519 -0.005977 97 103 103
0.052812 -0.008625 -0.017477 94 103 101
0.040674 0.005690 -0.063577 175 172 169
0.022586 0.011441 -0.077877 176 172 172
0.050334 -0.017029 -0.020777 98 104 104
0.051699 -0.012520 -0.019377 96 101 104
-0.038375 -0.029526 0.063523 90 96 95
-0.007003 0.033014 -0.050477 38 95 98
-0.034242 -0.007047 0.030523 33 85 89
0.051311 0.001684 -0.054277 171 169 169
-0.026720 -0.003557 0.028123 0 36 40
0.030301 -0.023744 0.004923 98 104 104
0.059710 -0.012791 -0.027077 93 100 96
0.004071 -0.025607 0.027323 94 103 102
-0.001333 0.013160 -0.001377 21 66 71
-0.075860 -0.004543 0.050123 17 62 65
-0.015954 0.021103 0.008723 19 64 67
0.072288 -0.014687 -0.039977 104 110 103
0.006385 0.031966 -0.047977 26 82 88
0.036911 0.012486 -0.077977 174 173 170
0.056872 -0.014891 -0.024977 99 103 102
0.015678 0.032764 -0.047077 15 63 65
-0.000619 0.004462 0.009623 41 95 101
0.053225 0.004895 -0.065477 110 110 127
0.025048 0.023566 -0.076677 104 108 107
-0.055114 0.012380 0.036023 14 58 59
-0.071472 -0.033603 0.093323 71 77 70
0.024673 -0.030344 0.006123 109 109 109
0.024034 0.027278 -0.074177 98 104 103
0.052309 0.004907 -0.060777 171 172 169
-0.038166 0.012870 0.025523 11 55 56
-0.078392 -0.025316 0.060423 29 79 81
-0.091296 -0.018861 0.058523 14 61 59
0.021335 0.026133 -0.073177 105 119 122
0.038516 -0.003377 0.007023 96 102 102
0.005644 -0.027052 0.025523 97 103 103
-0.019791 0.038772 0.005723 24 84 86
0.059131 -0.007778 -0.023777 91 100 98
-0.027434 0.033798 0.018923 8 49 52
0.028537 0.011143 -0.076677 175 171 171
-0.013297 -0.036153 0.039223 94 103 101
0.026338 0.022738 -0.077977 100 104 103
0.056214 -0.022700 -0.028677 103 109 108
-0.027107 -0.000113 0.019423 36 86 88
-0.050367 0.036005 0.012823 4 54 51
0.013758 -0.038535 0.013223 102 108 107
0.070930 -0.018342 -0.041177 104 111 107
0.043006 -0.020580 -0.004977 100 106 106
0.065379 0.018541 -0.038377 173 169 169
0.052850 0.004953 -0.070677 170 165 174
0.065085 -0.014510 -0.032577 98 105 101
0.055376 -0.017476 -0.024977 99 105 104
0.048944 0.008956 -0.069577 153 153 154
-0.000683 0.028752 -0.002577 13 58 63
-0.056200 0.014811 0.038223 13 56 59
0.052655 0.004723 -0.064577 121 115 121
0.033949 0.006189 -0.065377 178 174 174
-0.027712 -0.049253 0.043523 61 67 66
0.045608 -0.014500 -0.005177 96 102 102
-0.049001 -0.010673 0.037223 32 87 90
-0.047524 -0.049119 0.059323 61 67 66
-0.039549 -0.020496 0.069223 81 86 82
-0.057068 0.031138 0.019223 20 82 82
-0.011194 -0.019004 0.044323 90 96 96
0.034314 -0.015213 0.005423 97 103 103
-0.023987 0.037309 0.008623 26 86 88
0.057934 -0.014511 -0.026377 98 102 101
-0.041930 0.008212 0.027923 12 55 58
-0.001773 0.007022 0.004723 37 95 102
-0.002913 0.032551 -0.049477 33 93 95
-0.014488 0.011084 0.008123 18 63 66
-0.053064 -0.053898 0.061423 91 98 94
-0.048268 0.034088 0.017723 13 73 75
0.009765 0.029954 -0.042777 31 87 93
-0.000002 0.029345 -0.003077 16 59 64
0.052909 0.004587 -0.060077 159 157 157
-0.080055 -0.011611 0.052423 18 62 63
0.064901 -0.009888 -0.030977 68 75 71
-0.092914 0.009958 0.062523 15 53 57
-0.017290 -0.022535 0.046523 91 97 97
0.048715 -0.023010 -0.022177 99 105 104
0.045359 0.011276 -0.074777 156 154 154
-0.093321 -0.002309 0.062123 16 61 64
-0.046516 -0.013065 0.043523 32 84 86
0.037613 0.007344 -0.067377 177 173 173
-0.087190 -0.014967 0.057523 13 59 60
-0.092620 -0.064773 0.097023 80 86 79
-0.001175 0.034140 -0.053677 35 92 95
-0.011216 0.020165 0.005123 16 64 66
0.009236 0.007684 0.003223 39 92 100
-0.038411 0.043278 -0.010277 30 90 92
0.000888 0.015313 -0.002877 19 64 69
0.018406 -0.008166 0.022523 95 99 99
0.050513 -0.019553 -0.021577 100 104 104
-0.027450 0.018417 0.018123 17 65 69
-0.041649 0.029563 0.027023 21 81 83
0.026759 -0.032940 0.004223 105 109 109
0.036108 0.007934 -0.068877 176 174 174
-0.038858 -0.020962 0.067923 81 88 84
0.038477 -0.011705 0.003023 99 105 105
0.003822 0.020130 -0.005577 17 62 67
0.024974 0.021625 -0.077377 100 104 104
-0.032244 -0.031629 0.057323 89 98 96
0.041728 -0.013109 -0.000577 99 105 105
0.068107 -0.015167 -0.035877 99 106 102
-0.049468 0.036475 0.008623 35 85 87
0.032723 -0.014935 0.006723 100 104 104
-0.000355 0.033153 -0.051077 29 89 91
0.033320 0.032746 -0.057777 99 105 104
-0.033931 0.046656 -0.017477 34 89 90
0.071709 -0.014076 -0.039377 105 106 103
-0.004446 0.019733 0.000823 20 65 70
0.040188 0.010589 -0.073877 172 173 170
0.047744 0.009028 -0.076377 105 105 117
0.047129 -0.014152 -0.015577 60 71 69
0.052926 -0.016604 -0.022777 97 106 105
0.037668 0.004938 -0.062377 176 173 170
0.004607 -0.002971 0.037523 81 85 84
-0.048101 -0.034216 0.066423 62 66 65
-0.004335 -0.034300 0.031123 95 104 103
-0.036647 0.046800 -0.018877 31 92 90
-0.001202 -0.034344 0.027023 97 102 105
0.053686 0.000244 -0.050577 173 171 171
-0.033073 0.038686 0.003423 26 86 88
-0.057025 0.029202 0.023523 28 85 88
-0.011971 0.015178 0.006623 18 66 68
0.009619 0.027513 -0.037777 35 90 98
-0.024513 -0.046376 0.041423 95 102 98
-0.128599 -0.077703 0.125323 57 57 51
0.044344 0.001419 -0.054377 173 170 167
-0.076133 -0.036941 0.093023 71 76 72
0.045907 -0.012365 -0.010577 55 64 63
-0.047751 -0.014328 0.045623 34 86 88
-0.021524 -0.008218 0.058123 69 78 76
0.002550 0.003960 0.010323 42 93 100
-0.006673 0.034384 -0.053777 34 96 98
-0.098638 -0.015974 0.065423 1 42 39
-0.092635 -0.052782 0.110023 77 82 78
0.065324 -0.005825 -0.028477 89 98 97
0.064287 -0.011587 -0.029777 93 100 96
-0.040339 -0.032227 0.065423 90 97 93
0.007600 -0.010990 0.030723 93 97 96
0.053723 -0.014259 -0.021877 70 80 75
0.060288 -0.012267 -0.027577 90 97 93
-0.020306 0.004438 0.012223 25 73 77
-0.020855 -0.021835 0.051723 88 94 93
0.013376 -0.020157 0.022323 96 102 102
0.026552 0.011053 -0.076677 176 172 172
0.007973 0.030475 -0.044477 33 87 93
-0.033901 0.043360 -0.010777 30 90 90
-0.043689 0.043190 -0.011577 26 88 88
0.033180 0.007542 -0.068277 177 173 173
0.042100 0.005487 -0.063077 175 173 173
-0.011333 0.014879 0.005923 16 64 66
-0.026935 0.039778 0.000323 25 87 89
0.023072 -0.004663 0.018723 94 98 98
0.049340 -0.007216 -0.014077 94 102 104
0.047624 -0.003127 -0.009677 96 101 104
-0.011824 0.023020 0.005723 17 65 67
-0.040051 0.033983 0.017123 28 85 88
0.072363 -0.014409 -0.039777 103 111 104
0.045679 -0.029166 -0.011877 100 106 105
0.030809 0.021917 -0.076977 92 98 97
0.056688 0.000902 -0.064777 111 107 107
-0.046072 0.032493 0.021423 23 80 81
0.045916 0.012386 -0.077077 143 147 147
-0.019391 0.039823 0.002623 27 87 87
-0.057664 0.028376 0.026023 25 80 83
-0.010059 0.017175 0.004823 20 65 68
0.009326 0.000235 0.033823 77 83 83
-0.016434 0.001316 0.016123 44 97 105
-0.056388 -0.025831 0.080423 68 78 73
-0.044378 0.007022 0.028623 14 58 59
-0.129049 -0.066961 0.144523 64 69 65
-0.021224 -0.026245 0.049723 90 99 98
-0.009933 0.028425 0.004323 17 62 65
0.014258 0.011178 -0.003977 37 92 100
-0.015567 0.024271 0.008023 18 66 68
-0.017014 0.040958 0.002923 29 86 89
-0.062610 0.003151 0.040623 13 58 61
0.050912 -0.015341 -0.020977 73 83 78
-0.050278 -0.039237 0.067523 81 92 90
-0.011978 -0.034885 0.038423 96 102 101
0.023391 0.018918 -0.077177 33 36 39
0.031421 -0.003184 0.013123 95 101 101
-0.068608 -0.001016 0.045423 14 59 62
-0.017385 -0.036741 0.040423 93 102 100
-0.002263 -0.006637 0.040923 81 87 87
-0.015738 -0.038295 0.039823 94 103 102
0.063899 -0.016632 -0.032577 99 105 104
0.038325 0.007754 -0.068177 178 174 174
-0.077151 -0.050159 0.092223 84 88 87
-0.024473 -0.033186 0.049023 91 101 96
0.035014 -0.026051 -0.000677 88 89 86
0.065194 -0.017435 -0.034477 101 106 102
0.037604 -0.002902 0.007723 95 101 101
0.073752 -0.014521 -0.041877 99 107 100
0.065100 -0.019825 -0.035777 104 109 105
0.073259 -0.012601 -0.040477 99 106 102
-0.057155 -0.029697 0.079423 75 82 78
0.002046 -0.030786 0.025723 94 103 102
-0.098908 -0.038597 0.119823 58 63 59
-0.072699 -0.046341 0.089523 81 88 84
-0.047156 0.021507 0.031423 10 55 58
-0.006126 0.031017 0.001723 12 57 60
0.008087 -0.024353 0.025223 94 103 102
-0.043487 -0.028315 0.067923 96 97 94
-0.022841 0.040048 0.000023 27 87 89
0.034531 0.009462 -0.072077 177 173 173
0.039437 0.011113 -0.075077 175 173 173
-0.020500 -0.010222 0.056523 77 81 80
-0.134156 -0.058926 0.130223 61 62 54
0.001347 0.034356 -0.053477 30 87 90
0.028913 -0.033045 0.003023 106 110 110
-0.033385 0.041567 -0.005677 33 90 91
0.025467 -0.020573 0.010423 97 102 105
-0.041031 0.026844 0.028323 12 56 57
-0.024153 -0.020323 0.055823 85 91 91
0.029623 0.010550 -0.075077 175 171 171
-0.039052 0.044069 -0.012477 29 89 89
0.054509 -0.023870 -0.028177 102 107 110
0.048962 0.007687 -0.066877 169 170 167
-0.035068 0.012234 0.025123 2 36 39
0.039671 -0.018741 -0.001077 100 106 106
-0.095256 -0.025628 0.066023 23 74 74
-0.077142 -0.035446 0.097623 72 73 70
0.001892 -0.038228 0.021423 74 79 75
-0.103447 -0.058318 0.114623 74 80 73
0.006188 -0.031667 0.021323 96 102 102
-0.091294 -0.023715 0.061623 17 72 73
0.003242 -0.002140 0.038523 80 84 84
0.051030 0.007505 -0.066277 151 151 152
0.113225 0.012653 0.013323 107 110 113
-0.022002 0.019249 0.014223 18 63 68
-0.013934 0.039736 0.007123 26 76 80
-0.024832 0.019037 0.015423 20 65 70
-0.003246 0.031400 -0.047477 36 93 94
-0.021701 -0.022659 0.052123 88 94 94
0.034613 0.007053 -0.066877 176 174 174
0.042305 0.011619 -0.075877 172 172 172
-0.062318 0.027029 0.025323 27 87 89
0.003822 0.020788 -0.005577 19 62 65
0.021970 0.015981 -0.077977 98 103 106
0.016293 -0.035363 0.012123 103 109 108
-0.094496 -0.008439 0.062723 13 57 58
0.025883 -0.017216 0.011423 97 102 105
-0.035598 -0.035690 0.060623 90 99 97
0.052949 0.004671 -0.065177 139 141 146
-0.014058 -0.027800 0.043823 89 100 99
-0.027277 0.040189 -0.001777 24 79 82
-0.042210 -0.040619 0.062323 95 100 96
0.067427 -0.003912 -0.030177 164 163 160
-0.128386 -0.045091 0.123823 40 45 41
0.057859 0.001876 -0.053977 167 168 165
-0.072061 0.006231 0.047523 12 58 59
-0.016694 0.034913 0.010623 11 56 59
0.009543 0.011840 -0.004377 35 88 96
0.024304 -0.000555 0.019923 90 96 96
0.045993 -0.021746 -0.018277 62 68 68
0.062921 -0.010317 -0.028577 67 76 74
0.011714 0.033984 -0.051077 16 64 68
-0.026738 -0.027711 0.054123 89 98 96
0.065549 -0.009738 -0.031077 69 76 72
0.015481 0.028825 -0.040377 28 84 90
0.004429 -0.033335 0.022423 96 102 102
-0.027704 0.044617 -0.011977 34 89 90
-0.067812 0.008923 0.044623 14 58 59
-0.001574 -0.002872 0.041823 75 81 81
-0.015544 -0.047418 0.037023 101 106 102
-0.140013 -0.064652 0.144523 54 59 46
-0.006080 0.007282 0.005123 40 96 102
0.032959 0.010709 -0.074777 176 173 170
0.046748 -0.020026 -0.018177 64 74 69
0.038499 0.003784 -0.060077 176 173 170
0.029013 0.010076 -0.074177 176 172 172
-0.039634 0.038845 0.001123 30 87 88
-0.020591 0.009580 0.012823 17 65 69
0.058450 -0.010652 -0.024777 91 100 98
-0.047411 0.029889 0.025523 30 87 88
0.046565 -0.026039 -0.021577 70 76 75
0.042950 0.012342 -0.077377 175 173 173
0.004359 0.032128 -0.048277 28 85 88
0.002893 0.015996 -0.004377 21 65 73
0.042369 -0.005814 0.002023 97 105 107
0.072738 -0.014098 -0.040577 104 110 103
0.022126 0.025368 -0.073977 102 108 108
0.034060 0.008520 -0.070177 175 173 173
0.027301 -0.030738 0.004323 105 109 109
-0.039002 0.046693 -0.018577 32 89 85
-0.000044 0.021087 -0.002377 16 61 64
0.061258 -0.021888 -0.032877 100 109 107
-0.066884 0.026305 0.027323 26 83 84
-0.077134 -0.041792 0.094523 74 81 77
0.026535 -0.011854 0.013323 98 102 102
0.008322 0.031214 -0.046177 27 81 87
0.039336 0.011865 -0.076677 173 171 171
-0.038350 0.036424 0.008823 27 87 89
0.045232 0.003183 -0.057877 173 172 169
0.014125 0.025628 -0.033977 36 94 101
0.033138 -0.003534 0.011023 96 101 104
0.001056 0.011697 -0.002377 29 79 88
-0.080624 -0.004471 0.052123 11 57 58
0.047363 0.009187 -0.077677 93 88 104
-0.074238 -0.034286 0.093623 73 74 71
-0.044958 0.040854 -0.005277 29 89 89
0.033230 -0.014581 0.006323 98 104 104
0.064686 -0.006076 -0.028177 90 96 95
0.044474 0.012054 -0.076477 164 163 160
0.078436 0.035479 -0.019777 173 173 167
-0.012191 -0.042566 0.030123 62 69 65
0.041969 -0.029648 -0.007777 104 110 110
0.069884 -0.014931 -0.037577 104 110 103
0.038291 0.007873 -0.068377 178 174 174
0.032403 0.011157 -0.075977 175 172 169
0.008381 -0.039211 0.017423 102 108 108
0.017304 -0.028829 0.013523 96 104 106
0.020571 -0.013195 0.017723 96 102 102
-0.127877 -0.079469 0.135323 61 61 55
-0.025145 0.044928 -0.011977 30 87 88
-0.025759 0.011328 0.016123 22 65 68
0.043133 0.011681 -0.075877 174 173 170
-0.066486 -0.065171 0.079923 93 96 88
-0.056762 -0.015737 0.047723 29 81 83
0.050793 -0.020670 -0.022477 101 105 104
-0.033374 0.042289 -0.006877 31 88 89
0.015225 -0.015432 0.022323 96 102 102
-0.045948 -0.051431 0.059623 87 88 85
0.038655 -0.002523 0.006723 96 102 102
-0.024160 -0.033238 0.049223 91 100 98
-0.080726 -0.003172 0.054623 12 57 55
-0.041681 0.041319 -0.005977 30 87 88
-0.034204 0.043179 -0.008777 33 90 91
0.054049 -0.009215 -0.019677 95 101 101
-0.072490 -0.050816 0.088723 82 88 87
0.025515 -0.014621 0.011723 97 103 103
0.050599 0.034643 -0.050877 93 100 96
0.054777 -0.010226 -0.020677 93 102 100
-0.092331 0.014081 0.057523 22 79 80
-0.134599 -0.050013 0.140323 48 51 43
0.035013 -0.029432 -0.002077 107 111 110
-0.065938 0.023867 0.032123 29 86 87
-0.031099 -0.032045 0.056923 89 98 96
0.038598 -0.021140 -0.001377 99 104 107
-0.023327 0.014805 0.014423 19 64 67
-0.021454 0.014473 0.013123 17 62 65
0.011420 0.033886 -0.051077 19 67 71
0.031402 0.007111 -0.067777 175 174 171
0.043782 -0.007672 -0.000177 99 105 105
-0.079306 -0.031599 0.100623 59 67 60
0.036441 0.021402 -0.028977 163 156 157
-0.037038 0.034173 0.015423 26 88 88
-0.093310 0.003480 0.062523 11 61 58
0.047913 0.008496 -0.075977 91 90 105
-0.003860 -0.030670 0.032223 94 103 102
-0.058016 0.002792 0.038423 13 56 59
-0.034505 -0.050977 0.050523 93 102 100
-0.052204 0.018758 0.035123 12 55 58
0.065655 -0.006731 -0.029877 88 97 95
0.047633 -0.022716 -0.020777 96 102 102
-0.051105 0.013470 0.034223 9 52 55
-0.010267 -0.007004 0.048923 78 84 84
-0.035089 0.004348 0.023323 11 55 56
0.005641 0.033918 -0.052077 30 82 86
-0.043729 -0.014424 0.071023 34 56 61
-0.015609 -0.011925 0.051023 84 88 87
-0.032449 -0.003900 0.025123 26 83 86
0.007276 -0.033484 0.020623 95 104 103
-0.037518 -0.009268 0.035123 28 85 88
0.141633 0.037173 0.226823 175 172 169
-0.095171 -0.015339 0.061923 15 58 56
0.043841 -0.007113 0.000123 100 104 104
0.010156 -0.004537 0.031523 86 92 92
0.016182 0.030062 -0.042577 28 80 84
-0.124591 -0.044129 0.147623 43 68 65
0.043478 0.009233 -0.070877 175 173 173
-0.062321 -0.051651 0.076623 88 95 91
-0.008644 0.034831 -0.054677 31 91 91
0.031521 0.009744 -0.073177 176 172 172
0.042092 0.002643 -0.057077 175 172 169
0.049324 -0.025503 -0.023177 100 106 106
0.031436 0.010675 -0.075077 177 174 171
-0.042156 0.037247 0.006623 31 86 89
0.039146 -0.006142 0.005123 97 103 103
0.037033 -0.023646 -0.000977 97 103 103
-0.071058 -0.020470 0.055223 27 79 83
0.018308 -0.031106 0.011323 70 76 76
-0.137382 -0.078207 0.133323 63 64 56
-0.000046 0.032868 -0.050177 36 93 96
0.063459 -0.016886 -0.031577 98 105 101
0.066364 -0.005764 -0.029877 87 96 94
0.057647 0.001803 -0.053777 167 168 165
0.066806 -0.017899 -0.036477 106 112 105
-0.014414 -0.023885 0.044923 90 99 98
0.021890 0.018874 -0.076677 98 104 104
0.039482 -0.009790 0.003223 99 105 105
0.059975 -0.008587 -0.024877 92 99 95
-0.006178 -0.043979 0.027523 101 105 104
0.014874 -0.036909 0.011923 104 108 108
-0.016433 -0.038334 0.040323 93 102 101
0.037887 0.008915 -0.070577 177 174 171
0.031910 0.003409 0.015523 93 97 96
0.004631 -0.027631 0.026123 95 104 103
-0.006881 -0.008760 0.044123 84 90 89
-0.017391 -0.025655 0.045923 92 98 98
-0.028984 -0.002884 0.026623 5 48 53
0.023136 0.022496 -0.075377 40 46 46
-0.038797 0.027093 0.028623 4 43 45
-0.003543 -0.030068 0.031623 97 103 103
-0.004494 -0.015035 0.040323 90 96 96
0.033076 0.011872 -0.077277 173 171 171
0.048316 -0.018304 -0.018577 96 102 101
0.005813 -0.019140 0.029023 93 102 101
-0.126427 -0.056086 0.109323 62 63 55
0.057007 0.001385 -0.064877 99 97 97
0.025614 0.023857 -0.076977 102 106 105
0.048264 -0.017161 -0.017977 81 87 86
-0.031854 0.016412 0.022423 24 61 63
0.043866 0.011271 -0.074977 169 169 169
0.043291 -0.017835 -0.004377 100 106 106
0.023966 0.022177 -0.076277 100 104 103
0.062303 -0.018680 -0.031877 100 106 105
-0.004561 -0.029036 0.033123 95 101 100
-0.091837 -0.005771 0.061023 14 59 57
0.072102 -0.018189 -0.042177 104 113 104
0.002642 0.004861 0.009023 40 94 100
-0.041578 0.031765 0.026123 4 49 52
0.012172 -0.034815 0.017023 74 78 77
-0.131284 -0.073174 0.141123 40 43 35
-0.136018 -0.060089 0.156723 40 40 34
-0.000570 0.009299 0.001023 40 93 101
0.046191 0.018287 -0.073777 169 170 167
-0.038045 0.045015 -0.013577 33 90 91
0.001403 0.006144 0.006823 38 93 101
0.014685 0.036616 -0.047577 2 29 28
0.037125 0.011198 -0.075477 174 173 170
0.127227 0.063963 0.226823 173 170 167
0.049823 0.002022 -0.055077 174 173 170
0.003424 -0.013229 0.033923 96 96 96
-0.008824 -0.031515 0.035723 94 103 102
0.025836 0.010393 -0.075377 177 173 173
0.045531 -0.026594 -0.018377 80 84 84
-0.042224 0.037531 0.003423 29 89 91
-0.135879 -0.051191 0.143723 47 50 42
-0.027312 -0.027792 0.053923 89 98 96
-0.078648 0.011231 0.053223 6 51 49
0.016872 0.032315 -0.046177 0 36 40
-0.031583 0.040566 -0.003877 32 87 90
0.002723 0.033202 -0.051077 33 88 91
0.024020 0.019710 -0.077477 98 102 102
-0.037467 0.002043 0.023823 12 57 60
-0.033776 -0.040978 0.058123 93 102 101
-0.129291 -0.052713 0.115323 66 66 55
0.023280 0.017845 -0.077977 95 100 103
0.054124 0.003971 -0.058677 152 151 148
-0.001857 0.026968 -0.000877 20 61 64
0.007443 0.033530 -0.050977 30 85 88
-0.054123 0.041317 -0.000077 25 88 86
-0.035995 0.027251 0.027223 0 20 20
0.048963 0.009403 -0.070777 150 154 154
-0.036376 0.021992 0.027923 0 25 21
0.045829 -0.011306 -0.004177 87 98 97
0.044396 -0.010461 -0.000977 99 105 105
0.009819 -0.037240 0.018023 102 108 108
0.008636 -0.021351 0.024923 94 103 102
-0.016776 0.021926 0.009623 16 64 66
0.057103 -0.016549 -0.026277 98 104 103
0.041127 0.012609 -0.077877 169 169 169
-0.083507 -0.012906 0.054623 13 60 58
-0.015775 -0.043961 0.037523 94 103 101
-0.030882 -0.034303 0.052823 90 99 97
0.008243 0.035212 -0.053577 24 73 80
0.034725 0.007053 -0.066877 176 174 174
0.037073 0.007202 -0.066877 175 173 173
0.029521 0.011798 -0.077677 173 169 169
-0.100754 0.001694 0.069723 11 57 58
0.014315 -0.031901 0.015623 96 104 106
-0.000777 0.014415 -0.002077 19 64 67
0.030567 0.011776 -0.077477 175 171 171
0.053487 0.002627 -0.055877 162 161 158
0.023384 0.018571 -0.077277 35 38 41
0.062921 -0.010252 -0.028577 67 76 74
0.034552 -0.007787 0.008423 96 102 102
-0.092678 -0.045803 0.104223 74 75 72
-0.021506 -0.037352 0.046523 91 100 98
0.052362 0.003952 -0.067977 136 137 145
0.011435 -0.009400 0.028623 91 97 97
0.037732 -0.020933 -0.000877 99 104 107
0.044081 0.003027 -0.057677 174 173 170
0.011432 0.006613 0.032123 54 80 86
0.017791 -0.037842 0.009123 100 106 106
-0.004763 0.032480 -0.049077 33 95 97
-0.059161 0.009544 0.039323 12 57 60
0.023074 0.022279 -0.075377 46 51 54
-0.004144 0.033162 -0.050477 29 91 93
-0.036108 -0.006088 0.029723 28 83 84
0.022384 0.024211 -0.074777 102 107 110
0.022730 0.026842 -0.073377 68 72 71
-0.024227 0.043239 -0.007777 29 89 91
0.055437 -0.018162 -0.025177 100 104 103
-0.004464 0.032045 -0.048377 32 94 96
0.026274 0.004845 0.021223 85 91 91
-0.026664 0.045438 -0.014577 29 89 91
-0.029247 0.018985 0.019223 17 62 65
-0.038089 0.003185 0.023823 9 55 56
0.014792 -0.038412 0.011623 102 108 107
