ply
format ascii 1.0
element vertex 1218
property float x
property float y
property float z
property uchar blue
property uchar green
property uchar red
end_header
-0.034154 -0.054724 0.037100 159 156 165
0.234857 -0.186644 0.402500 178 172 160
-0.093374 -0.018097 -0.148800 96 102 102
0.217688 -0.227478 0.402500 102 99 96
-0.043730 -0.002583 0.045900 133 151 181
-0.028634 -0.010459 0.037500 129 120 159
-0.028569 0.055513 0.040700 190 190 179
-0.095407 -0.016432 -0.151200 100 100 94
-0.087066 -0.008979 -0.158400 5 38 59
-0.034772 -0.001586 0.046800 83 89 89
-0.000316 0.055237 0.023000 160 162 156
-0.040632 0.088784 0.017500 72 79 75
-0.075262 0.022856 -0.158200 78 70 36
-0.034215 0.090694 0.007900 78 85 81
-0.007945 -0.044211 0.021800 197 204 200
0.020169 -0.053039 -0.019300 188 188 188
0.075098 0.007569 0.014800 142 153 157
-0.068056 -0.022152 -0.156600 192 191 183
-0.070830 -0.013566 -0.151900 25 125 167
0.035905 0.017641 -0.029400 88 102 139
0.009657 -0.062744 0.006100 162 148 190
0.012527 -0.073688 0.011100 165 179 196
0.010043 0.044507 -0.005900 138 140 134
-0.085879 0.004542 -0.133400 111 116 112
0.011416 -0.043384 -0.021700 233 227 220
-0.086286 -0.022700 -0.151300 24 32 52
-0.035198 0.020335 0.083400 104 112 114
-0.068180 -0.014760 -0.150400 46 135 171
0.010112 0.071932 0.000600 121 124 116
0.061708 0.039605 0.059400 106 117 121
-0.043904 0.087188 0.024200 65 70 66
-0.069842 -0.003068 -0.149800 33 131 173
-0.060183 0.092466 -0.001400 85 92 88
-0.001461 -0.032415 0.011900 94 132 186
-0.093261 0.003371 -0.143200 108 110 104
0.097303 0.090113 0.014100 89 96 92
0.023961 -0.082363 0.021000 150 156 217
-0.014643 0.069062 0.032200 112 117 120
-0.021123 -0.081203 0.041600 92 130 175
-0.074063 -0.010103 -0.158000 0 27 121
0.066199 0.040097 0.061600 111 123 125
0.148270 -0.008429 0.183800 100 107 111
-0.074109 0.019325 -0.154800 167 158 145
-0.075597 0.024631 -0.158600 127 124 107
-0.011887 0.025474 0.020200 162 158 182
0.147601 0.084054 0.064300 96 107 99
-0.039234 -0.013086 0.042100 182 171 199
-0.092083 0.004558 -0.140800 117 117 111
-0.066942 -0.021993 -0.149300 74 82 84
-0.062477 -0.015128 -0.147400 65 139 171
-0.083210 0.019631 -0.169400 143 140 173
0.241854 -0.058483 0.221400 153 156 148
0.060045 0.079719 -0.000400 81 95 105
0.026424 -0.070606 -0.000700 146 166 184
-0.085382 0.001639 -0.133600 109 115 114
-0.089355 0.007542 -0.137300 156 156 150
0.364322 -0.193140 0.402500 212 203 192
0.018805 0.049583 -0.003600 146 155 153
0.023831 0.053073 -0.019000 155 164 162
-0.070573 -0.012520 -0.151100 28 129 168
-0.000118 0.029583 0.014100 94 81 157
-0.090984 -0.006822 -0.154400 16 39 50
0.119541 0.094172 0.011100 85 92 83
0.237872 0.054255 0.203000 102 111 110
0.039611 0.083611 -0.020100 51 91 43
-0.083230 0.025834 -0.170500 79 68 57
0.212933 0.044394 0.183800 75 87 95
-0.084735 0.047913 0.133600 61 66 62
0.028167 0.024084 -0.031100 149 155 148
-0.075632 0.026294 -0.158800 121 114 89
-0.004412 -0.048245 0.010400 203 203 203
-0.076197 -0.002741 -0.145100 0 38 62
-0.083329 0.024298 -0.170400 199 182 179
0.244138 -0.219126 0.402500 125 119 112
0.230216 -0.073553 0.247200 110 115 118
0.007924 -0.010393 0.005400 151 161 156
0.034914 -0.006795 -0.037900 48 48 126
-0.081150 -0.000605 -0.132200 81 90 94
-0.091272 -0.021167 -0.146000 104 109 112
-0.068425 0.073711 0.062600 14 18 17
-0.089670 0.005483 -0.138000 156 156 150
-0.098438 0.004360 -0.148900 111 112 104
0.045995 0.043383 0.026700 79 90 94
-0.075231 -0.011034 -0.158900 38 143 184
0.000406 -0.014108 0.011500 85 92 101
0.168377 0.003103 0.156600 22 27 23
-0.078100 -0.024192 -0.140300 106 107 115
-0.015292 0.049793 0.033100 111 118 114
0.036756 -0.039213 0.008200 111 116 119
-0.003217 0.037201 0.021400 65 65 77
-0.041328 -0.053817 0.039300 177 179 184
-0.065204 -0.025888 0.071500 96 100 105
-0.072027 0.027948 -0.155900 144 137 112
-0.077223 0.019292 -0.164300 165 129 85
-0.093333 0.009408 -0.141600 115 113 107
0.074103 -0.048684 0.010800 116 123 132
-0.084640 0.088033 0.003000 92 98 97
-0.076326 0.022125 -0.163500 187 128 2
0.010395 0.048385 -0.004600 122 126 125
0.023559 0.076327 0.023400 84 95 87
-0.093654 -0.044615 0.087200 133 141 161
0.000313 -0.001358 0.011900 61 38 152
-0.091241 0.004173 -0.140200 119 119 113
-0.092883 0.002217 -0.142400 105 110 106
0.049023 0.035897 0.000600 65 55 65
-0.066486 0.067040 0.066500 59 68 72
0.174131 -0.072545 0.212600 141 147 146
-0.053947 -0.079302 0.054300 159 214 236
0.289149 -0.194996 0.402500 226 211 196
0.072600 0.048107 0.007900 114 115 123
0.157846 -0.004115 0.148300 66 73 77
-0.095534 -0.204741 0.402500 234 227 229
-0.018710 -0.050776 0.021400 179 180 188
-0.125033 -0.004319 0.131100 76 80 79
0.032818 0.045032 -0.015800 115 90 120
0.067029 0.025025 0.015200 86 93 102
-0.022080 -0.036345 0.025900 112 135 193
-0.075807 -0.017106 -0.162000 165 163 157
0.026953 -0.004990 -0.033800 203 208 204
-0.084903 0.022287 -0.170400 169 150 74
0.005622 0.021233 0.012600 87 72 167
0.047996 0.074982 -0.001000 31 68 22
0.168247 0.040463 0.152900 56 65 90
-0.062242 0.015578 -0.144200 177 173 161
-0.082397 0.015179 -0.168300 42 43 158
0.093005 0.087956 0.022600 93 99 92
0.372211 -0.184788 0.402500 209 202 192
0.037241 0.075621 0.010000 10 35 5
0.181456 0.028980 0.157600 70 86 83
-0.038613 -0.029315 0.042600 160 172 180
-0.012808 0.025028 0.021400 145 142 175
-0.072893 0.017089 -0.151900 157 152 135
-0.067384 -0.022195 -0.156000 191 190 182
0.185828 -0.026778 0.173300 61 61 78
-0.000380 0.066370 0.013700 118 133 113
-0.065322 0.010065 -0.143100 56 45 18
-0.079969 0.019209 -0.166700 192 137 0
-0.081194 -0.075475 0.085900 184 252 255
-0.055389 0.069779 0.053200 149 151 140
-0.093620 -0.058435 0.097600 107 57 41
-0.016096 0.011903 0.031400 173 182 180
-0.076868 -0.011515 -0.160100 34 146 186
-0.091672 -0.020502 -0.159600 135 128 130
-0.050610 0.049210 0.053200 169 169 163
-0.051415 0.082742 0.043500 59 64 60
0.015543 0.025348 -0.008400 97 100 103
0.007593 -0.043700 0.002700 130 146 149
0.030515 -0.042368 -0.040600 205 200 195
-0.000140 0.059187 0.017500 176 175 167
-0.064526 -0.025572 -0.153800 140 152 176
-0.021022 -0.078787 0.038900 141 158 186
0.022788 -0.050066 -0.035300 126 107 188
0.360610 -0.218662 0.402500 113 107 95
-0.082378 0.014129 -0.168600 31 41 150
-0.044021 0.028621 0.050700 57 68 113
-0.080458 -0.001310 -0.160100 16 102 139
-0.069654 0.016028 -0.149600 57 52 27
-0.004288 0.052067 0.028800 107 113 113
0.016348 0.086088 -0.004600 166 172 165
0.020001 -0.053214 -0.019800 187 187 187
-0.073135 0.000561 0.083400 153 160 156
-0.037316 0.063628 0.048800 99 105 104
-0.013141 0.078395 0.015600 185 187 181
-0.074950 -0.009959 -0.158500 6 115 159
0.024386 0.023176 -0.025500 144 149 145
-0.022279 0.085636 0.027500 32 40 33
0.195022 0.039841 0.183800 42 51 62
0.150407 0.076625 0.099700 107 117 112
0.009261 0.023621 -0.012900 165 170 166
-0.084504 0.013380 -0.165400 30 33 141
-0.063135 -0.002907 -0.145400 27 91 125
0.018042 -0.029088 -0.010800 126 129 132
-0.074163 0.021549 -0.156700 51 77 165
0.386132 -0.209845 0.402500 206 197 186
0.181137 0.000784 0.165300 14 20 20
0.031948 0.047829 -0.004900 78 87 91
0.019957 -0.045303 -0.013800 178 180 185
-0.085267 0.017733 -0.170600 104 94 140
0.036233 -0.009601 -0.038100 42 46 126
0.076400 0.091939 0.010800 81 87 80
-0.043144 -0.022425 0.052700 89 91 101
-0.061649 0.023746 -0.142400 179 175 163
-0.080211 -0.011381 -0.163100 33 136 175
-0.059676 0.054042 0.064300 37 35 66
0.252484 0.052031 0.203000 102 110 103
0.014987 -0.017671 -0.010800 139 139 139
-0.094105 0.002926 -0.143800 105 107 101
0.001351 -0.009736 0.012600 102 98 141
-0.058997 -0.060027 0.055800 154 172 184
-0.188305 -0.182099 0.398100 192 192 181
-0.067194 -0.013659 -0.149800 36 134 176
0.068691 -0.046708 0.004000 114 125 104
0.070991 0.040502 0.066500 123 134 133
-0.085196 0.013238 -0.165700 20 26 147
0.009633 0.089111 -0.006200 166 172 165
-0.075626 -0.014154 -0.148000 1 55 86
-0.076850 -0.005136 -0.144800 10 34 68
-0.084496 0.021949 -0.170500 165 144 73
0.313376 -0.080846 0.339500 151 160 159
-0.082300 -0.088355 0.102400 226 255 252
0.043202 0.083763 -0.019300 126 142 140
0.074075 0.092676 -0.000000 79 86 82
-0.074895 0.018828 -0.156600 163 155 134
-0.076697 -0.016769 -0.163300 157 152 147
-0.075160 0.025815 -0.158500 150 138 116
-0.074091 -0.022733 -0.153600 23 36 76
-0.070314 -0.014712 -0.151900 67 137 168
0.176147 -0.040854 0.149200 52 53 142
0.056430 0.037032 -0.002000 65 39 51
-0.095365 -0.004328 0.096300 125 121 132
0.068181 -0.012412 0.002000 174 176 170
0.049338 0.002722 0.013300 45 49 48
-0.067574 0.066170 0.066500 39 39 40
0.031094 -0.030227 0.004000 116 121 124
-0.094262 0.086411 0.014800 91 95 94
-0.066546 0.013144 -0.148600 189 185 178
-0.059183 0.019306 0.095000 19 23 28
-0.081219 -0.024561 -0.136600 86 93 102
0.163391 -0.036296 0.137800 168 178 173
-0.089885 0.010697 -0.138600 149 149 143
-0.036507 0.056595 0.052700 91 87 87
-0.099199 0.004284 -0.150000 114 116 105
-0.076385 0.023265 -0.163600 192 133 7
-0.039597 -0.045385 0.043000 183 191 252
0.189955 -0.033696 0.171300 146 159 157
-0.084406 -0.019898 -0.166300 21 31 60
-0.039073 -0.059192 0.041200 175 187 189
-0.081903 0.021531 -0.169000 165 162 145
-0.076454 0.027867 -0.163800 169 159 143
-0.110669 0.001717 0.147400 52 61 59
0.092361 0.090425 0.011500 91 96 92
-0.064012 -0.006703 -0.146900 11 130 177
0.027354 0.057286 -0.008100 80 84 73
0.046963 -0.046553 -0.024400 100 106 147
-0.089265 0.002986 -0.138000 152 152 146
-0.079212 0.015773 -0.166000 83 97 153
-0.063984 -0.022139 -0.153700 85 96 143
-0.082719 0.010257 -0.170800 70 68 69
0.256667 -0.213093 0.402500 110 99 93
-0.064117 -0.007544 -0.147000 48 146 188
-0.064356 -0.007069 -0.147400 37 144 185
-0.065444 -0.021787 -0.155100 76 90 141
-0.075459 0.013225 -0.157000 143 138 128
-0.042316 -0.030306 0.039300 193 184 185
-0.078814 0.025475 -0.167100 159 167 194
-0.061480 0.021990 -0.142200 138 136 122
-0.127454 0.014803 0.116900 47 50 66
-0.016045 -0.008443 0.027500 166 153 191
0.026335 -0.041707 -0.035000 183 182 186
0.167186 0.047297 0.166300 22 30 32
-0.090161 0.001987 -0.139200 147 150 142
0.026423 -0.042734 -0.035500 175 166 167
-0.077866 -0.001229 -0.158000 42 146 183
-0.026892 -0.080540 0.044000 152 165 196
0.227011 0.056263 0.193700 97 109 111
-0.083142 -0.058713 0.089100 133 78 15
0.031090 -0.037695 0.000600 112 117 120
0.026786 0.010724 -0.025500 77 56 163
-0.043048 0.041314 0.056300 80 79 83
0.006426 0.039081 -0.005900 164 164 164
0.021666 0.057957 -0.004000 57 68 66
0.014964 0.023050 -0.015600 176 178 172
-0.065956 0.083583 0.041600 67 74 70
-0.090886 -0.023280 -0.147300 98 101 109
-0.078478 0.000169 -0.158600 29 146 185
0.243674 -0.200101 0.402500 199 191 184
-0.099331 0.007395 -0.148900 118 120 109
0.038126 -0.072945 0.001300 205 201 202
-0.079912 -0.007844 -0.162200 24 131 172
-0.018479 -0.010420 0.029200 142 127 190
-0.019239 -0.005476 0.029200 55 34 141
-0.072893 0.020696 0.073800 152 152 153
-0.078060 -0.020524 -0.135200 98 89 71
-0.087140 0.010921 -0.135100 135 136 128
0.285437 -0.198709 0.402500 229 212 197
-0.075815 0.083681 0.032200 77 82 78
0.041820 -0.218662 0.402500 178 176 182
-0.037510 -0.053638 0.036600 191 195 194
-0.069251 -0.002573 -0.149300 23 110 151
-0.071405 0.029977 -0.155400 72 64 28
0.240431 0.062786 0.189300 89 96 92
0.129026 0.082218 0.058400 100 110 105
0.061776 -0.034047 0.042100 77 82 98
0.047976 0.070936 0.033500 42 54 49
0.182560 0.038545 0.193700 27 34 38
-0.039431 0.014029 0.087200 67 76 80
-0.075807 -0.012951 -0.148000 0 36 69
0.096873 0.095848 0.006800 93 99 98
-0.011493 0.055439 0.035300 101 105 105
-0.074142 0.038897 -0.131500 189 187 181
-0.084165 0.015577 -0.170700 43 55 177
-0.065208 -0.022239 -0.154900 192 191 188
-0.108399 -0.005798 0.106700 162 166 165
0.059143 0.071461 0.009000 46 58 60
-0.096155 0.005472 -0.145400 105 107 101
-0.076150 0.020793 -0.160100 161 150 137
-0.054629 0.081160 0.058400 48 53 49
0.023839 -0.008158 -0.028600 193 191 197
0.039267 0.053390 -0.020900 172 176 175
-0.014041 -0.057327 0.021800 205 201 189
0.051570 0.050460 -0.014700 148 152 152
0.036049 0.046687 0.018700 79 89 91
-0.087193 0.001845 -0.164400 147 116 35
-0.065260 0.008380 0.097600 51 60 64
-0.077900 0.021903 -0.165100 156 103 42
0.117992 0.086175 0.044900 103 114 106
-0.073607 0.051351 0.077400 39 43 57
0.172878 0.031679 0.159500 5 13 15
-0.012992 -0.041370 0.021400 53 108 198
0.290077 -0.169939 0.402500 136 125 119
-0.037100 0.074478 0.044900 137 144 140
-0.013878 0.086069 0.024200 22 24 18
-0.020587 0.093183 0.001300 70 76 75
0.013430 -0.043640 -0.022600 173 172 169
-0.079369 0.025124 -0.167700 146 153 225
-0.063699 -0.022294 -0.153400 141 143 169
-0.077128 -0.065781 0.073800 131 158 170
-0.009632 -0.049748 0.018300 178 182 182
0.003191 0.003078 0.009700 161 167 167
0.170470 -0.067185 0.145700 169 174 170
0.045904 0.072759 0.020600 51 62 54
0.051554 0.008294 -0.014400 87 68 161
-0.063150 0.021942 -0.145300 148 144 132
0.261307 -0.207061 0.402500 191 185 171
-0.073025 -0.051392 0.075600 157 109 4
-0.031042 0.089044 0.012600 63 68 64
-0.081378 0.001540 -0.131700 86 92 92
-0.081995 0.023919 -0.169600 125 144 153
-0.084957 0.000415 -0.132800 100 112 114
0.182604 -0.010921 0.168300 37 47 54
-0.071779 -0.004712 0.073800 136 129 138
-0.091120 -0.003758 -0.153300 15 36 52
-0.067996 0.012277 -0.149900 146 144 120
-0.052050 0.060253 0.050300 125 146 148
-0.028711 -0.026319 0.046400 127 139 141
-0.094672 -0.016013 -0.149800 90 96 95
0.005486 0.083639 -0.001700 167 169 163
-0.080939 0.018254 -0.167000 179 130 1
-0.054276 0.084575 0.032600 71 76 72
-0.002745 -0.036681 0.033100 12 37 95
-0.037503 0.005101 0.044900 162 171 169
-0.016836 -0.034599 0.023000 91 119 168
-0.086938 -0.001654 -0.164600 155 142 109
-0.009516 -0.045662 0.017900 185 191 191
-0.035087 0.092021 0.002700 78 85 81
-0.074393 -0.025217 -0.154600 27 46 94
-0.077380 -0.000297 -0.157600 42 145 184
0.133646 0.076982 0.097000 97 107 102
-0.081409 -0.003352 -0.161300 21 132 169
0.335552 -0.167155 0.402500 215 211 204
-0.122307 -0.079513 0.115400 194 207 213
-0.044337 -0.063914 0.045900 134 141 171
0.030288 -0.049480 -0.039500 131 124 190
-0.071609 -0.034415 0.062100 144 141 161
0.014360 0.001785 -0.010200 100 105 121
-0.066384 0.017394 -0.148200 179 174 157
-0.074105 0.015022 -0.154100 138 139 154
0.192686 0.064060 0.152900 75 84 82
-0.097088 0.003596 -0.147600 100 103 95
0.380100 0.019385 0.402500 93 101 103
0.099963 0.089487 0.016400 99 107 100
0.109954 0.084491 0.048800 103 110 106
-0.066077 -0.008679 0.067000 119 139 173
-0.060364 0.025370 -0.140000 59 52 27
-0.071132 -0.012692 -0.151400 22 107 147
0.066173 -0.001800 0.036200 42 39 36
0.222328 -0.231191 0.402500 106 104 98
-0.032241 0.091073 0.002000 88 94 87
-0.081387 0.025944 -0.169400 67 68 183
0.001443 0.027599 0.012200 101 87 140
0.063990 0.069001 0.012200 38 69 47
0.026285 0.081766 -0.009300 137 145 133
-0.017147 0.086943 0.026300 28 33 29
-0.084698 -0.020320 -0.166800 13 27 64
0.042024 -0.033978 0.015200 116 122 122
-0.091483 -0.018827 -0.146700 69 69 70
0.047104 0.053777 -0.021200 185 189 188
-0.059582 0.010242 -0.142500 46 43 26
0.007899 -0.010384 -0.016700 207 204 201
0.023963 0.017586 -0.017300 42 32 126
-0.060608 -0.074782 0.060000 99 187 151
0.029351 0.085459 -0.011100 71 91 62
-0.071939 0.072900 0.063700 19 20 17
-0.058995 0.006122 0.087800 60 66 73
0.017226 -0.238151 0.402500 163 163 173
-0.003696 -0.007287 0.017900 165 154 187
-0.076860 0.024693 -0.164000 148 105 54
-0.095207 -0.006349 0.091700 133 134 167
0.129084 0.086117 0.055800 99 106 102
0.040779 0.018759 -0.024400 76 78 136
-0.074112 0.007302 0.107400 49 58 62
-0.081711 0.010332 -0.170900 186 184 172
0.168944 0.003670 0.156600 26 28 22
0.028419 -0.020272 -0.034800 58 56 133
-0.069701 0.017775 -0.149400 62 62 38
0.123063 0.076905 0.095600 109 116 112
0.035184 0.074609 -0.013800 20 67 6
0.028950 0.007045 -0.013500 58 43 124
0.043563 0.019641 -0.020900 132 133 175
0.030980 0.004741 -0.003000 58 53 105
-0.097472 0.010385 -0.146700 104 106 100
0.170470 -0.077659 0.145700 38 51 72
0.026404 0.048097 0.009700 94 103 102
-0.090131 -0.010034 -0.156000 6 30 38
-0.049732 0.005931 0.068100 169 171 176
0.071982 -0.217734 0.402500 169 167 167
-0.074756 -0.000875 -0.155700 48 138 172
-0.080972 0.086771 0.014800 84 88 87
-0.079735 0.016558 -0.166500 177 120 3
-0.067416 -0.029891 0.060000 138 113 88
-0.087455 -0.003692 -0.166200 40 70 114
-0.061782 -0.087417 0.068700 226 220 226
0.058246 0.046334 -0.010800 88 65 88
0.379636 0.018921 0.402500 89 97 99
-0.010999 0.079314 0.011100 165 171 164
-0.034360 0.059467 0.043500 116 117 114
0.282653 -0.188964 0.402500 222 208 196
0.026993 0.083914 -0.010500 147 152 132
-0.086164 0.013484 -0.166500 43 50 175
0.174021 0.015676 0.159500 19 24 27
0.009635 -0.044576 -0.006800 156 153 157
-0.082171 0.015541 -0.168300 131 121 183
-0.030441 0.069810 0.034400 71 83 85
0.051031 -0.043630 -0.017800 129 133 159
-0.105279 -0.192212 0.402500 243 232 233
-0.080817 -0.004891 -0.161500 18 32 129
0.224649 -0.233047 0.402500 108 105 102
0.192768 0.059413 0.155700 166 173 164
-0.036040 0.038816 0.042100 182 184 178
0.213048 -0.189428 0.402500 203 198 193
-0.024192 0.014781 0.044900 52 46 109
-0.068570 -0.023623 -0.156700 178 176 182
-0.069512 -0.022781 -0.156800 53 74 129
0.186095 0.069710 0.142100 88 98 93
0.006019 -0.000560 0.006100 42 34 109
-0.068934 -0.077293 0.071000 184 243 253
0.109982 0.081539 0.065400 107 116 114
-0.080568 0.089188 0.000600 99 103 102
0.029975 -0.010842 -0.034500 49 49 127
-0.094472 -0.014552 0.095000 153 156 172
-0.069379 -0.022585 -0.156900 55 76 131
-0.082589 0.025623 -0.169900 50 47 51
-0.091121 -0.021069 -0.159300 20 26 45
-0.076387 -0.004081 -0.158000 6 108 150
0.030922 0.041245 -0.015000 82 89 93
0.040366 0.045277 -0.026000 112 83 109
-0.089223 0.001098 -0.138100 144 148 147
0.326910 -0.009505 0.325600 128 151 148
0.115601 -0.228406 0.402500 79 79 73
0.040751 -0.008370 -0.032600 151 150 165
0.004133 0.080905 0.004700 120 124 123
0.004399 0.075691 0.005100 119 120 117
-0.076352 -0.012740 -0.160800 32 78 113
0.272613 -0.014097 0.258900 67 80 86
-0.073534 0.017886 -0.153400 104 94 78
0.009407 0.004461 0.005800 144 150 149
-0.083147 0.017166 -0.169100 47 47 146
-0.074841 -0.004597 -0.156600 23 125 167
-0.076565 0.014918 -0.164500 37 47 169
-0.039058 0.046202 0.051200 103 104 101
-0.043016 0.056251 0.049800 181 181 175
0.179333 0.077486 0.138700 93 103 98
0.105046 0.089477 0.023800 97 103 96
0.009420 -0.065016 0.008600 47 55 57
-0.085262 0.000620 -0.158000 90 104 107
-0.041625 -0.080909 0.054800 134 151 172
-0.070449 -0.004326 -0.150200 56 120 176
-0.089538 -0.008034 0.085900 182 183 191
-0.049569 -0.062708 0.053800 74 82 162
0.024761 -0.082043 0.020600 192 194 254
0.073357 -0.048623 0.009700 106 113 122
-0.026684 -0.047205 0.046400 21 40 95
0.039291 -0.037968 0.012200 112 117 120
0.063611 -0.001612 0.036600 32 30 30
-0.097753 0.087013 0.017100 84 91 87
-0.090561 0.003053 -0.139200 145 147 141
-0.089471 -0.018981 -0.143700 166 164 164
0.031395 0.052287 -0.015000 181 187 186
0.009549 0.045164 -0.005900 149 155 148
-0.056654 0.089683 0.011900 97 102 98
-0.074135 -0.021543 -0.160600 42 65 123
-0.085772 0.003762 -0.133500 111 116 112
0.156850 -0.056073 0.177400 131 145 128
0.055849 -0.043819 -0.011100 109 109 135
-0.473257 0.071357 0.402500 96 98 87
0.035261 0.045454 0.026700 83 91 93
-0.044690 -0.000795 0.048300 143 150 161
0.054697 0.000682 0.021400 38 42 41
-0.070768 0.025875 -0.152800 185 183 171
-0.083985 0.014460 -0.170400 28 35 165
-0.057986 -0.032114 0.057300 126 124 148
-0.088656 0.006295 -0.136000 152 153 145
0.080307 0.091260 0.014800 85 89 88
0.395877 -0.069244 0.402500 13 86 116
-0.069434 -0.022981 -0.144700 50 53 61
-0.090970 -0.015301 0.095600 129 116 115
-0.020222 0.072524 0.032200 169 171 165
-0.133213 -0.011118 0.098300 129 138 136
-0.097230 -0.069913 0.091000 86 140 171
0.033002 0.017085 -0.026800 81 70 161
-0.068375 0.029057 -0.148700 66 62 34
0.033863 -0.039108 -0.039000 161 167 174
0.233929 -0.181075 0.402500 123 123 154
-0.046911 0.084953 0.035700 61 67 66
0.218681 -0.074185 0.209000 116 125 124
0.196577 -0.070059 0.175400 105 116 115
-0.057476 0.047415 0.072100 64 68 68
0.029600 0.024504 -0.032600 173 179 172
0.220571 0.068427 0.153800 92 98 97
-0.079271 0.008913 -0.168500 182 182 171
-0.015256 -0.209381 0.402500 203 201 207
-0.092543 0.010897 0.102400 72 87 93
-0.077364 -0.019231 -0.166600 72 73 88
0.020781 -0.074405 0.006800 159 159 210
-0.040882 -0.055503 0.040700 168 168 178
0.077992 -0.045096 0.034800 122 131 130
-0.084365 0.019024 -0.170500 116 120 178
-0.089094 0.004206 -0.137600 153 155 149
-0.045745 0.065743 0.046400 154 164 152
0.030341 -0.036414 -0.035000 223 223 217
-0.077215 0.019703 -0.164200 145 105 65
-0.069358 0.091060 -0.002000 89 96 92
-0.073023 0.020213 -0.153800 81 110 175
0.170024 0.074206 0.112500 86 96 91
0.367107 -0.101262 0.402500 101 112 104
0.022927 -0.005018 -0.025800 99 101 111
-0.019737 0.079626 0.025100 160 167 163
0.290077 -0.200565 0.402500 233 217 200
-0.024014 -0.081713 0.042600 104 136 178
0.037651 0.046574 0.019100 80 90 92
-0.086297 -0.010864 -0.165500 105 96 64
-0.098308 0.008038 -0.148100 113 115 104
-0.069220 0.009415 -0.140600 45 43 29
0.007850 -0.022851 0.007200 191 188 185
0.017840 0.012925 -0.009900 70 74 100
0.036845 -0.005509 -0.038300 142 142 143
-0.085882 0.000900 -0.135300 112 118 118
0.014005 0.027494 -0.008100 99 102 105
-0.043730 0.065832 0.045900 164 167 159
-0.064703 -0.013512 -0.148200 31 130 169
-0.014811 0.077118 0.024200 164 165 162
-0.076477 0.039723 -0.136400 53 66 65
0.003792 0.051587 0.021400 89 95 95
-0.018367 0.076547 0.030100 143 144 141
0.333232 -0.159266 0.402500 246 243 233
-0.058591 0.032912 0.056300 132 139 135
0.185543 -0.047107 0.177400 107 113 112
0.325344 -0.217270 0.402500 123 115 99
-0.017003 0.059742 0.031800 183 185 174
-0.075708 0.015377 -0.164100 35 44 169
-0.089330 -0.010928 -0.157000 2 26 39
0.015449 -0.029161 -0.011400 147 143 144
-0.067796 0.022269 -0.148900 82 76 48
-0.069267 0.013141 -0.150500 69 64 25
-0.071501 0.021346 -0.149300 43 41 17
0.013902 0.054467 -0.006200 107 112 115
-0.066924 0.028256 -0.148200 63 56 24
-0.020611 -0.064382 0.030500 125 146 175
0.206020 0.074641 0.146500 90 96 95
-0.039073 -0.031934 0.041200 184 188 188
-0.049950 0.005931 0.068100 166 168 173
0.097278 0.086439 0.031800 79 86 82
0.009642 -0.007337 0.002700 47 53 101
0.026481 0.016278 -0.023100 97 75 178
0.054819 0.051789 -0.015800 140 141 138
-0.076220 -0.020042 -0.167800 197 196 188
-0.043504 0.075175 0.046800 164 169 165
0.040364 0.044892 -0.021200 110 87 110
-0.086589 0.010868 -0.134900 123 124 116
0.000280 0.083729 0.004400 132 137 133
-0.066272 -0.016920 -0.149700 165 169 168
0.025203 -0.048104 -0.035700 107 100 191
-0.022810 0.025745 0.029600 127 117 177
-0.073822 -0.028256 0.086500 90 90 91
-0.088214 0.010495 -0.135200 146 146 140
-0.087758 -0.000460 -0.156400 15 64 89
-0.075171 -0.004405 -0.156900 12 122 164
0.031534 -0.075314 0.003300 165 173 200
0.015630 0.018674 -0.010800 110 114 128
0.339265 -0.189428 0.402500 213 204 191
-0.049327 -0.077826 0.061000 196 208 210
-0.000627 0.034662 0.016000 144 141 150
-0.076537 0.027690 0.072100 89 114 131
0.189928 -0.034392 0.169300 148 159 158
-0.082887 0.020814 -0.169000 198 154 0
-0.016619 0.068577 0.031800 86 84 85
-0.106389 -0.093047 0.109500 178 238 252
-0.075146 -0.023578 0.091700 40 43 51
-0.036029 0.020625 0.080400 102 110 112
-0.087373 -0.020180 -0.162200 14 22 42
0.009450 -0.007483 -0.018400 203 202 199
0.172578 -0.041753 0.147400 62 59 132
-0.034688 -0.061604 0.038000 167 173 187
0.036119 0.040383 -0.018100 94 60 74
-0.083260 -0.005417 -0.160900 0 11 62
-0.072497 -0.003256 -0.148900 24 97 127
0.025150 -0.002285 0.005800 90 94 108
-0.062116 0.016397 -0.144200 140 130 121
-0.080375 0.003779 -0.131200 69 67 67
0.306318 -0.215414 0.402500 139 130 112
0.235335 0.062017 0.190400 86 95 93
0.047994 0.021175 -0.017300 127 130 138
-0.015113 0.093046 0.002700 60 66 65
-0.075379 0.014681 -0.156600 159 157 151
-0.001774 0.061184 0.017500 171 171 165
-0.087070 0.003054 -0.135100 119 124 120
-0.086344 0.009665 -0.133100 84 87 79
0.009566 0.008236 0.004400 169 175 174
-0.010273 -0.080882 0.033100 156 168 197
0.037292 -0.010969 -0.036700 46 46 124
-0.069898 0.006605 0.111700 53 60 64
-0.001799 0.060643 0.018300 162 163 155
-0.070069 0.017296 -0.149100 63 64 49
0.074398 -0.058817 0.009000 140 140 157
-0.067743 -0.002223 -0.148300 19 102 142
-0.037995 0.036731 0.043000 114 115 130
-0.071573 0.087606 0.014100 95 100 96
-0.078804 0.079464 0.056800 69 74 70
0.180261 -0.009335 0.164300 59 68 72
0.021730 -0.007139 -0.028300 165 167 161
-0.473721 -0.238151 0.402500 129 126 123
-0.094866 -0.016537 -0.150300 91 95 94
-0.017745 0.021783 0.027500 81 65 157
-0.086069 -0.010386 0.092300 175 151 136
-0.057426 0.018701 0.102400 14 17 25
-0.081743 0.024610 -0.169400 138 156 173
-0.149646 -0.006963 0.121600 70 57 37
-0.074726 -0.012035 -0.148400 0 39 70
0.009836 -0.055452 -0.026500 204 195 190
-0.075123 0.028825 -0.158300 65 60 35
0.030763 -0.012610 -0.035700 54 53 134
-0.081709 -0.021732 -0.135100 87 97 99
-0.093649 0.002482 -0.143700 107 108 105
-0.074800 0.013216 -0.155900 136 134 122
0.105541 0.086081 0.033100 86 92 85
-0.082419 0.003054 -0.130700 90 94 94
0.016205 -0.045742 -0.020100 177 181 181
-0.076137 0.015604 -0.158700 105 107 138
0.164026 -0.002696 0.165300 41 48 52
0.002201 0.080632 0.010800 120 117 114
-0.031647 0.058600 0.039300 182 184 173
0.010851 -0.030501 -0.002300 38 96 190
-0.062508 0.009841 -0.142700 58 48 19
0.001671 -0.044090 0.010800 181 187 186
-0.004014 0.015163 0.031400 151 149 155
-0.078341 0.012150 -0.156600 39 30 17
0.118412 0.094461 0.010000 91 98 89
0.274300 -0.227478 0.402500 106 102 90
-0.085207 0.004835 -0.132900 111 116 112
0.233256 0.046752 0.204200 89 102 108
-0.019810 -0.022210 0.029200 199 201 195
-0.094311 0.007738 -0.142500 112 113 105
0.068711 -0.013312 0.002700 168 166 154
-0.081843 0.019246 -0.168500 126 122 199
-0.000854 -0.048975 0.009700 88 86 117
0.015242 0.084448 0.007500 133 140 136
0.041260 0.073281 -0.002700 34 50 33
-0.066108 -0.036404 0.059400 255 255 234
-0.065394 0.079124 0.057900 66 71 67
-0.091257 0.088632 0.003700 91 100 99
-0.071896 0.010623 -0.146100 58 53 23
-0.081589 -0.023744 -0.136100 89 97 104
0.117178 0.085423 0.052700 102 112 107
-0.077606 0.024856 -0.165800 208 190 171
0.002833 -0.030656 0.005800 156 166 186
-0.002389 0.090455 0.008200 63 70 66
0.157903 0.062630 0.147400 142 149 145
0.045839 -0.043045 -0.023900 73 65 120
0.028195 -0.035270 -0.035000 109 113 118
0.319251 -0.010893 0.316100 124 148 148
-0.032215 0.083460 0.034000 35 40 36
-0.011003 -0.026256 0.024700 175 187 195
0.039074 0.045180 0.019500 80 89 93
0.080691 0.033133 0.030900 121 138 152
-0.083750 0.012153 -0.155700 30 27 10
-0.017169 -0.027004 0.024700 187 178 180
-0.067610 0.012087 -0.149500 127 119 90
0.011818 -0.042550 -0.023400 230 224 217
-0.052171 -0.005414 0.075000 91 98 107
-0.062067 0.007420 -0.147300 168 168 162
0.008015 -0.055388 0.003700 103 136 163
-0.004916 0.055812 0.022200 174 174 168
-0.012573 -0.031234 0.024200 140 157 171
0.214148 0.042573 0.183800 81 95 98
0.184947 -0.027590 0.172300 49 46 73
0.004613 0.077652 0.007500 120 119 116
-0.019635 0.079024 0.027500 145 152 148
-0.057168 -0.067582 0.058400 115 163 193
-0.152397 0.011538 0.129500 112 109 92
0.060762 -0.017841 -0.009000 93 132 149
0.368035 0.028202 0.402500 115 126 124
0.032190 0.039451 -0.019000 108 77 90
-0.015677 0.091131 0.005800 67 74 70
0.018570 0.038866 0.002300 102 110 112
0.178519 0.034193 0.193700 60 64 69
-0.094952 -0.087234 0.086500 242 234 239
0.005615 0.019652 0.023800 36 38 69
-0.087054 -0.012118 -0.166000 155 118 2
0.035772 0.034015 0.027100 88 95 99
0.243915 -0.000612 0.231900 105 118 110
0.072341 0.077708 0.012200 71 85 95
-0.100130 0.010980 0.105900 21 49 64
0.364531 -0.020446 0.388300 96 106 101
-0.084812 -0.019701 -0.165800 57 63 70
-0.081752 0.004939 -0.131200 88 92 91
0.035367 -0.041910 -0.037200 161 167 174
0.003732 -0.063967 0.013700 223 226 247
0.077573 -0.055743 0.013700 96 89 134
0.003019 0.044645 0.005100 172 173 170
0.177367 0.019839 0.163300 34 37 40
-0.017711 0.037303 0.026300 168 167 164
-0.002693 0.089805 0.009300 57 64 60
-0.078689 0.014541 -0.165800 62 61 156
0.178617 0.048717 0.153800 26 30 44
-0.071302 0.010226 -0.158600 156 152 145
0.004249 -0.015726 0.003000 186 196 191
0.187911 0.059993 0.152000 51 58 49
-0.060046 0.087376 0.017100 85 89 88
0.273836 -0.204277 0.402500 214 205 194
0.300750 -0.196388 0.402500 231 214 199
-0.081130 -0.022017 -0.135600 87 96 95
-0.033701 -0.047653 0.041200 75 106 161
0.014074 0.033512 -0.003300 106 112 112
-0.082409 0.013856 -0.168100 34 38 144
0.048154 0.086754 -0.015600 124 139 126
-0.021654 -0.024388 0.024700 162 152 157
0.024999 0.036009 0.007500 87 95 97
0.396805 -0.096158 0.402500 30 34 114
-0.089802 -0.032975 0.126300 91 89 89
-0.031188 0.066220 0.034800 128 149 146
0.220931 -0.020702 0.191500 110 118 125
-0.084252 0.015142 -0.170700 28 37 169
-0.085386 -0.019695 -0.163900 13 20 36
-0.091137 0.088227 0.004000 93 99 98
0.016298 -0.201029 0.402500 204 204 216
0.178932 -0.011577 0.154800 88 94 121
-0.087081 -0.004368 -0.165200 55 79 106
-0.081274 0.010568 -0.170400 182 182 171
0.026828 -0.023247 -0.000000 115 119 119
-0.008570 0.009962 0.030500 123 129 128
0.166440 0.065888 0.142100 75 73 79
0.364322 -0.221910 0.402500 111 105 91
0.003375 -0.049201 0.004400 34 30 146
-0.064692 0.021336 -0.147200 70 95 172
-0.006366 -0.058443 0.015200 154 171 192
-0.067863 -0.012619 -0.149700 26 92 155
0.060423 0.006426 -0.001700 94 86 109
0.129593 0.077163 0.093600 103 113 108
-0.075842 0.014796 -0.158200 171 167 160
0.030566 -0.020922 0.002000 106 112 112
0.137816 0.083627 0.058900 109 120 112
0.018413 0.014838 -0.019000 88 72 171
0.162567 0.047872 0.153800 24 29 45
0.045874 0.001054 0.021000 101 110 109
-0.069382 -0.002737 -0.149500 10 105 150
-0.090228 0.089318 0.003700 89 95 94
0.028874 0.010843 -0.026300 83 62 169
-0.001685 -0.040381 0.010800 61 119 206
-0.060936 0.087601 0.016700 90 94 93
-0.091839 -0.022006 -0.147700 103 106 114
0.041814 0.074678 -0.004600 52 68 65
-0.068034 -0.015261 -0.150000 78 130 161
0.210728 -0.204741 0.402500 204 201 198
0.070756 0.040580 0.065400 122 133 132
0.162403 0.009643 0.157600 29 31 36
0.013729 0.026682 -0.009600 105 103 109
0.067801 -0.050109 0.047800 91 100 104
0.029231 0.051787 -0.012300 161 168 164
0.162230 -0.066534 0.177400 144 151 147
-0.088041 -0.018749 -0.142600 136 140 140
0.223281 0.007150 0.193700 102 99 96
-0.046884 -0.004989 0.052200 112 124 158
-0.039297 0.030360 0.045400 170 177 186
0.023224 0.078632 0.003000 45 78 26
-0.049553 -0.000927 0.057900 126 135 134
0.157355 -0.014368 0.160400 56 47 49
-0.073321 0.015551 -0.152200 162 161 153
-0.010898 0.068792 0.019500 80 104 78
-0.066719 0.003091 0.088400 143 146 149
-0.042083 -0.017832 0.046800 102 105 155
-0.004898 0.077816 0.009700 156 152 145
-0.074424 0.017373 -0.155200 153 149 135
-0.064711 -0.012628 -0.147800 66 147 187
0.008175 -0.050314 0.000300 202 203 195
0.042284 0.052030 -0.023400 159 144 158
-0.061681 0.088576 0.009300 83 88 84
0.015781 -0.039298 -0.025200 194 192 186
0.333736 0.044532 0.317900 93 97 97
0.026042 -0.236759 0.402500 176 178 183
-0.074174 0.007053 -0.136000 119 120 117
-0.076399 -0.010412 -0.159700 29 119 163
-0.066605 -0.011520 -0.148600 52 113 145
-0.083828 0.010442 -0.148100 105 99 85
-0.085705 0.089942 -0.002300 95 102 106
-0.028711 -0.045177 0.046400 37 61 108
-0.079374 0.005672 -0.130900 99 98 95
-0.079044 0.024032 -0.167000 70 78 126
-0.090336 0.004166 0.133600 55 64 63
-0.065513 0.014765 -0.147700 167 163 151
0.032662 0.056089 -0.024700 86 95 93
0.243210 -0.225158 0.402500 119 112 102
-0.064211 -0.004090 -0.146800 13 115 157
-0.093988 -0.019519 -0.150300 101 105 105
-0.072779 -0.022642 -0.147400 62 57 61
0.009007 -0.081149 0.028000 71 57 129
0.087759 -0.238151 0.402500 108 102 95
-0.087193 -0.001529 -0.165000 88 67 56
-0.041080 -0.037629 0.040700 214 207 202
-0.095426 -0.014313 0.095000 133 136 157
0.030135 -0.051522 -0.039200 115 106 192
0.213048 -0.212629 0.402500 205 199 197
-0.043803 -0.060607 0.043000 109 137 181
0.010250 -0.073276 0.012600 159 154 186
-0.074573 -0.010441 -0.147900 2 41 70
-0.027224 0.069002 0.033500 124 144 149
-0.090609 -0.008890 -0.155000 9 32 48
-0.048273 -0.073772 0.059400 185 202 203
0.081499 0.093182 -0.000000 81 87 80
-0.077517 0.026985 -0.165900 101 64 67
0.026055 -0.012412 -0.030900 46 45 126
-0.089485 0.012401 -0.161100 35 38 122
-0.063786 0.011125 -0.146000 115 111 97
0.027568 -0.043822 -0.036900 124 104 181
-0.100258 -0.001085 0.126300 69 72 75
0.042309 -0.022934 -0.028600 100 106 147
-0.003881 0.019466 0.023800 47 37 117
0.029441 0.011154 -0.026000 92 76 168
0.174450 0.050927 0.196000 14 32 57
-0.470937 0.071357 0.402500 96 98 87
-0.060333 0.019219 -0.141500 62 51 24
0.329422 0.035399 0.319800 158 169 161
0.081612 0.091115 0.010000 86 93 89
-0.087779 0.007001 -0.135600 140 142 136
-0.064677 0.006553 0.106700 54 60 67
0.058291 0.036209 0.001600 54 31 40
-0.106550 -0.073472 0.104500 101 166 186
-0.071191 0.051421 0.075000 30 42 52
0.044316 0.006923 -0.011400 74 68 131
0.020629 0.004424 -0.000400 95 98 114
-0.081317 0.007258 -0.131200 86 93 89
0.032015 -0.037216 -0.041300 81 78 132
0.008741 0.087245 -0.004600 180 185 181
0.009919 -0.005719 0.005100 36 30 98
-0.062883 -0.010515 -0.146700 60 64 170
0.019322 0.049361 0.005400 104 110 110
-0.018205 0.006917 0.031400 147 163 166
0.022867 0.049603 -0.005900 147 156 154
0.035468 0.002177 0.016000 79 84 93
-0.011954 0.061741 0.029600 97 97 97
-0.075397 -0.014790 0.095000 72 63 58
-0.065538 -0.027000 0.073800 95 94 98
0.013310 -0.069019 0.006800 204 199 182
0.030859 0.054956 -0.022000 157 164 160
-0.007515 -0.061121 0.017900 165 173 193
-0.085908 -0.010415 0.093000 122 97 84
0.030133 -0.013625 -0.035500 54 56 129
0.053055 -0.013273 -0.017800 60 108 136
-0.069664 0.014161 -0.150300 84 79 56
0.018445 0.011478 -0.021700 143 146 169
0.027926 -0.045924 -0.038100 95 81 182
-0.000512 -0.022509 0.012200 162 158 164
-0.063807 0.023899 0.075000 29 28 32
0.018705 0.079048 0.014800 102 109 105
-0.007724 0.012405 0.024200 155 160 156
0.030103 0.050836 -0.010800 152 161 160
-0.005913 -0.042754 0.027100 10 30 89
-0.092283 0.002794 -0.141900 108 110 104
-0.031830 0.010729 0.067600 83 88 97
-0.073282 0.018187 -0.153300 178 176 162
0.046278 0.085310 -0.017300 79 89 96
0.072613 -0.027389 0.003300 122 105 90
0.008777 -0.036236 0.004000 156 168 210
-0.070993 -0.023672 -0.154900 66 73 84
0.215954 0.005862 0.187100 121 120 112
-0.064850 0.087010 0.018700 88 92 91
0.077832 0.075697 0.018700 59 82 166
-0.079006 0.018830 -0.165400 180 184 189
0.072126 0.086785 0.009700 93 99 92
-0.028350 -0.065466 0.036200 192 195 198
0.045361 0.077126 -0.005200 54 79 42
0.073645 -0.000096 0.024700 76 80 80
-0.083623 -0.070465 0.080400 157 228 255
0.179107 -0.041670 0.166300 108 119 118
0.017867 0.083928 -0.002300 119 128 119
-0.009814 0.035140 0.018300 166 166 176
0.076648 -0.045294 0.013300 201 204 196
0.080334 0.072429 0.021400 27 49 141
-0.002527 0.061190 0.018300 189 187 181
-0.081841 0.011936 -0.170900 176 175 172
0.387060 0.030986 0.402500 152 164 154
-0.213154 -0.162494 0.356400 212 217 213
0.344951 -0.036152 0.358500 173 182 180
-0.091317 -0.018331 -0.147900 69 65 71
0.019648 0.086093 -0.001400 153 162 153
0.004491 -0.009775 0.010000 117 114 154
0.209961 -0.013550 0.175400 110 131 140
0.007021 0.029395 -0.009900 160 169 167
-0.010526 0.091005 0.009700 71 76 72
-0.078458 -0.022737 -0.135500 174 164 128
-0.064979 0.025379 -0.147300 178 176 162
-0.082671 0.020754 -0.168900 202 159 0
0.018618 -0.224694 0.402500 181 178 187
-0.083929 0.086889 0.014100 86 90 89
-0.080286 0.021435 -0.167500 160 165 186
-0.114983 0.007511 0.123900 36 48 50
0.018459 0.023737 -0.019800 176 178 172
-0.067374 -0.010355 -0.149500 49 151 193
-0.074459 -0.013077 -0.158400 35 155 191
0.015489 -0.007512 -0.020900 208 207 199
-0.005885 0.008834 0.023000 172 181 180
-0.042936 -0.085786 0.060500 210 206 212
0.026434 0.008169 -0.019500 75 60 155
-0.084429 0.015514 -0.171000 33 43 171
0.009816 -0.023784 0.004700 118 143 167
0.012094 0.084370 0.002300 144 152 145
0.047981 0.037725 -0.009300 87 64 73
-0.028997 0.087239 0.033100 64 71 67
0.080597 0.083855 0.019100 92 102 109
0.071828 -0.044195 0.045400 144 150 150
-0.002215 -0.051334 0.010800 33 34 83
-0.079016 -0.007589 -0.161600 96 120 186
0.153383 0.028819 0.168300 152 158 158
-0.065005 0.020543 -0.147500 56 78 164
-0.073385 -0.024306 -0.153900 72 78 85
0.005475 0.067038 0.008200 107 111 110
-0.054035 0.083609 0.044400 61 66 62
-0.095624 0.010337 -0.144400 104 106 100
0.169780 0.059719 0.148300 147 157 152
0.023635 -0.050955 -0.035700 96 85 183
0.056788 0.034119 0.010400 60 49 61
0.188661 -0.037692 0.145700 170 171 163
-0.084674 0.015147 -0.171100 29 38 168
-0.096280 0.010249 -0.144700 107 107 101
0.039733 0.075997 0.025500 23 37 20
-0.083358 -0.007561 -0.160800 12 72 100
0.006553 -0.216806 0.402500 196 197 205
-0.013154 0.089592 0.016700 69 75 68
-0.038341 -0.036306 0.039800 155 162 171
-0.077289 -0.079314 0.089100 196 255 255
0.278940 -0.201493 0.402500 224 209 194
-0.062624 -0.005007 -0.145500 35 138 177
0.050985 0.074270 0.001600 31 68 22
0.039270 0.073012 -0.001400 30 60 22
-0.078048 0.014553 -0.165200 29 36 166
0.009879 0.083914 0.001000 138 140 134
-0.030507 -0.041795 0.046800 41 67 123
0.123910 0.090531 0.024700 93 100 96
0.019211 0.038336 0.003300 100 108 110
0.032049 0.014883 -0.023600 70 64 141
-0.025439 0.087740 0.018700 68 75 71
-0.107428 -0.192088 0.400600 242 231 232
-0.133343 -0.005102 0.119200 128 132 131
-0.086404 0.000139 -0.163900 152 120 35
-0.004776 -0.052716 0.012200 198 194 182
-0.066564 0.028676 -0.148200 62 56 22
0.079500 0.043031 0.019800 169 172 180
-0.079002 0.012225 -0.156000 40 37 15
0.069455 -0.041914 0.048800 105 111 110
-0.074265 -0.022356 -0.161700 122 133 151
-0.016766 -0.082030 0.039800 133 135 166
-0.085556 -0.003950 -0.158800 11 25 81
-0.087089 -0.000507 -0.164500 110 108 96
-0.067911 -0.004596 -0.149200 74 144 183
-0.079499 0.019124 -0.166300 100 89 101
0.006289 -0.002995 0.006500 74 60 113
-0.051859 -0.078532 0.053800 177 228 248
0.023432 0.023737 -0.024400 171 177 170
0.063327 0.025691 0.010800 69 70 85
0.002710 -0.012690 0.011500 115 125 127
0.038242 0.073332 0.028800 73 81 69
-0.079975 0.009437 -0.169100 187 183 176
-0.077090 0.012492 -0.158100 40 39 17
-0.093836 -0.017212 0.095600 107 118 149
0.325808 -0.206133 0.402500 215 204 191
0.021196 -0.009153 -0.021700 169 171 165
-0.082957 -0.066143 0.094300 196 193 190
0.258987 -0.199173 0.402500 206 200 188
0.031266 0.076381 0.004000 68 89 73
-0.079166 0.017322 -0.166000 185 126 0
0.363858 -0.093374 0.402500 101 128 127
-0.064389 -0.008855 -0.147200 83 104 140
-0.079955 0.013189 -0.160200 27 29 102
0.159996 0.050234 0.145700 18 25 36
-0.075258 0.012502 -0.156800 48 46 22
-0.064223 -0.025647 -0.153300 173 180 189
0.345761 -0.193604 0.402500 211 202 189
0.101718 0.088527 0.033500 88 92 91
0.031741 -0.024886 0.001000 114 118 118
-0.073963 -0.006754 -0.147500 0 8 39
0.115051 0.089142 0.036600 84 90 83
-0.078519 0.018475 -0.165100 163 172 181
-0.086027 0.007618 -0.132800 110 112 106
-0.092705 0.003310 -0.142100 112 112 106
-0.077567 0.011365 -0.151300 33 31 5
-0.073665 -0.037155 0.066500 101 88 100
0.197347 -0.066647 0.198300 126 132 131
-0.045479 0.031823 0.049800 76 93 112
-0.099617 0.005938 -0.149700 116 117 109
0.033262 0.062341 0.009700 27 40 19
0.028228 0.080470 -0.009300 57 69 64
-0.090660 -0.008039 -0.154800 8 31 47
-0.040412 0.089038 0.014100 76 83 79
-0.073034 -0.002255 -0.147800 0 53 82
0.039188 0.072929 -0.003300 39 69 31
0.001106 -0.036591 0.008200 156 166 195
0.023498 -0.046589 -0.033800 93 80 183
-0.078000 0.024532 -0.166200 132 101 129
0.318851 -0.010492 0.316100 126 149 146
-0.074610 0.085182 0.025500 88 92 91
0.025885 -0.049313 -0.036500 190 189 238
0.031611 -0.217270 0.402500 183 181 187
0.387060 -0.058108 0.402500 116 118 123
0.099849 0.087850 0.032600 86 93 89
-0.038213 0.036082 0.042600 193 198 207
-0.077110 0.027598 -0.165400 85 74 76
-0.017094 -0.063022 0.026700 121 144 173
-0.066949 -0.003013 0.067000 144 148 153
-0.062021 -0.026486 -0.148500 224 220 220
0.162491 -0.020101 0.155700 71 98 129
-0.100137 -0.004435 0.101000 164 166 160
0.342513 -0.212629 0.402500 135 128 118
0.008692 -0.041664 0.001000 193 202 200
-0.033989 -0.052856 0.036600 141 143 148
-0.063460 0.025236 -0.145300 146 141 124
0.319941 0.044291 0.294400 88 97 95
0.185525 0.031581 0.174300 16 29 35
-0.071933 0.023765 -0.154100 197 198 185
-0.093664 -0.077563 0.094300 145 199 191
0.325344 -0.162978 0.402500 250 248 236
0.029645 -0.020927 -0.035300 46 44 114
-0.076070 0.017424 -0.157700 108 103 93
-0.075222 -0.002480 -0.156100 13 111 155
-0.072219 0.007964 -0.133000 56 60 59
0.042198 0.073406 0.013300 21 46 16
0.073792 0.003793 0.013300 69 64 73
-0.074393 -0.021529 -0.165700 176 174 180
-0.046005 -0.077289 0.055300 211 210 214
0.053705 0.005683 -0.007800 100 100 138
-0.082637 -0.034059 0.073200 124 92 75
0.051395 -0.011921 -0.019300 84 120 150
0.032257 0.020514 -0.026800 115 114 147
-0.060793 -0.024653 0.065400 100 108 115
0.005343 0.040502 0.004000 159 162 165
-0.093043 0.002411 -0.142600 108 109 106
-0.067701 0.026669 -0.148500 75 63 41
-0.037292 0.066811 0.049300 83 92 91
0.005587 0.034749 0.007200 94 97 139
-0.023286 0.024104 0.030500 155 152 192
0.119790 0.080581 0.074400 103 112 110
0.012479 -0.046180 -0.024700 203 201 195
0.002643 0.005371 0.010400 110 126 156
0.008891 0.004639 0.006500 144 150 149
-0.044794 -0.042464 0.043500 103 138 206
-0.084553 0.025741 -0.170400 84 88 93
-0.072289 0.069418 0.062600 114 123 122
-0.023887 -0.051149 0.034000 158 166 168
0.160949 -0.066118 0.147400 193 199 192
0.394021 -0.137921 0.402500 157 153 141
0.216982 0.046026 0.184900 84 96 104
-0.041609 0.088754 0.020600 72 79 75
-0.072335 0.015867 -0.149500 92 85 67
0.067157 -0.014472 -0.000000 93 85 78
-0.043221 0.055840 0.049800 181 181 175
0.000407 -0.028553 0.008200 110 137 183
-0.028695 0.022092 0.034400 91 86 138
0.151927 -0.055453 0.136100 137 143 143
-0.062619 -0.002741 -0.145100 22 112 144
-0.050380 -0.021621 0.076200 16 18 44
0.024965 0.049479 -0.006500 146 155 153
0.324424 -0.000588 0.333500 134 150 140
0.219560 0.064525 0.157600 90 97 93
-0.035202 0.050973 0.053800 98 104 104
-0.066272 -0.018852 -0.150600 152 151 148
0.211293 0.048715 0.181700 83 94 112
-0.066704 -0.084358 0.066500 234 225 226
-0.082533 0.008452 -0.149100 114 116 110
0.260526 0.046917 0.240100 87 96 95
-0.011875 -0.053939 0.019100 152 162 164
0.001081 -0.002725 0.009700 154 138 196
0.370819 -0.093374 0.402500 62 149 138
-0.075018 -0.001981 -0.145300 13 56 80
0.077990 0.003079 0.018300 82 79 83
-0.090267 -0.022063 0.099700 47 32 70
0.003628 0.042579 0.009300 160 159 163
-0.059807 0.065340 0.061600 44 44 45
-0.075284 0.029183 -0.158900 70 62 28
0.230270 -0.054701 0.200600 112 123 127
-0.078090 0.022832 -0.166100 215 205 176
-0.081546 0.008867 -0.170800 177 178 165
-0.126611 0.013810 0.117700 56 56 68
-0.071258 -0.032835 0.063200 161 157 170
-0.092072 0.001435 -0.141800 108 112 111
-0.032471 0.018633 0.064300 89 97 99
-0.021814 -0.083313 0.042600 158 187 218
-0.064162 -0.004612 -0.147100 40 140 177
0.393092 -0.040939 0.402500 102 115 107
-0.085627 0.000088 -0.157900 16 65 90
0.054599 0.035023 0.016000 68 62 68
0.377315 -0.025162 0.402500 51 65 60
-0.037819 -0.087284 0.055800 212 193 172
0.043896 0.000648 0.025100 82 89 93
0.116396 0.089040 0.037500 85 93 86
0.066819 -0.053451 -0.000000 81 88 79
-0.061012 0.086234 0.023000 76 81 77
0.018592 -0.023230 -0.005900 140 137 141
0.039292 0.007781 -0.016100 54 41 124
0.041050 0.076862 -0.012300 81 110 95
-0.064571 -0.004906 -0.147200 52 144 178
0.186432 -0.079327 0.148300 53 58 95
-0.043351 0.047676 0.052700 169 169 163
-0.068612 -0.077717 0.069300 205 255 254
-0.082456 0.024609 -0.169900 102 101 105
0.123031 0.075826 0.103800 102 108 108
-0.078183 -0.020167 -0.161800 81 76 85
0.031548 -0.017157 -0.037200 50 54 134
0.342049 -0.157410 0.402500 244 240 233
0.025015 -0.007160 -0.033600 211 211 205
-0.086278 -0.006668 -0.158400 9 34 63
-0.084116 0.015072 -0.170400 29 38 168
-0.062878 -0.025400 0.068700 98 105 109
-0.064917 -0.021986 -0.149700 77 80 83
0.012771 -0.015601 -0.016100 144 140 140
-0.047487 -0.069787 0.053800 124 139 160
0.019162 0.049543 0.002000 133 142 141
0.027885 0.052980 -0.022600 161 167 166
0.007963 -0.004406 -0.017600 203 201 201
0.073368 0.032131 0.028800 64 79 119
-0.073441 0.018962 -0.153900 188 186 174
-0.084813 0.003483 -0.132600 109 114 110
0.046319 0.042799 0.038000 79 89 91
0.011162 -0.024667 0.002000 173 189 187
0.158906 -0.080806 0.153800 206 207 204
-0.089349 0.002382 -0.138600 150 152 146
-0.000272 -0.046564 0.010800 71 77 91
0.272444 -0.167619 0.402500 131 122 124
-0.088323 -0.042859 0.081600 167 155 160
-0.074591 -0.007544 -0.147000 0 10 45
-0.028396 -0.033193 0.047800 122 140 138
-0.058683 -0.061555 0.084700 74 65 66
0.166410 -0.072290 0.149200 115 115 127
0.323952 -0.149521 0.402500 245 243 231
-0.087700 -0.007599 -0.166900 175 142 67
0.174498 0.071931 0.148300 89 96 92
0.024494 -0.000508 0.002700 90 92 104
0.076021 0.043080 0.014500 96 90 108
0.031410 0.048282 0.007900 81 90 94
-0.075245 -0.017535 -0.161900 172 169 166
-0.080632 0.022693 -0.168300 162 152 143
-0.015099 -0.075478 0.033100 75 101 123
-0.053099 0.058254 0.052700 136 154 159
0.000105 0.065372 0.012600 144 153 139
-0.073656 -0.021838 -0.160200 37 60 118
0.059669 0.071636 0.009000 47 59 61
-0.034664 0.078696 0.038400 114 118 117
0.150823 0.086473 0.056300 95 102 98
0.068743 -0.002657 0.039800 153 150 140
0.126657 0.083622 0.064300 94 104 99
0.019187 0.020101 -0.019000 177 179 184
0.176557 0.000225 0.162400 49 58 62
-0.061668 0.007005 -0.147100 170 170 164
0.021455 -0.038954 -0.031100 217 210 219
0.017959 0.049541 0.003700 104 110 109
0.081299 -0.016808 0.018700 91 87 98
0.081275 -0.024669 0.015600 100 97 106
-0.001096 0.090952 0.004400 62 73 65
-0.082046 0.018761 -0.168100 162 132 115
0.032731 0.012628 -0.029600 176 175 195
-0.062232 0.018672 -0.143800 160 163 171
-0.049495 -0.019119 0.072700 41 43 62
-0.079931 0.013298 -0.160500 22 32 134
-0.002769 0.044094 0.015200 184 183 180
0.301214 -0.207989 0.402500 227 214 199
-0.013348 0.004419 0.030500 167 172 175
-0.075597 0.027305 -0.158900 82 72 43
-0.091606 0.009476 -0.138800 116 116 110
-0.145778 -0.004030 0.116900 83 70 30
0.006089 -0.212629 0.402500 199 199 209
0.029846 -0.001852 0.010000 86 91 102
0.062411 0.007469 0.000300 155 162 166
-0.011950 0.000581 0.032200 95 100 103
-0.077272 -0.004523 -0.159300 33 128 152
0.383348 0.030058 0.402500 155 163 156
0.016612 -0.037577 -0.021700 230 225 215
0.007850 -0.008721 0.006500 131 148 167
-0.083912 -0.054045 0.085300 158 107 12
-0.014402 0.040917 0.015600 178 180 174
-0.007515 0.034361 0.017900 171 175 174
0.011185 -0.026826 -0.002300 115 134 162
-0.061430 0.020829 0.084000 38 44 51
0.015058 0.051253 -0.011100 122 126 125
-0.070558 -0.023769 -0.155700 58 70 104
-0.076264 -0.014119 -0.147300 0 42 79
0.296110 -0.174115 0.402500 199 193 179
-0.077852 -0.012225 -0.160600 19 99 135
0.017116 0.022451 -0.018700 178 180 174
-0.085060 0.008872 -0.132100 103 105 99
-0.080200 0.017051 -0.166800 179 122 0
0.011216 -0.034770 0.000300 97 104 147
0.199876 -0.011290 0.162400 89 95 102
-0.028231 0.090323 0.012200 70 77 73
-0.082805 0.064771 0.079100 58 54 26
0.242936 -0.003091 0.240100 121 130 128
-0.062772 0.017099 -0.144900 151 147 133
0.025802 -0.082731 0.021000 122 117 190
-0.071158 0.030031 -0.155100 76 68 34
-0.072457 0.023075 -0.154600 193 189 175
0.029817 0.051656 -0.015000 167 174 170
-0.076904 -0.000950 -0.157300 37 127 159
-0.003528 -0.005702 0.024700 88 69 126
-0.000266 0.024736 0.016000 88 73 163
0.030558 -0.019420 -0.037200 56 57 138
0.066151 -0.002449 0.039300 82 82 76
-0.087329 -0.008155 -0.166900 189 186 169
-0.134427 -0.001618 0.127100 123 127 126
-0.080880 0.020124 -0.167600 189 136 0
0.219544 -0.185716 0.402500 203 198 193
-0.080858 0.011250 -0.151300 35 33 14
0.001521 0.069440 0.009300 178 187 178
