ply
format ascii 1.0
element vertex 1197
property float x
property float y
property float z
property uchar red
property uchar green
property uchar blue
end_header
0.125414 -0.004749 0.132380 53 57 52
-0.015471 -0.010235 -0.017070 99 89 61
-0.029858 -0.003463 -0.079740 108 106 96
-0.084597 -0.035671 -0.006750 136 148 150
-0.029862 -0.003564 -0.079740 144 156 160
-0.029772 -0.003562 -0.079740 143 147 142
-0.015281 -0.013947 -0.017900 148 154 154
0.142271 0.027971 0.120970 69 77 64
0.139206 0.022899 0.119890 98 93 91
-0.034542 0.004152 -0.037200 250 162 165
0.143248 0.056410 0.128820 12 20 17
-0.029788 -0.003564 -0.079740 140 147 141
0.008788 -0.005816 0.004470 18 43 38
-0.029761 -0.003566 -0.079740 140 144 139
-0.029861 -0.003555 -0.079740 144 154 157
0.130404 0.041350 0.118830 11 11 11
-0.029852 -0.003547 -0.079740 145 151 151
-0.003740 -0.015278 -0.013620 19 49 43
-0.029794 -0.003546 -0.079740 136 137 128
-0.029731 -0.003563 -0.079740 135 143 142
-0.018333 0.021607 -0.019010 145 146 142
0.158013 -0.097566 0.289960 112 120 119
-0.029854 -0.003512 -0.079740 195 178 160
0.155944 0.078314 0.114690 79 82 81
-0.029827 -0.003544 -0.079740 139 147 146
-0.097887 -0.036388 0.000480 107 113 113
0.150204 0.025196 0.112690 38 46 47
-0.029747 -0.003565 -0.079740 135 143 140
-0.084657 -0.002121 -0.020080 183 171 155
0.130441 -0.060487 0.094690 89 96 100
-0.004202 -0.010606 -0.014540 24 54 46
-0.029861 -0.003547 -0.079740 144 152 153
0.005032 0.047457 0.045920 129 136 130
-0.020630 0.002777 -0.018810 119 103 82
0.082494 0.077836 0.137310 129 135 133
-0.048022 0.009165 -0.051650 93 71 36
-0.062296 -0.013851 -0.009500 117 154 171
-0.068457 -0.035441 -0.010420 139 150 150
-0.039702 0.006578 -0.051260 231 238 230
-0.045836 0.004726 -0.046310 252 173 178
-0.026592 -0.007678 -0.026410 71 70 77
0.161657 0.020425 0.127660 11 14 17
-0.046668 -0.012638 -0.020840 114 143 153
-0.041598 -0.001562 -0.031270 127 120 62
-0.013365 0.005370 -0.011060 129 112 87
-0.040487 0.007807 -0.053120 230 240 226
-0.016960 -0.019140 -0.014880 6 17 13
-0.019665 0.012743 -0.026100 206 178 148
-0.036701 -0.003784 -0.017070 41 28 17
-0.029840 -0.003488 -0.079740 139 106 68
-0.050972 -0.009783 -0.031080 185 73 35
-0.029707 -0.003563 -0.079740 123 133 136
-0.048570 0.005206 -0.047940 207 146 149
-0.040655 0.003767 -0.042230 162 108 109
0.119004 0.044249 0.170830 90 91 87
-0.044212 0.005295 -0.047970 255 251 251
-0.041802 0.005478 -0.049020 254 255 251
0.016045 -0.010324 0.009300 21 48 43
0.129865 0.047256 0.146520 63 67 60
0.067493 0.012755 0.102360 98 101 102
0.023631 0.081315 0.071990 116 120 113
-0.049179 -0.024346 0.013300 129 162 175
-0.066812 -0.015040 -0.006750 95 127 138
-0.023431 -0.008293 -0.022990 72 71 78
0.071265 0.015737 0.104150 91 99 98
-0.033055 0.006981 -0.053030 233 226 207
0.096391 -0.008108 0.109750 96 104 103
-0.093770 -0.022864 0.011040 103 107 102
0.044738 0.071557 0.100600 129 130 124
-0.032872 0.002208 -0.033900 255 178 180
-0.029861 -0.003527 -0.079740 135 135 137
0.121751 -0.063317 0.105980 98 109 109
-0.034172 -0.001105 -0.029500 127 73 22
0.173106 0.080977 0.141170 75 81 79
0.128174 0.073824 0.111700 115 122 116
-0.030127 -0.006786 -0.023420 58 54 57
-0.039030 0.009857 -0.053990 219 228 221
0.131498 0.103866 0.109750 118 124 122
0.000162 -0.011201 -0.013730 14 41 36
0.090802 0.057849 0.137310 115 119 114
-0.057301 0.005930 -0.041410 51 51 29
-0.029689 -0.003562 -0.079740 117 127 132
-0.025031 -0.003256 -0.027230 151 156 161
-0.029819 -0.003557 -0.079740 137 145 146
-0.044778 0.000613 -0.033610 169 170 101
-0.045315 0.005814 -0.050060 248 204 204
0.073570 0.067036 0.082550 127 135 132
0.094488 -0.031549 0.101470 105 113 114
0.093291 0.062071 0.111700 123 131 128
-0.029737 -0.003569 -0.079740 135 146 142
-0.024225 -0.016588 -0.019310 62 65 82
-0.029737 -0.003564 -0.079740 135 141 139
-0.029830 -0.003543 -0.079740 134 142 139
-0.045228 0.000114 -0.031770 151 146 85
-0.021168 -0.002321 -0.028680 87 86 88
0.141244 -0.016383 0.175980 99 107 106
-0.014766 -0.009710 -0.016530 122 95 40
0.017634 -0.011572 0.011040 20 45 40
-0.046154 -0.013488 -0.020080 123 161 175
-0.029839 -0.003552 -0.079740 106 114 115
0.007204 -0.015620 -0.004540 18 45 38
0.014551 0.054271 0.064370 131 132 121
-0.029802 -0.003556 -0.079740 138 146 143
-0.029685 -0.003462 -0.079740 117 125 122
-0.041647 -0.010163 -0.021110 66 73 77
-0.062183 0.011297 -0.044370 103 100 95
0.129824 -0.021107 0.108800 13 19 19
-0.036806 -0.007952 -0.021750 161 159 170
0.030307 0.053028 0.096340 131 133 124
0.150352 0.020216 0.123150 101 107 107
-0.029711 -0.003533 -0.079740 110 119 112
-0.089380 -0.039447 -0.004230 106 112 112
-0.037543 -0.026209 -0.013140 29 63 58
-0.029824 -0.003548 -0.079740 133 144 142
0.140717 0.057292 0.124260 13 21 18
-0.030380 -0.012918 -0.024010 62 67 87
-0.011664 -0.005742 -0.018810 154 118 52
-0.029796 -0.003548 -0.079740 139 140 134
-0.029705 -0.003559 -0.079740 122 133 133
-0.029831 -0.003462 -0.079740 93 77 56
-0.029843 -0.003472 -0.079740 100 88 70
-0.046937 -0.005291 -0.026710 168 74 43
-0.030916 -0.021269 -0.018210 12 30 24
-0.035062 0.005659 -0.043860 254 255 249
-0.052916 -0.000169 -0.037250 145 55 18
-0.046077 0.010133 -0.053140 89 77 50
-0.095083 -0.015962 0.000660 104 106 97
-0.057816 -0.024588 0.011260 146 185 201
-0.103769 -0.027336 0.009510 107 113 113
-0.029855 -0.003479 -0.079740 98 95 90
-0.029807 -0.003545 -0.079740 131 135 130
-0.042729 0.001615 -0.038150 236 121 122
-0.029731 -0.003562 -0.079740 122 128 126
0.072285 -0.075061 0.147900 117 123 121
0.129329 -0.050158 0.084700 19 30 28
-0.029694 -0.003563 -0.079740 121 131 134
0.155018 0.042459 0.138580 54 62 63
-0.035183 -0.024772 -0.019010 37 67 61
-0.038965 0.010570 -0.054280 173 177 170
-0.029736 -0.003569 -0.079740 137 145 142
0.124860 0.015652 0.131180 48 57 67
-0.075277 -0.018649 -0.002030 102 121 123
-0.036934 0.005028 -0.043010 254 255 249
-0.047365 0.006398 -0.048350 247 162 169
0.022992 -0.012554 0.018710 21 47 45
-0.043957 0.006463 -0.052420 247 251 244
-0.029821 -0.003541 -0.079740 133 139 137
-0.010996 -0.015552 -0.014880 64 67 68
-0.029111 0.009297 -0.046460 187 146 99
-0.045159 -0.024328 -0.009100 135 137 126
-0.065296 0.014473 -0.034950 103 89 70
0.106188 -0.093372 0.156550 112 120 119
-0.029778 -0.003564 -0.079740 146 147 143
-0.035297 0.001348 -0.035320 253 168 175
-0.031981 0.005669 -0.043820 254 255 249
0.053328 0.006459 0.081850 100 108 105
-0.042038 0.007205 -0.053390 245 247 234
-0.053613 -0.007244 -0.031020 255 142 88
-0.017416 -0.006710 -0.019980 165 153 122
-0.048317 0.006343 -0.048370 192 137 143
-0.017770 -0.007917 -0.018510 47 43 48
0.076876 0.089397 0.111700 128 134 132
-0.049753 -0.000515 -0.032380 111 87 35
0.171649 0.050048 0.126510 44 55 53
-0.042452 0.002025 -0.038430 255 188 193
0.143698 0.060372 0.143810 63 67 62
0.143451 -0.079648 0.115710 108 122 126
-0.039259 -0.028311 -0.009500 55 70 65
-0.049319 -0.007828 -0.032020 224 110 77
-0.044179 0.010895 -0.054260 80 57 36
-0.029739 -0.003563 -0.079740 136 142 140
-0.004022 -0.014187 -0.014080 25 57 50
-0.017102 -0.010132 -0.018910 82 80 70
-0.101019 -0.036318 0.001530 124 130 130
-0.035154 0.008602 -0.055250 222 224 215
-0.030940 -0.013939 -0.021660 97 97 101
-0.029690 -0.003559 -0.079740 116 128 132
0.168935 0.065571 0.132380 11 17 17
-0.033414 -0.014973 -0.019010 27 31 45
-0.016760 -0.024044 -0.037730 134 140 138
-0.000896 -0.024853 -0.012900 23 48 43
0.134470 -0.061060 0.124260 90 97 101
0.098165 0.078718 0.102360 124 130 128
0.088852 0.060428 0.158060 115 117 108
-0.029743 -0.003476 -0.079740 142 146 139
-0.063980 -0.008669 -0.025470 127 104 72
-0.038782 0.007194 -0.050410 191 196 186
0.149490 0.052868 0.133590 7 13 11
-0.029775 -0.003565 -0.079740 143 147 142
-0.029783 -0.003564 -0.079740 140 147 141
0.029198 0.068906 0.071370 119 120 114
-0.029683 -0.003559 -0.079740 115 127 131
0.225437 -0.047600 0.275870 98 106 107
-0.044274 0.007920 -0.053520 174 177 176
-0.029709 -0.003568 -0.079740 123 133 136
0.139970 0.048798 0.139870 10 13 12
-0.086722 -0.039982 -0.007320 115 125 130
-0.029701 -0.003524 -0.079740 100 108 107
-0.018531 -0.010264 -0.021020 130 133 134
-0.043524 0.005155 -0.045420 252 173 178
-0.029811 -0.003559 -0.079740 141 149 148
-0.043657 0.001180 -0.036860 186 147 116
-0.093903 -0.024784 0.002790 47 55 44
-0.029823 -0.003557 -0.079740 138 149 147
-0.033637 -0.013520 -0.019890 98 101 104
0.019313 0.076435 0.066060 116 120 113
-0.005413 -0.030116 -0.008420 37 71 68
-0.029779 -0.003568 -0.079740 143 147 142
-0.029793 -0.003544 -0.079740 129 130 124
0.131347 -0.031686 0.102360 13 19 21
0.129474 0.061313 0.141170 110 117 109
-0.039836 -0.021690 -0.009230 6 26 21
0.128261 -0.017713 0.098870 136 146 151
0.198774 -0.040910 0.259710 107 115 116
0.122611 0.090656 0.100600 117 124 118
0.148149 0.057107 0.132380 13 20 14
-0.048343 0.005486 -0.048160 206 146 154
-0.029717 -0.003505 -0.079740 172 184 188
-0.056472 0.014462 -0.044670 122 105 89
0.118421 -0.059952 0.094690 45 52 60
-0.049254 0.008432 -0.050910 115 85 51
0.054174 0.061444 0.126510 132 134 125
-0.053904 -0.011160 -0.024340 244 157 122
-0.028037 -0.010327 -0.025550 116 122 133
-0.042364 0.003147 -0.042790 255 185 192
-0.029859 -0.003548 -0.079740 142 152 155
-0.029835 -0.003552 -0.079740 139 147 148
-0.059460 -0.026259 0.014720 151 190 208
0.132677 -0.049650 0.115710 74 81 85
-0.007086 -0.019524 -0.012420 16 41 34
-0.039327 -0.011206 -0.016210 13 20 28
-0.024211 -0.004872 -0.023840 55 54 58
0.032730 0.065288 0.066630 122 127 117
-0.087880 -0.021434 0.006820 133 134 130
-0.038338 -0.005777 -0.020370 28 14 10
0.089390 -0.085954 0.133590 112 118 118
0.115058 -0.056268 0.092280 96 102 104
0.098968 0.065078 0.190810 103 104 98
-0.029759 -0.003550 -0.079740 8 21 16
-0.042343 0.010654 -0.054410 92 71 56
-0.046073 0.009766 -0.052460 168 135 97
-0.044054 0.005333 -0.048530 255 255 247
0.132276 0.005124 0.100600 110 102 101
-0.029841 -0.003503 -0.079740 134 62 37
-0.039325 0.002687 -0.038250 251 188 194
-0.035705 -0.008263 -0.021210 103 110 116
0.176600 -0.040444 0.133590 29 35 35
-0.025547 0.014745 -0.035950 130 113 86
0.122829 -0.100597 0.152150 63 70 62
-0.029139 -0.025180 -0.019690 20 40 37
0.151895 -0.002030 0.105980 34 34 34
-0.040278 0.009390 -0.054130 244 253 244
0.124679 -0.056497 0.105060 98 109 107
-0.029737 -0.003565 -0.079740 137 145 142
-0.075338 -0.025687 0.021380 118 125 119
-0.023636 0.022274 -0.027010 137 138 134
0.026876 0.057366 0.073860 128 130 121
0.103421 0.071079 0.149300 117 121 116
0.093942 -0.116131 0.167510 121 132 132
-0.046233 0.002125 -0.043510 255 179 183
-0.030369 0.005957 -0.044600 254 255 249
-0.029799 -0.003552 -0.079740 136 143 137
-0.042716 0.005608 -0.044900 242 165 169
-0.001849 -0.003494 -0.015110 33 46 31
-0.021476 -0.021055 -0.020840 9 24 19
-0.012777 0.007804 -0.014080 158 136 108
-0.056231 -0.020117 0.004850 117 157 170
0.052833 0.006459 0.081850 102 110 109
-0.048554 -0.026403 0.015930 146 163 168
0.129090 -0.009431 0.125380 43 45 51
-0.029855 -0.003543 -0.079740 141 149 150
0.021848 0.080205 0.076440 117 121 114
-0.039029 0.003586 -0.041330 254 180 188
0.141306 -0.081203 0.142480 116 126 129
0.135374 -0.063393 0.136060 95 103 104
-0.029700 -0.003530 -0.079740 105 113 112
0.123356 0.077268 0.104150 113 119 117
-0.056789 0.014365 -0.043890 110 93 75
-0.045452 0.002400 -0.060580 91 83 71
-0.040496 0.009297 -0.054080 249 255 246
-0.029737 -0.003561 -0.079740 135 141 139
-0.029760 -0.003552 -0.079740 16 37 26
0.140820 -0.033509 0.103250 34 29 27
-0.029691 -0.003558 -0.079740 117 127 132
-0.029862 -0.003468 -0.079740 98 88 86
0.001659 -0.014541 -0.009230 13 38 33
-0.029744 -0.003473 -0.079740 141 145 140
-0.053531 -0.003632 -0.037200 253 139 90
-0.058081 -0.029782 0.015930 144 176 187
0.065440 0.062301 0.124260 128 132 127
-0.027053 -0.019279 -0.020370 3 16 11
-0.050906 0.008547 -0.050080 100 84 63
-0.048372 0.008658 -0.051110 132 101 58
-0.029822 -0.003564 -0.079740 136 142 142
-0.029810 -0.003548 -0.079740 137 145 142
-0.016709 0.013546 -0.024010 146 148 139
-0.057816 0.014872 -0.044400 137 120 102
0.121069 -0.071072 0.097170 20 23 26
-0.033561 0.006384 -0.051060 252 255 247
-0.029823 -0.003567 -0.079740 142 152 155
-0.029726 -0.003565 -0.079740 132 140 141
-0.045849 -0.011860 -0.021840 86 115 127
-0.060704 0.009775 -0.045760 93 91 83
0.130282 -0.018188 0.138580 89 97 98
-0.024928 0.002657 -0.019980 130 112 90
-0.029858 -0.003465 -0.079740 113 109 102
0.016132 -0.008075 0.010820 19 46 41
-0.042949 0.007311 -0.053430 226 234 231
-0.070374 -0.004995 -0.031080 229 207 183
-0.029749 -0.003459 -0.079740 138 142 137
-0.032876 0.005774 -0.048660 254 255 249
-0.029685 -0.003565 -0.079740 120 132 138
-0.027153 0.007854 -0.043370 139 106 66
-0.045894 0.009912 -0.052760 152 116 75
-0.045694 0.002320 -0.041880 255 182 187
0.121842 0.062315 0.132380 109 110 106
-0.066598 -0.008616 -0.032200 144 116 86
-0.029783 -0.003553 -0.079740 145 146 140
-0.029783 -0.003550 -0.079740 138 140 131
-0.007337 -0.026725 -0.011930 24 58 55
-0.052089 0.002220 -0.045290 182 106 76
-0.055237 0.003680 -0.041770 64 40 28
0.116128 0.052830 0.142480 66 67 63
-0.061172 -0.008649 -0.027380 125 107 75
-0.029861 -0.003481 -0.079740 124 128 123
-0.038548 0.010481 -0.054010 173 174 163
-0.032985 0.008052 -0.052930 150 143 126
0.141388 0.044244 0.098870 40 48 45
-0.047231 0.001695 -0.043400 245 155 157
0.083004 0.079721 0.083980 125 132 126
0.112869 0.032233 0.167510 15 19 14
-0.034854 -0.013938 -0.019600 71 71 75
-0.067202 -0.009206 -0.030240 143 124 95
-0.013984 -0.022221 -0.019110 13 32 22
-0.045488 0.003000 -0.044800 251 180 187
-0.033312 0.009199 -0.052950 155 150 132
-0.007564 0.008716 -0.010030 140 140 134
-0.029860 -0.003494 -0.079740 110 101 94
-0.044617 -0.000754 -0.059200 142 148 146
-0.046454 -0.005177 -0.022200 64 47 8
0.081731 0.038667 0.145160 110 114 109
-0.004198 -0.015012 -0.016750 24 53 50
-0.024737 0.013156 -0.033440 160 136 109
-0.041071 0.009803 -0.054470 206 211 201
-0.021929 -0.018674 -0.018000 5 12 16
0.131634 -0.056680 0.097170 80 90 93
-0.074233 -0.019333 -0.002190 136 175 191
0.122899 -0.045529 0.114690 89 96 100
-0.032794 0.003163 -0.035060 251 162 168
-0.029755 -0.003558 -0.079740 135 142 134
-0.029688 -0.003562 -0.079740 121 131 134
0.147857 0.054178 0.133590 12 18 18
-0.046537 0.003822 -0.048000 253 167 172
-0.009655 -0.003400 -0.017800 191 149 80
0.142313 0.028019 0.136060 115 112 107
-0.024362 0.004366 -0.034460 162 126 85
-0.029830 -0.003551 -0.079740 144 155 155
-0.029779 -0.003555 -0.079740 143 147 140
-0.044745 0.003598 -0.045030 251 172 177
-0.062850 0.001637 -0.042190 105 79 39
-0.055740 0.004287 -0.041370 97 87 55
-0.013596 -0.001549 -0.019400 38 30 6
-0.016705 -0.022856 -0.023250 8 22 13
-0.045900 0.006753 -0.051740 149 149 153
0.143601 -0.064091 0.101470 7 9 19
-0.003538 0.027902 0.009510 93 94 88
0.130855 0.028702 0.127660 162 163 159
-0.016537 0.013099 -0.022900 149 150 144
0.120615 -0.060496 0.089930 101 113 117
-0.037160 0.002393 -0.037150 255 187 193
-0.091004 -0.030473 0.000480 103 106 105
-0.023593 -0.011769 -0.023670 61 69 86
-0.036401 0.008120 -0.054060 244 248 241
-0.029854 -0.003487 -0.079740 121 129 128
-0.035651 0.006435 -0.049840 252 255 251
-0.023001 -0.012943 -0.022290 142 143 156
-0.029756 -0.003568 -0.079740 138 141 140
0.028490 0.067528 0.068970 117 118 112
-0.029706 -0.003521 -0.079740 103 111 110
-0.021818 -0.032353 -0.010420 45 68 64
-0.066440 -0.012787 -0.008560 112 150 164
-0.029838 -0.003473 -0.079740 99 85 66
-0.061608 0.014417 -0.043220 90 77 64
-0.029837 -0.003470 -0.079740 101 83 63
-0.003402 -0.017118 -0.014540 20 52 45
-0.036093 -0.023425 -0.017380 24 55 51
-0.029840 -0.003471 -0.079740 100 86 67
-0.106551 -0.033772 0.009090 113 121 118
0.134158 -0.055312 0.089160 27 25 32
-0.092199 -0.021755 0.005830 94 95 89
-0.036640 0.004996 -0.042150 254 255 249
-0.029701 -0.003558 -0.079740 121 131 134
-0.047194 -0.010284 -0.022380 89 91 97
-0.107334 -0.024589 0.007220 147 150 151
0.126836 0.008069 0.117780 52 60 59
-0.052098 0.006535 -0.047280 0 9 38
-0.043047 0.007967 -0.053870 196 204 193
-0.044570 0.000488 -0.059000 136 136 136
-0.029862 -0.003483 -0.079740 126 125 132
0.146881 -0.002218 0.120970 80 86 88
-0.026360 0.018801 -0.036050 137 141 134
0.002265 -0.021805 -0.010030 29 55 53
-0.055169 -0.006848 -0.031330 253 142 88
-0.040169 -0.021303 -0.009900 0 18 14
0.156022 0.078176 0.128820 86 93 87
0.087411 -0.080200 0.159580 105 113 114
0.004282 -0.002243 -0.005880 20 45 40
-0.049539 0.001286 -0.047310 241 166 174
-0.012050 -0.008519 -0.016860 202 164 98
0.106611 0.076001 0.096340 115 121 119
-0.029745 -0.003568 -0.079740 139 145 143
0.068202 -0.086434 0.146520 111 117 117
-0.042140 0.008492 -0.053940 196 204 193
-0.030295 -0.012747 -0.024010 91 96 114
-0.029743 -0.003469 -0.079740 136 140 135
0.060277 -0.079309 0.098020 121 128 132
-0.051705 -0.001675 -0.054430 116 105 98
-0.029828 -0.003496 -0.079740 147 128 83
0.056229 -0.102126 0.127660 128 138 141
-0.044782 0.005290 -0.048510 247 165 171
0.136510 -0.087843 0.143810 115 125 128
-0.054843 0.016147 -0.044840 112 98 83
-0.029089 0.008835 -0.045320 115 93 67
-0.034218 0.007555 -0.054360 246 242 217
-0.029787 -0.003545 -0.079740 133 134 125
-0.021964 -0.085351 0.080460 103 106 105
-0.029819 -0.003551 -0.079740 137 148 144
-0.057639 0.015392 -0.043930 135 118 100
-0.048869 0.009284 -0.051090 98 82 59
-0.045130 0.002057 -0.060540 108 104 95
-0.043703 0.005367 -0.049400 254 255 251
0.124643 -0.033511 0.086160 37 33 36
-0.082844 -0.033930 -0.009230 126 136 139
-0.029859 -0.003480 -0.079740 114 120 118
-0.007642 -0.027445 -0.012540 20 54 51
-0.003358 -0.009916 -0.014430 18 48 42
0.108410 -0.071274 0.110720 112 122 125
-0.003647 -0.003687 -0.017280 183 153 96
0.074636 -0.104870 0.134820 123 133 136
0.115109 -0.070257 0.097170 69 76 80
-0.011593 -0.019138 -0.017280 17 40 34
-0.034900 0.005182 -0.038520 230 140 142
-0.025843 0.016822 -0.036260 143 140 126
-0.029704 -0.003507 -0.079740 93 101 100
-0.029857 -0.003544 -0.079740 140 147 151
-0.030005 0.005825 -0.030820 58 22 3
-0.014133 0.009270 -0.016320 235 202 164
0.148327 -0.031666 0.109750 27 26 26
-0.029778 -0.003554 -0.079740 145 146 140
-0.010699 -0.016786 -0.014200 22 45 41
-0.003875 -0.023816 -0.015220 10 33 27
-0.037260 0.005625 -0.045640 254 255 247
0.163710 -0.080053 0.123150 109 123 127
-0.029859 -0.003500 -0.079740 187 171 166
0.135440 0.041080 0.123150 20 26 26
-0.010329 0.003141 -0.014310 138 103 32
-0.021259 -0.021035 -0.021210 19 38 28
0.167998 -0.111639 0.239390 120 128 129
-0.023645 -0.005604 -0.024910 161 167 167
-0.036128 0.004656 -0.039550 252 170 174
-0.031858 0.005576 -0.043080 254 255 247
-0.060417 0.012987 -0.042900 98 86 68
0.091760 0.056833 0.136060 115 119 114
-0.041853 -0.001335 -0.027600 242 179 165
-0.065337 -0.017933 -0.002670 143 182 200
-0.034157 0.009341 -0.055350 192 187 169
-0.073739 -0.016848 -0.003460 120 125 115
-0.036906 -0.008048 -0.021660 160 157 173
-0.029817 -0.003542 -0.079740 133 139 137
-0.029804 -0.003539 -0.079740 126 128 119
-0.029812 -0.003562 -0.079740 139 150 150
0.026663 0.066664 0.069560 117 121 114
-0.024569 0.005744 -0.033840 113 66 24
-0.029825 -0.003553 -0.079740 142 153 151
0.157722 0.071047 0.153600 64 70 70
-0.004965 0.002089 -0.015990 148 113 38
-0.093273 -0.023158 0.006220 95 96 90
0.116283 0.050802 0.141170 61 61 55
0.052398 0.061811 0.119890 135 139 132
-0.029857 -0.003476 -0.079740 98 94 85
-0.029827 -0.003539 -0.079740 132 141 134
-0.005834 -0.025877 -0.017490 75 94 94
-0.074760 -0.017132 -0.002510 125 126 115
-0.027692 -0.006597 -0.025230 39 38 40
-0.052355 0.000320 -0.032860 89 62 36
0.121158 -0.167410 0.262820 128 135 139
-0.014203 -0.009340 -0.017380 169 143 99
-0.041087 0.004918 -0.043960 254 168 173
-0.102776 -0.027007 0.009300 99 105 103
-0.050933 -0.002729 -0.054470 149 144 140
0.089867 0.076433 0.095510 128 134 132
0.055659 0.070815 0.093080 125 132 126
-0.029720 -0.003565 -0.079740 126 136 139
-0.048247 0.001965 -0.047130 241 162 167
0.142327 0.069450 0.141170 109 110 106
-0.033907 0.005630 -0.042860 254 255 249
0.124628 -0.064100 0.118830 90 98 99
-0.029694 -0.003568 -0.079740 117 128 128
-0.080315 -0.022928 0.003530 102 111 104
0.112862 0.045288 0.174240 109 110 106
-0.031051 0.010396 -0.050030 130 99 56
0.070770 0.094848 0.103250 136 142 140
-0.046120 0.009836 -0.052660 160 124 85
0.076937 -0.030399 0.079780 104 112 113
-0.039940 0.009714 -0.054190 208 213 203
0.141652 -0.007128 0.119890 46 52 54
-0.097632 -0.006868 -0.003930 136 137 133
0.190141 0.062535 0.146520 10 18 17
0.053242 -0.114120 0.152150 124 135 135
-0.029821 -0.003550 -0.079740 139 150 148
-0.022412 -0.000622 -0.029160 150 147 144
-0.101027 -0.040883 -0.001210 132 139 143
-0.029861 -0.003565 -0.079740 144 156 160
-0.101895 -0.018601 0.009730 104 106 97
0.079483 0.069214 0.102360 123 127 122
-0.052073 0.006964 -0.049100 142 110 74
-0.051282 -0.010244 -0.029300 250 138 93
0.104900 0.008493 0.142480 94 100 98
0.093274 0.041738 0.159580 115 119 112
-0.035814 0.009025 -0.055010 211 216 204
-0.059473 0.016342 -0.044300 163 146 128
-0.041680 0.002857 -0.040360 147 143 146
-0.096093 -0.032598 -0.005140 153 161 162
0.023364 0.082242 0.073230 116 120 113
-0.008803 0.009561 -0.012300 143 144 138
-0.047855 -0.008823 -0.028040 238 123 70
0.086251 -0.077362 0.150720 111 119 120
0.133266 0.038589 0.123150 75 74 85
-0.094014 -0.021044 0.008880 91 92 86
-0.029814 -0.003563 -0.079740 137 148 148
-0.044691 0.010697 -0.054120 85 72 48
0.131543 -0.024341 0.126510 12 19 23
0.079076 -0.027615 0.074500 105 113 114
-0.026425 0.001551 -0.022110 83 65 43
-0.016367 -0.013914 -0.018100 51 53 61
0.119923 -0.053223 0.095510 89 100 98
-0.029669 -0.003495 -0.079740 34 41 33
-0.029700 -0.003527 -0.079740 100 111 109
-0.052863 0.007170 -0.049050 83 70 46
-0.029855 -0.003512 -0.079740 180 163 145
-0.039308 0.007830 -0.052870 255 255 243
-0.002106 -0.012039 -0.014310 17 46 43
0.135432 -0.030402 0.105060 26 19 30
-0.018728 0.012874 -0.025940 142 130 110
0.103022 -0.058227 0.125380 106 114 113
-0.029835 -0.003523 -0.079740 48 39 22
0.139140 -0.057912 0.125380 82 90 91
0.160111 0.012084 0.200990 85 93 92
-0.029721 -0.003502 -0.079740 145 146 140
0.098436 0.074316 0.142480 118 125 119
0.097802 0.062334 0.117780 119 126 120
-0.048004 0.003428 -0.047560 214 146 152
0.120022 0.031821 0.159580 82 90 87
0.112544 0.014267 0.146520 86 92 92
-0.042295 0.000787 -0.038110 233 124 128
-0.084843 -0.038511 -0.007600 114 121 127
0.127520 0.005565 0.129990 86 94 93
-0.029853 -0.003497 -0.079740 200 184 163
-0.048059 0.008625 -0.050980 129 98 57
-0.005146 0.005105 -0.014660 130 107 59
-0.029862 -0.003553 -0.079740 145 150 157
-0.048061 0.006572 -0.048560 202 143 148
-0.009166 -0.011168 -0.013140 144 120 68
-0.087799 -0.028914 -0.000540 109 117 118
0.017368 -0.009218 0.005050 38 53 50
-0.043458 -0.022484 -0.009500 3 28 23
-0.041174 0.004698 -0.042970 251 166 171
0.040103 0.085555 0.080460 116 120 115
-0.034335 0.004134 -0.037300 252 162 166
-0.028174 0.009332 -0.046100 112 80 35
-0.029859 -0.003537 -0.079740 142 153 151
0.110457 -0.077556 0.181350 111 119 116
-0.045684 0.009799 -0.052480 150 117 75
0.118204 -0.086701 0.096340 116 128 132
-0.033104 -0.008578 -0.022730 42 41 43
-0.043431 -0.010070 -0.021930 102 125 132
-0.040566 0.009089 -0.054100 227 236 227
-0.029831 -0.003468 -0.079740 96 80 57
-0.008725 -0.005663 -0.018410 178 141 59
-0.052662 -0.010711 -0.027010 250 150 110
-0.067809 -0.007025 -0.031960 66 67 63
-0.023499 -0.022566 -0.022820 13 29 20
-0.002526 -0.021710 -0.010800 12 35 29
-0.053116 0.008241 -0.048840 98 85 63
-0.015353 -0.012950 -0.018210 156 155 159
-0.031996 0.000867 -0.029910 129 86 36
-0.029761 -0.003567 -0.079740 137 141 136
-0.095029 -0.043991 -0.002190 111 111 62
-0.036379 -0.009006 -0.019980 69 71 79
-0.047464 0.002140 -0.047280 232 155 159
0.087858 0.073732 0.076440 119 125 123
0.131543 0.021559 0.126510 99 107 106
-0.021603 0.012505 -0.028950 203 173 139
-0.029793 -0.003561 -0.079740 142 149 141
-0.047529 0.007024 -0.049470 19 6 35
-0.042794 0.006095 -0.051000 252 255 249
-0.006554 -0.009622 -0.013260 227 183 111
-0.029824 -0.003504 -0.079740 242 166 163
-0.034758 0.007567 -0.053780 254 255 247
-0.029852 -0.003547 -0.079740 148 156 157
-0.013372 -0.024900 -0.018910 0 16 14
-0.045269 0.008763 -0.052910 57 49 65
-0.029717 -0.003504 -0.079740 141 144 147
0.127827 0.037212 0.120970 152 153 147
-0.046526 -0.003808 -0.055350 235 235 235
0.140049 0.088807 0.095510 109 117 114
0.056780 0.079192 0.079100 134 138 133
-0.029686 -0.003562 -0.079740 118 130 136
0.095046 -0.116063 0.175980 81 88 94
-0.053337 -0.000634 -0.040060 139 57 22
-0.051049 -0.002250 -0.053410 117 108 101
0.191535 -0.098682 0.313320 114 122 121
-0.029843 -0.003503 -0.079740 150 74 42
-0.057746 0.014560 -0.043720 122 105 87
0.156918 0.076965 0.132380 85 88 87
-0.049215 0.009650 -0.050770 97 81 60
-0.029766 -0.003566 -0.079740 138 144 142
-0.041987 0.006626 -0.052320 250 255 249
-0.043165 -0.008916 -0.021930 82 101 103
-0.030105 0.005909 -0.043960 254 255 249
-0.003750 -0.024092 -0.014660 14 39 32
-0.038824 0.007443 -0.050710 225 232 224
0.275155 0.101043 0.250690 7 14 8
-0.038945 -0.003835 -0.024910 167 118 61
-0.039113 -0.003919 -0.024910 170 124 68
-0.029722 -0.003565 -0.079740 129 139 142
0.135554 0.036039 0.101470 48 54 56
-0.022501 0.000034 -0.029770 93 77 54
-0.036397 0.007573 -0.052790 251 253 240
-0.063803 -0.013113 -0.010160 67 99 108
-0.041446 0.003055 -0.041330 106 94 94
-0.029803 -0.003552 -0.079740 138 145 139
-0.026703 -0.019477 -0.020650 8 21 16
-0.039821 0.006740 -0.051540 236 241 229
-0.029814 -0.003541 -0.079740 128 135 129
0.051690 -0.100788 0.132380 127 135 136
-0.013573 -0.007253 -0.018610 203 167 117
0.099354 0.077150 0.081850 120 126 124
-0.039578 0.003836 -0.041260 246 185 190
-0.027510 -0.029268 -0.015220 22 53 49
0.040461 0.077150 0.081850 123 127 120
-0.087078 -0.019598 0.004850 126 130 123
-0.033609 0.006337 -0.052300 251 255 246
-0.029704 0.000610 -0.030240 176 127 70
-0.032931 0.002398 -0.034070 255 176 180
0.122499 0.069998 0.118830 115 122 116
-0.067513 -0.015753 -0.005140 111 146 161
-0.042603 0.004012 -0.041570 253 176 182
-0.076762 -0.018144 -0.001540 123 128 118
0.042271 -0.107950 0.132380 136 142 140
-0.044241 -0.003245 -0.024910 179 174 100
-0.029747 -0.003562 -0.079740 140 144 139
-0.044907 0.001690 -0.060020 122 123 114
-0.070140 -0.006202 -0.034680 138 138 132
-0.037126 0.004287 -0.040480 252 173 176
0.137106 0.070780 0.132380 109 113 108
-0.016809 0.007796 -0.009760 145 123 99
-0.045468 0.004851 -0.046220 255 179 183
-0.058521 -0.029474 0.016420 133 166 179
0.139154 0.077320 0.102360 90 98 95
0.096050 -0.020670 0.124260 103 111 110
0.201782 -0.035073 0.247790 93 101 102
-0.029862 -0.003548 -0.079740 138 151 150
0.072056 0.074971 0.086160 132 139 133
0.128924 -0.022176 0.105060 16 16 18
-0.031954 -0.012378 -0.023080 134 141 147
-0.016579 -0.014179 -0.018210 75 80 89
0.116960 -0.018701 0.141170 104 115 113
-0.023507 -0.024091 -0.023670 19 48 45
0.066975 0.086430 0.086160 140 144 137
0.066724 0.016141 0.113680 100 107 113
-0.032513 0.004655 -0.036260 213 135 135
-0.044184 0.009530 -0.053610 136 114 104
-0.029781 -0.003558 -0.079740 142 146 139
-0.065512 -0.011814 -0.011180 136 178 193
-0.001613 -0.011093 -0.012900 18 48 42
0.088481 0.078247 0.082550 122 129 123
-0.029683 -0.003565 -0.079740 122 132 139
-0.029751 -0.003561 -0.079740 135 142 136
0.015835 -0.008876 0.005830 18 45 40
-0.029683 -0.003465 -0.079740 115 121 119
-0.029763 -0.003563 -0.079740 138 142 137
-0.077810 -0.027217 0.026870 126 130 123
-0.043281 0.009124 -0.054030 169 170 164
-0.010637 -0.001415 -0.018210 111 82 31
-0.029829 -0.003558 -0.079740 145 153 152
-0.031374 0.008567 -0.049100 163 151 131
-0.025218 0.002858 -0.033270 169 118 71
-0.029692 -0.003562 -0.079740 119 129 134
0.138786 -0.042613 0.107850 48 55 47
-0.040909 0.007367 -0.052990 211 216 202
0.138736 -0.015451 0.093880 71 62 69
-0.028698 0.018178 -0.040690 138 139 130
-0.041501 0.009538 -0.054380 180 180 174
0.127290 0.028646 0.115710 159 160 156
0.110852 -0.059858 0.113680 93 100 104
-0.045166 -0.000734 -0.059960 199 194 192
0.115346 0.035620 0.132380 14 20 18
0.126713 0.014133 0.132380 48 53 62
-0.045711 0.002540 -0.061240 102 103 99
-0.009728 0.003643 -0.014310 163 127 47
-0.029726 -0.003489 -0.079740 108 112 105
-0.050474 -0.000710 -0.033210 125 45 16
-0.029671 -0.003557 -0.079740 115 125 132
-0.041208 0.003659 -0.042490 253 176 182
-0.029856 -0.003467 -0.079740 106 104 96
0.109924 -0.077996 0.175980 112 120 119
-0.023354 -0.022043 -0.023080 13 29 20
-0.039370 0.010788 -0.054450 188 189 183
-0.002215 -0.008353 -0.013850 25 49 37
0.165114 -0.030960 0.209700 106 114 113
0.125215 -0.095391 0.143810 53 59 59
-0.057840 0.000414 -0.044370 193 104 62
-0.029839 -0.003467 -0.079740 101 83 63
-0.029789 -0.003559 -0.079740 142 149 141
-0.027052 -0.014974 -0.022290 60 65 83
0.011561 -0.006531 0.002790 22 48 46
-0.029784 -0.003566 -0.079740 141 145 140
-0.047042 -0.001115 -0.029710 163 157 92
-0.039800 -0.016024 -0.019790 59 69 76
-0.051151 -0.004826 -0.034350 255 147 95
-0.029705 -0.003524 -0.079740 105 113 110
-0.029699 -0.003563 -0.079740 124 135 133
-0.029811 -0.003550 -0.079740 135 143 140
0.013805 0.075000 0.070160 116 117 111
-0.067671 -0.012503 -0.019310 51 46 26
0.002003 -0.016260 -0.011060 19 46 41
0.157389 0.073752 0.143810 101 108 100
0.140318 -0.061408 0.137310 96 107 107
-0.033634 -0.007445 -0.022640 170 172 178
-0.031500 0.005581 -0.043510 254 255 247
-0.011846 -0.006849 -0.019110 183 155 107
-0.059918 -0.022495 0.008040 147 184 201
-0.029775 -0.003568 -0.079740 142 146 141
0.054508 0.050404 0.124260 105 109 102
-0.007462 0.002225 -0.014430 127 113 94
0.038705 -0.088781 0.120970 119 127 128
-0.038438 0.008603 -0.052620 254 255 249
-0.025989 -0.014461 -0.022200 73 81 100
-0.046353 0.002578 -0.044440 255 179 188
-0.058814 0.015449 -0.044440 153 136 120
-0.004032 0.004230 -0.016100 159 130 75
-0.034013 -0.005055 -0.023420 177 166 159
0.157637 0.067710 0.120970 7 13 15
-0.037292 -0.005888 -0.022110 132 118 110
-0.029773 -0.003568 -0.079740 142 146 141
0.112850 0.038617 0.188870 50 53 52
-0.002478 0.019351 0.007220 143 145 136
-0.029813 -0.003547 -0.079740 135 144 137
-0.029752 -0.003468 -0.079740 137 138 132
-0.029809 -0.003501 -0.079740 254 175 180
0.009626 0.111456 0.123150 129 133 128
-0.049955 -0.002727 -0.054430 122 119 114
-0.021175 -0.002786 -0.028250 120 116 119
-0.029853 -0.003542 -0.079740 140 146 148
-0.029657 0.017850 -0.040850 131 113 91
0.157225 -0.069142 0.181350 106 114 113
-0.039292 0.006036 -0.047280 97 88 95
0.131730 -0.062100 0.095510 89 96 100
0.073186 -0.052561 0.125380 111 119 118
-0.029704 -0.003560 -0.079740 122 132 135
0.024180 -0.019137 0.019230 108 115 109
0.018845 0.073720 0.074500 119 120 114
-0.001504 -0.017221 -0.015000 20 51 47
-0.030769 0.010557 -0.050270 108 79 36
-0.029861 -0.003567 -0.079740 150 162 166
-0.008183 -0.011368 -0.012300 128 109 51
-0.029821 -0.003541 -0.079740 132 139 133
0.025276 0.061535 0.055980 119 120 114
-0.029708 -0.003530 -0.079740 110 116 114
0.009373 0.071391 0.070770 117 118 112
0.038980 0.083649 0.089160 119 123 116
-0.033256 -0.000789 -0.029370 168 114 63
0.144648 0.037346 0.115710 44 51 45
0.073930 0.075543 0.084700 136 143 137
-0.061141 0.015562 -0.045220 107 92 80
0.140342 -0.057839 0.093080 15 19 33
-0.020793 -0.015828 -0.018000 68 73 82
0.138677 0.008186 0.114690 60 60 60
-0.043342 -0.003755 -0.023760 134 128 74
-0.049520 -0.001063 -0.031710 90 45 11
0.148714 -0.055594 0.129990 81 89 90
-0.019234 0.024097 -0.017170 138 143 133
-0.060391 -0.005362 -0.034890 59 33 18
-0.040318 0.006338 -0.050270 244 246 237
0.021604 -0.013996 0.016670 23 48 43
-0.044749 -0.002010 -0.058140 233 116 75
-0.059266 -0.022243 0.003900 149 184 199
-0.020800 -0.020232 -0.020550 16 30 21
-0.076179 -0.012663 -0.017590 45 37 23
0.133752 -0.012158 0.086900 66 54 65
0.148354 -0.089792 0.194790 116 124 123
-0.029717 -0.003569 -0.079740 128 138 141
-0.002970 -0.014521 -0.015660 27 58 54
-0.044402 0.005563 -0.050430 254 255 249
-0.026315 -0.004599 -0.024590 39 45 58
-0.033657 0.007380 -0.053940 255 255 235
-0.032507 0.008930 -0.052360 157 156 139
-0.054970 -0.023131 0.009090 138 176 190
-0.029762 -0.003566 -0.079740 140 144 139
-0.029857 -0.003495 -0.079740 189 169 161
-0.035138 0.007606 -0.054060 254 255 245
-0.029813 -0.003569 -0.079740 137 148 148
-0.031138 0.007899 -0.049120 158 151 130
-0.101307 -0.031080 0.006220 111 117 117
-0.052970 0.000123 -0.035270 119 60 22
-0.035127 0.005737 -0.045220 254 255 249
-0.029742 -0.003472 -0.079740 138 145 139
-0.029766 -0.003564 -0.079740 141 145 140
0.115639 -0.054950 0.129990 107 115 116
0.059847 0.010119 0.097170 101 107 109
-0.029808 -0.003549 -0.079740 137 145 142
-0.029830 -0.003459 -0.079740 93 77 54
-0.028237 0.004970 -0.031830 101 60 13
0.155362 0.011747 0.110720 9 14 19
-0.029820 -0.003549 -0.079740 136 147 145
-0.069909 -0.008027 -0.031460 135 139 132
-0.029775 -0.003459 -0.079740 104 76 30
-0.045004 -0.002618 -0.056640 176 176 176
-0.013479 0.008330 -0.017170 215 181 148
-0.044223 -0.001137 -0.030170 188 183 111
-0.042821 -0.002594 -0.026250 183 182 113
-0.026267 -0.018481 -0.015990 56 64 61
-0.053906 -0.004591 -0.035430 130 133 136
0.119210 0.029846 0.115710 132 134 125
-0.043670 0.010934 -0.054260 144 111 73
-0.008566 -0.008059 -0.016530 221 169 88
-0.009173 -0.003112 -0.017490 181 140 64
0.105721 0.064655 0.133590 120 124 119
-0.029838 -0.003475 -0.079740 101 87 68
-0.040977 0.008399 -0.053970 191 195 188
-0.022627 -0.021953 -0.022820 14 29 24
-0.052716 0.006483 -0.048080 141 105 66
0.277875 -0.192148 0.399010 121 131 134
-0.022047 -0.021468 -0.020370 11 23 15
-0.102153 -0.022110 0.005050 108 114 114
0.217546 -0.107518 0.205270 110 120 123
-0.023561 -0.009396 -0.024910 56 59 62
-0.058807 0.013946 -0.045160 142 125 109
-0.061361 0.009954 -0.043440 87 84 70
-0.022382 -0.009295 -0.024260 82 81 83
-0.029793 -0.003553 -0.079740 141 145 140
-0.029762 -0.003566 -0.079740 141 145 140
-0.015811 -0.023476 -0.015990 3 12 5
-0.003720 -0.019029 -0.014080 20 45 40
-0.029745 -0.003559 -0.079740 135 142 136
-0.022257 0.014538 -0.031650 148 142 127
-0.060238 0.014169 -0.042070 122 108 91
0.142830 -0.052523 0.111700 30 35 42
-0.029363 0.005671 -0.041260 112 52 50
-0.027936 0.004709 -0.041050 99 71 54
0.141343 -0.001270 0.123150 95 95 95
-0.048098 -0.005635 -0.028250 179 88 40
-0.038386 0.008648 -0.052520 252 255 251
0.083075 -0.070288 0.150720 111 119 118
-0.051259 -0.000538 -0.032740 126 51 16
-0.050313 -0.009193 -0.032260 184 55 18
-0.032777 0.007136 -0.052950 233 223 195
-0.092392 -0.026354 0.004850 98 104 102
-0.038910 -0.006176 -0.019600 57 43 37
-0.029841 -0.003529 -0.079740 39 31 19
-0.041122 0.002864 -0.039550 255 194 200
-0.029795 -0.003553 -0.079740 135 139 134
-0.033353 0.009868 -0.053260 163 158 138
-0.031529 0.006399 -0.049670 244 238 214
-0.029778 -0.003564 -0.079740 144 148 143
0.055284 0.005532 0.087650 101 107 105
-0.029847 -0.003482 -0.079740 98 86 70
-0.008067 -0.005097 -0.018410 164 124 39
-0.046670 0.002394 -0.044570 252 166 173
-0.042038 0.006633 -0.052300 250 255 249
-0.042246 0.008996 -0.054210 210 216 214
-0.096524 -0.021595 0.008250 104 110 110
-0.029860 -0.003481 -0.079740 124 127 126
0.000795 0.001924 -0.009230 118 97 55
-0.029712 -0.003535 -0.079740 112 120 119
-0.064917 -0.007807 -0.030570 140 119 88
0.102754 0.054871 0.141170 112 116 109
-0.101121 -0.041136 -0.002670 146 158 160
-0.050714 0.008476 -0.050030 104 88 65
-0.044946 0.007666 -0.053260 158 155 152
-0.048485 -0.002352 -0.053880 191 94 55
-0.025885 -0.001506 -0.027890 138 129 120
-0.047478 0.006683 -0.048660 235 161 166
-0.029808 -0.003566 -0.079740 140 146 146
0.102511 -0.021511 0.123150 100 108 107
-0.029673 -0.003560 -0.079740 120 132 138
-0.059503 0.012914 -0.043190 115 101 86
0.144251 0.049619 0.132380 4 8 3
-0.034890 0.005681 -0.045030 254 255 249
-0.040923 0.006006 -0.048840 254 255 249
0.147017 0.016811 0.126510 84 95 95
-0.040374 0.002559 -0.039110 255 196 201
-0.029826 -0.003554 -0.079740 145 153 150
-0.022238 0.001842 -0.021840 113 95 75
-0.029747 -0.003507 -0.079740 91 75 52
-0.043376 0.008733 -0.053850 192 198 198
0.138405 0.071105 0.132380 107 111 106
-0.028493 0.005793 -0.041730 110 55 52
-0.043652 -0.015143 -0.018610 136 171 184
-0.040843 -0.011880 -0.019110 64 73 83
-0.038716 0.008043 -0.052660 247 251 244
-0.061219 -0.029884 0.017940 98 102 95
-0.001933 0.038334 0.024200 135 144 137
-0.041151 0.009994 -0.054550 175 176 172
0.130768 0.001096 0.117780 69 82 79
-0.024976 0.014739 -0.035640 129 112 85
0.143036 0.055601 0.147900 28 32 25
-0.047323 0.003423 -0.047810 249 163 170
-0.029748 -0.003464 -0.079740 133 136 135
-0.019121 -0.019865 -0.017070 11 24 19
-0.090777 -0.036334 -0.001700 105 111 111
-0.021158 -0.018128 -0.017900 27 29 37
0.052655 0.080100 0.067790 135 142 136
-0.033315 0.009878 -0.053240 157 152 132
-0.044853 0.000907 -0.059850 128 131 130
-0.029739 -0.003487 -0.079740 145 149 142
-0.004087 -0.009072 -0.013730 69 67 44
0.130224 0.032434 0.116740 55 57 65
0.069934 -0.104144 0.146520 36 41 50
-0.029777 -0.003557 -0.079740 142 146 139
0.119441 -0.028687 0.113680 85 93 94
-0.030979 0.015835 -0.040570 110 84 42
-0.025447 0.005682 -0.033440 97 55 13
-0.049817 0.001285 -0.035900 183 179 111
-0.035006 0.001943 -0.035480 253 171 177
-0.029861 -0.003494 -0.079740 112 103 96
0.137906 0.023477 0.124260 124 124 118
0.124207 -0.017022 0.116740 70 75 82
-0.046382 -0.005565 -0.021210 75 43 11
-0.047145 -0.008172 -0.027310 231 120 66
-0.049331 0.000548 -0.046820 253 168 177
-0.028818 0.006158 -0.043010 253 254 248
-0.029667 -0.003470 -0.079740 75 83 80
-0.060700 -0.010963 -0.023250 57 50 33
0.055566 -0.091093 0.142480 125 133 132
-0.016246 0.026262 -0.014310 142 146 139
-0.084380 -0.024804 0.008670 132 141 132
-0.037042 0.006078 -0.047970 254 255 249
-0.029745 -0.003470 -0.079740 140 144 137
-0.029793 -0.003545 -0.079740 133 134 125
-0.087429 -0.039223 -0.000880 142 152 155
-0.036884 0.004907 -0.041770 254 255 247
0.074872 0.067290 0.110720 121 128 122
-0.108476 -0.032061 0.013300 115 118 119
-0.021713 0.000010 -0.030110 89 76 54
-0.010699 -0.006684 -0.018710 207 156 57
-0.032834 0.007731 -0.052810 148 136 118
-0.053921 -0.004103 -0.036260 243 135 91
0.134981 0.041201 0.149300 18 26 15
-0.049862 -0.022632 0.010600 129 162 175
-0.007287 -0.011925 -0.013620 22 19 3
0.158070 0.019343 0.126510 27 30 33
0.108118 -0.058704 0.110720 99 105 107
0.127841 0.010716 0.129990 19 25 27
0.042979 0.074650 0.105980 123 125 116
-0.029799 -0.003562 -0.079740 143 149 147
0.117246 -0.018523 0.138580 103 114 112
-0.061416 -0.020558 -0.023670 137 145 144
-0.032541 0.002392 -0.033560 253 176 180
-0.029702 -0.003525 -0.079740 100 108 107
-0.029852 -0.003545 -0.079740 145 153 154
-0.029803 -0.003550 -0.079740 136 143 137
0.010295 -0.010310 0.001000 16 43 38
-0.042334 -0.012728 -0.020840 104 139 152
-0.004678 0.032833 0.014480 138 142 137
-0.050995 -0.002393 -0.053920 120 116 109
-0.050858 0.008900 -0.049890 100 87 65
0.102482 -0.066398 0.150720 112 120 119
-0.013126 0.008205 -0.014660 173 147 118
-0.032797 0.010338 -0.053140 150 147 133
-0.057712 -0.006667 -0.032920 57 51 53
-0.029808 -0.003542 -0.079740 128 132 127
-0.064311 -0.013205 -0.017170 44 37 29
-0.041860 0.005827 -0.044270 251 161 165
-0.052399 0.006492 -0.047420 16 45 86
-0.029853 -0.003486 -0.079740 118 124 122
-0.037386 -0.025842 -0.013620 24 55 51
-0.029783 -0.003564 -0.079740 144 148 143
-0.008428 0.005505 -0.012420 120 94 50
-0.029780 -0.003563 -0.079740 143 147 140
-0.027844 0.015555 -0.037730 137 115 89
-0.031862 -0.014577 -0.018100 30 35 42
-0.029698 -0.003556 -0.079740 23 27 39
-0.034428 0.005712 -0.043650 254 255 249
-0.029743 -0.003561 -0.079740 131 139 136
-0.039877 0.009312 -0.054050 207 209 198
-0.024738 -0.010154 -0.024910 76 75 84
-0.050244 0.001489 -0.047610 123 70 55
0.009903 0.077301 0.070160 112 113 107
-0.042998 0.009198 -0.054120 164 165 159
-0.041985 0.003576 -0.046870 255 176 183
-0.029795 -0.003566 -0.079740 140 148 145
-0.056647 0.014471 -0.044440 121 104 88
-0.030084 0.001218 -0.030240 139 87 35
0.151678 -0.036532 0.112690 36 32 33
-0.009650 -0.006843 -0.017490 224 170 74
-0.040114 0.002428 -0.039150 249 190 193
-0.011495 -0.020630 -0.019790 2 13 9
-0.029771 -0.003565 -0.079740 141 145 140
-0.049316 0.000504 -0.046760 255 178 186
-0.083384 -0.035988 -0.009230 117 126 136
-0.047192 0.002362 -0.036410 83 76 57
-0.053135 0.000296 -0.034010 51 28 7
-0.029838 -0.003551 -0.079740 124 134 139
0.121725 -0.046647 0.111700 81 89 88
-0.029798 -0.003543 -0.079740 131 133 124
0.126299 0.033551 0.133590 49 57 54
-0.029785 -0.003567 -0.079740 145 149 144
-0.029861 -0.003513 -0.079740 71 60 66
-0.025616 0.019030 -0.034510 139 140 134
-0.040409 0.003263 -0.040810 110 87 97
0.125859 -0.005031 0.126510 71 77 79
-0.041017 0.009222 -0.054150 209 216 210
-0.041986 0.005581 -0.049150 254 255 251
0.078488 0.041831 0.150720 92 95 94
-0.035838 0.005254 -0.041010 254 255 249
-0.029773 -0.003557 -0.079740 141 145 138
0.117939 -0.010461 0.118830 14 16 24
-0.027036 -0.002770 -0.027090 153 148 156
-0.386984 0.103822 0.289960 132 137 142
-0.018231 -0.002659 -0.025150 152 150 142
-0.005893 0.002443 -0.015330 119 95 43
-0.020686 -0.003656 -0.028610 75 77 83
-0.029739 -0.003485 -0.079740 142 146 139
-0.006253 -0.022403 -0.017590 4 17 12
0.075384 -0.077431 0.125380 114 123 116
-0.094231 -0.036213 -0.000540 112 114 67
0.142396 -0.082360 0.167510 116 126 129
0.138317 0.014425 0.190810 91 99 98
0.006469 -0.005227 -0.004390 20 47 42
-0.037094 0.008002 -0.052660 153 157 152
0.141330 0.028601 0.131180 80 80 76
-0.042645 0.006376 -0.051710 252 255 249
-0.029835 -0.003462 -0.079740 98 85 63
-0.071125 -0.017380 -0.004390 111 144 157
0.092095 0.088570 0.085430 120 128 125
-0.044991 -0.002364 -0.056550 175 181 179
-0.029825 -0.003556 -0.079740 142 150 149
0.135965 0.050501 0.138580 46 50 43
-0.048433 0.003590 -0.047500 183 129 132
0.118241 -0.066065 0.102360 101 113 115
0.181725 0.076554 0.162690 9 13 8
-0.046817 -0.024713 0.010600 132 159 172
-0.029993 0.006287 -0.033270 119 45 46
-0.003365 -0.007220 -0.014200 191 171 120
-0.029761 -0.003563 -0.079740 140 144 139
-0.031462 -0.017796 -0.018910 125 131 133
-0.028571 0.016361 -0.038340 132 113 86
-0.029719 -0.003510 -0.079740 46 60 51
-0.020411 -0.002709 -0.028390 88 91 92
-0.029696 -0.003536 -0.079740 110 118 119
0.172832 0.077291 0.132380 26 33 27
-0.042932 0.005440 -0.046900 255 255 245
-0.029606 -0.019564 -0.022290 12 26 17
0.086246 -0.037364 0.110720 113 121 122
0.018371 0.042631 0.063260 131 133 124
-0.039352 0.009889 -0.054080 235 245 233
-0.029811 -0.003558 -0.079740 137 148 146
0.131098 -0.114967 0.142480 122 134 138
-0.060812 0.013214 -0.042900 95 81 64
0.109719 -0.002488 0.128820 90 98 97
0.138653 0.027272 0.164280 13 20 24
-0.029817 -0.003548 -0.079740 132 143 139
-0.037566 0.009417 -0.053180 51 55 48
0.099293 0.027967 0.145160 30 30 32
-0.066654 -0.020226 0.004090 148 190 207
-0.043008 -0.007945 -0.020650 75 86 86
0.134520 0.042167 0.093080 40 48 47
0.146253 -0.094427 0.194790 116 127 127
-0.008725 -0.020785 -0.014310 12 35 29
-0.036749 -0.004929 -0.021480 119 105 97
-0.029796 -0.003561 -0.079740 140 146 144
-0.036592 -0.002604 -0.026860 169 120 61
0.131879 0.030093 0.113680 20 26 24
0.146704 0.076591 0.103250 80 84 79
-0.029743 -0.003568 -0.079740 136 143 137
-0.045203 0.010720 -0.054570 87 71 50
-0.029683 -0.003559 -0.079740 115 127 131
0.051954 0.077182 0.093080 126 130 125
0.110779 0.068552 0.119890 122 126 121
-0.046122 -0.003470 -0.055560 220 222 211
-0.068445 -0.010416 -0.019690 134 113 82
0.011050 0.073957 0.074500 116 118 109
0.061080 0.072289 0.102360 131 135 128
-0.029795 -0.003556 -0.079740 136 143 137
-0.029801 -0.003558 -0.079740 141 149 146
-0.039715 0.006004 -0.046870 208 207 207
-0.041567 -0.008332 -0.019210 86 79 73
-0.060971 0.012104 -0.043890 98 94 87
-0.052556 0.007227 -0.049020 92 79 55
-0.033008 0.010137 -0.054060 145 139 126
-0.034491 0.005714 -0.049020 254 255 249
-0.037722 0.006810 -0.049820 83 88 93
-0.022257 0.014243 -0.031650 135 122 100
-0.027845 0.012470 -0.040400 106 77 36
0.112017 0.053854 0.147900 106 110 103
-0.072121 -0.015340 -0.009630 63 57 44
-0.063401 0.000153 -0.042600 126 101 67
0.111502 -0.090339 0.125380 118 129 129
0.151234 0.038286 0.136060 9 12 13
0.156194 0.060296 0.141170 9 16 10
-0.022371 -0.009816 -0.024180 126 126 130
0.118799 -0.067577 0.098020 52 60 61
-0.028968 0.002562 -0.031650 120 70 20
-0.050840 0.008004 -0.048050 18 16 23
-0.049987 0.004729 -0.047310 113 106 75
-0.017413 0.009069 -0.025230 234 195 162
0.027349 0.057909 0.076440 129 131 122
-0.029776 -0.003560 -0.079740 143 147 142
-0.029859 -0.003487 -0.079740 129 135 137
0.161109 -0.106137 0.196830 121 131 134
-0.009566 -0.020530 -0.022900 0 13 8
-0.029859 -0.003479 -0.079740 120 123 124
-0.022754 0.019848 -0.028250 138 142 135
-0.044807 -0.000830 -0.059540 160 161 157
-0.029681 -0.003569 -0.079740 122 132 139
-0.038111 0.009616 -0.053520 186 189 188
-0.029856 -0.003535 -0.079740 134 140 140
-0.010001 -0.028308 -0.014880 41 75 72
-0.033373 0.005674 -0.044230 254 255 249
-0.050425 0.010171 -0.049720 96 80 59
-0.051839 -0.004613 -0.034510 253 129 84
-0.045144 -0.003663 -0.025870 130 128 66
-0.031774 -0.021834 -0.017900 14 32 26
-0.039503 -0.016035 -0.016960 17 20 23
-0.045175 0.000710 -0.060740 126 133 127
0.094653 0.069128 0.127660 112 119 113
-0.024419 -0.016291 -0.019400 85 90 95
-0.029783 -0.003555 -0.079740 144 145 139
-0.029778 -0.003554 -0.079740 146 147 141
-0.029813 -0.003542 -0.079740 129 136 130
-0.053641 -0.007814 -0.030500 251 142 89
-0.029675 -0.003565 -0.079740 121 132 141
-0.023948 -0.029622 -0.014080 46 77 75
-0.029690 -0.003554 -0.079740 117 124 128
-0.029706 -0.003539 -0.079740 104 112 111
-0.029820 -0.003548 -0.079740 135 146 142
-0.034451 0.005682 -0.048970 254 255 247
-0.038639 0.008163 -0.052770 245 250 240
-0.025416 0.006706 -0.032320 93 54 7
0.065535 0.083525 0.089930 131 134 133
-0.069373 -0.006857 -0.031210 121 125 120
-0.029721 -0.003564 -0.079740 130 137 141
-0.029803 -0.003549 -0.079740 136 143 137
-0.093536 -0.018538 0.006220 99 102 101
0.119264 -0.001717 0.145160 90 98 97
0.132310 -0.061558 0.094690 81 88 92
0.012620 0.052063 0.063810 131 132 121
-0.037083 -0.012142 -0.017900 38 40 46
-0.005229 0.002117 -0.015660 149 114 39
-0.029753 -0.003483 -0.079740 195 163 131
-0.089525 -0.026605 0.000310 98 101 100
-0.029684 -0.003460 -0.079740 114 122 119
-0.000998 -0.012769 -0.012660 17 48 46
-0.051230 0.004954 -0.046220 115 112 67
0.118774 -0.085229 0.177750 114 120 118
0.544864 -0.283132 0.520160 116 127 136
0.141034 -0.010573 0.122050 60 63 66
-0.061961 -0.013598 -0.009760 116 151 166
-0.039033 -0.015452 -0.050890 140 147 141
0.124409 -0.013526 0.088400 129 139 142
-0.032574 0.006469 -0.051690 252 248 223
0.063857 -0.098375 0.141170 121 132 130
-0.010411 -0.008519 -0.016860 240 192 128
0.145851 0.054498 0.131180 9 15 15
-0.069687 -0.007359 -0.031460 135 139 134
-0.048887 0.008291 -0.050930 129 99 65
-0.039844 0.003815 -0.041370 98 94 99
-0.043770 0.002863 -0.044670 249 174 182
-0.002632 -0.021498 -0.010800 10 35 30
-0.032602 -0.001502 -0.025630 61 44 26
-0.029773 -0.003462 -0.079740 105 79 39
-0.013874 -0.006370 -0.019400 187 140 57
-0.029777 -0.003563 -0.079740 143 147 140
-0.024794 0.017102 -0.035220 134 138 131
-0.029847 -0.003501 -0.079740 71 18 3
-0.028688 0.016019 -0.040320 133 114 87
0.141391 0.092573 0.095510 109 117 116
-0.029702 -0.003563 -0.079740 123 134 134
-0.029707 -0.003526 -0.079740 107 115 114
-0.029846 -0.003545 -0.079740 119 123 77
-0.026798 -0.008832 -0.027160 24 26 36
-0.016635 0.005543 -0.010540 136 119 94
-0.046130 0.004770 -0.046340 255 174 178
-0.047263 -0.001213 -0.030170 171 165 100
0.002751 -0.000448 -0.008970 20 38 32
-0.041650 -0.024032 -0.009370 24 53 50
-0.026899 -0.003258 -0.027530 50 54 68
0.131292 -0.021314 0.093880 50 38 60
-0.053436 0.011932 -0.046520 96 80 57
-0.041488 0.007340 -0.053260 224 229 217
-0.061031 0.013845 -0.042640 98 83 71
-0.029770 -0.003568 -0.079740 138 145 139
0.018364 -0.010050 0.009300 14 43 40
0.078658 -0.087377 0.158060 106 114 111
0.159044 0.067431 0.112690 4 7 8
