ply
format ascii 1.0
element vertex 1215
property float x
property float y
property float z
property uchar blue
property uchar green
property uchar red
end_header
-0.099204 0.010946 0.002976 151 149 143
0.008045 -0.006075 0.028516 98 107 106
0.061235 -0.026875 -0.024064 68 68 57
-0.020679 0.008918 0.004796 111 120 118
-0.029911 0.010158 0.015666 102 111 110
-0.038304 -0.013749 0.015286 131 137 136
-0.008770 0.042128 -0.011214 133 140 136
-0.035686 -0.050294 0.003876 126 126 115
0.071949 0.025249 -0.014654 116 116 105
0.041209 0.014748 -0.000764 9 16 7
-0.036206 0.008335 0.010996 96 105 104
0.124849 0.024363 0.042796 16 19 11
-0.039924 -0.001406 -0.027534 126 132 125
-0.094224 0.012431 -0.002404 142 144 138
-0.040800 -0.040873 0.053096 24 30 29
-0.006124 0.025804 0.009296 133 139 138
0.019402 -0.041462 -0.017844 114 115 107
-0.046342 0.030924 -0.009394 121 128 124
-0.002614 -0.020879 0.014546 58 67 65
0.022980 0.042568 -0.007254 140 148 141
0.063132 0.028353 -0.031524 114 115 102
-0.078046 0.039206 -0.018604 121 124 116
0.013146 -0.012310 0.040566 88 97 96
0.079507 -0.024094 -0.015874 15 17 43
-0.078323 0.030513 -0.017844 124 124 118
0.057760 -0.010153 -0.023904 39 56 75
-0.084543 0.018636 -0.009394 144 145 137
0.047652 -0.003481 -0.015474 65 67 61
-0.076124 -0.048615 -0.017064 243 219 199
0.072509 0.047551 -0.007494 84 87 74
0.020297 0.006855 0.015286 13 12 9
0.006916 -0.052661 0.004796 117 118 110
0.049084 -0.016370 -0.020804 7 16 7
0.023155 -0.040440 -0.023064 14 19 15
-0.072557 0.022951 -0.001584 130 137 133
-0.066277 0.040954 -0.020084 121 123 117
0.048032 -0.001657 0.021146 11 22 14
-0.041766 0.009206 0.010996 98 104 103
0.054489 -0.015861 -0.013604 8 13 9
0.041758 0.045036 -0.002934 136 142 135
-0.067901 -0.091699 0.079666 131 133 122
0.076462 -0.000640 0.013096 115 130 131
0.010605 -0.024721 0.004176 97 98 95
-0.000822 0.038694 -0.011654 146 152 151
-0.045613 -0.036147 0.064956 93 102 100
0.035433 -0.033610 -0.046204 63 58 67
0.016607 0.035563 -0.002934 134 140 139
-0.069421 0.000824 -0.018794 107 113 112
-0.010193 0.009070 0.015666 118 127 126
-0.019976 -0.025543 0.047466 114 123 122
-0.072738 -0.038590 -0.007974 167 161 149
-0.067953 -0.049934 0.047466 14 21 17
0.001660 0.033312 -0.007734 137 146 144
-0.016623 0.012622 0.028516 123 132 131
0.013906 -0.001328 0.019526 77 83 83
-0.013960 0.000823 0.017566 133 142 141
-0.083788 0.023074 -0.010764 133 129 129
0.040839 0.007071 0.021146 45 54 52
-0.010552 -0.023922 0.053096 109 115 114
-0.030513 -0.039778 0.055726 111 113 107
-0.009490 0.002298 0.030856 124 133 131
0.034744 -0.022958 -0.007014 115 114 106
0.055891 -0.011593 -0.019354 24 59 93
0.003040 0.028504 0.001216 139 145 144
0.001318 0.022305 0.007646 119 128 127
0.066145 0.017536 0.008296 8 9 0
-0.048320 0.035672 -0.014854 118 123 119
-0.015162 -0.004418 0.038406 120 126 125
0.004093 -0.009647 0.046866 98 107 105
0.068240 0.026828 0.006356 12 13 5
-0.048126 -0.064038 0.053746 128 130 119
-0.068909 -0.048890 -0.018794 164 154 145
-0.011476 0.027945 -0.002404 123 132 130
0.031743 -0.028730 -0.020984 79 81 70
-0.014374 -0.003977 0.039486 117 123 122
-0.059047 -0.021999 -0.032324 244 225 204
-0.010619 0.002849 0.033286 126 132 131
0.023389 -0.045423 -0.013394 106 107 99
0.063768 -0.013665 -0.027984 95 73 59
0.030301 -0.030705 -0.020264 19 23 22
0.045827 0.044977 0.000076 120 126 119
-0.055025 0.032940 -0.018224 122 128 121
0.019332 0.021447 0.008296 123 132 131
0.025985 0.016141 0.015666 122 131 130
0.073733 0.013868 -0.004504 4 11 7
0.068973 0.041355 -0.009394 77 84 75
-0.057938 -0.055932 0.028516 130 129 121
-0.042454 -0.066981 0.013096 123 123 112
-0.060889 -0.013995 -0.010314 207 202 185
-0.070590 0.036258 -0.029294 118 118 112
0.036972 0.021447 0.008296 114 123 121
-0.061454 -0.008194 -0.010314 201 192 179
0.108649 0.013723 0.015286 35 36 28
-0.061755 -0.084451 0.047466 138 133 123
-0.033608 0.042466 -0.017844 118 124 117
-0.055877 -0.062052 0.089996 118 120 114
-0.013781 0.018303 0.004796 130 139 138
0.040205 0.041877 -0.006274 129 131 125
0.032224 -0.030605 -0.026924 122 128 142
-0.078212 -0.045863 -0.018414 168 153 145
0.047184 0.002838 0.023226 14 21 17
0.041677 0.011984 0.022386 80 90 85
0.064824 0.030286 -0.017454 95 101 94
0.043296 -0.018690 -0.009154 144 154 149
-0.067035 0.036778 -0.022034 119 125 118
0.046985 0.003640 -0.001044 7 12 8
0.057102 0.024160 0.006996 18 30 25
-0.033472 0.036258 -0.019354 117 124 120
0.029487 -0.010688 0.038406 11 18 14
0.023103 -0.040308 -0.023904 12 18 17
-0.050156 -0.069176 0.028056 130 130 119
0.068287 0.025079 0.006676 7 8 0
-0.013387 -0.014101 0.041116 117 126 124
0.038294 -0.019120 -0.009154 99 100 92
0.045355 -0.021959 -0.028724 17 18 10
0.009433 -0.055903 0.000356 115 118 110
0.057757 -0.041111 -0.015874 10 12 6
0.047529 0.025774 0.003876 96 106 101
-0.039111 0.037359 -0.016074 122 127 123
0.067021 0.012787 -0.002134 104 94 72
0.056767 -0.036107 -0.011434 11 11 5
0.032851 0.029484 -0.001044 134 141 137
-0.041478 0.009162 0.010646 96 102 101
0.051551 -0.027848 -0.018224 54 56 50
-0.037341 -0.013225 0.030386 122 131 130
0.015473 -0.005077 0.006676 20 24 23
-0.080257 -0.060695 0.052446 116 122 115
-0.070272 0.026120 -0.004754 125 131 124
-0.028549 0.006135 0.013456 104 113 111
-0.077066 -0.041234 -0.022384 153 149 137
-0.044094 0.034378 -0.003984 116 125 123
-0.041439 0.040751 -0.018604 109 115 108
0.042076 0.017066 -0.001584 29 34 30
0.039074 -0.018622 -0.009624 122 123 120
0.020232 -0.002999 0.020326 47 53 52
-0.005338 0.035650 -0.003464 136 145 143
0.035866 0.029479 0.012386 125 135 130
-0.083439 0.016529 -0.009854 132 133 130
-0.028092 -0.018426 0.045096 121 132 131
0.052067 -0.028916 -0.017644 52 53 45
-0.064342 -0.034625 -0.012964 225 217 196
-0.070590 -0.030666 -0.017454 204 188 176
-0.031571 -0.043859 -0.008214 127 129 118
0.009830 0.033878 0.003276 138 144 143
0.122337 0.024564 0.039486 11 13 7
0.065023 -0.013665 -0.027984 90 69 58
0.039523 0.038653 0.001506 123 129 122
0.002602 0.037687 -0.014024 147 152 148
-0.046072 -0.004110 -0.038574 107 107 107
0.026785 -0.017687 0.001506 44 56 58
-0.025959 0.030638 -0.009394 125 133 126
0.000314 -0.037368 0.000646 109 111 105
-0.064490 -0.044100 0.046276 0 17 34
-0.046364 0.027839 -0.011214 122 132 127
-0.066229 0.031481 -0.018604 116 121 117
-0.078699 0.023066 -0.009394 126 132 125
-0.050996 0.001971 -0.024554 113 118 114
0.060944 0.040638 -0.003194 83 91 84
-0.050600 0.025184 -0.006764 122 131 129
-0.029078 0.013539 0.002086 97 106 104
-0.018078 0.028172 -0.008694 124 133 131
0.061110 -0.019807 -0.029294 110 99 88
0.052493 -0.032278 -0.039014 45 47 41
0.017814 -0.024387 -0.000204 94 95 92
-0.033064 -0.013282 0.038406 123 132 131
0.022581 -0.033084 -0.018034 14 22 15
0.050939 -0.025276 -0.005014 13 21 14
0.030619 0.042265 -0.004244 141 147 140
-0.015145 0.004912 0.027606 116 125 124
0.071836 0.038047 -0.001044 78 85 76
-0.065303 -0.044863 0.062736 98 104 103
-0.039635 0.035936 -0.028864 116 121 117
0.015890 0.028907 0.004486 133 142 140
0.041704 -0.036179 -0.020804 90 83 84
0.014372 -0.048090 -0.003464 114 115 107
-0.084077 0.021483 -0.001864 125 131 124
-0.009657 0.023402 0.007966 126 135 133
-0.033280 0.036238 -0.019904 116 123 119
0.002357 0.013233 0.027156 123 132 130
0.057536 -0.013537 -0.015064 30 51 60
-0.094983 0.010450 -0.004244 70 71 63
-0.060559 -0.065750 0.027156 24 23 20
-0.017720 0.005311 0.018336 117 126 125
-0.088236 -0.083937 0.059156 137 137 126
-0.009026 0.010688 0.018336 120 126 126
0.020412 -0.045372 -0.025524 106 105 97
0.060082 0.013909 0.008956 7 13 6
0.020282 -0.062185 0.018736 116 117 109
0.076479 0.035465 0.014916 27 32 28
0.056285 -0.011735 -0.019164 28 68 106
0.031691 -0.035426 -0.043154 21 22 30
-0.024782 -0.018024 0.045676 119 128 127
0.012183 -0.050142 -0.017644 119 119 113
0.043574 -0.028029 -0.025044 40 47 63
0.059187 0.032183 0.005416 83 92 83
0.017585 -0.019698 -0.007254 54 59 55
0.003342 0.005647 0.017946 24 24 24
-0.072348 0.022379 0.000926 144 146 140
0.059531 -0.015799 -0.032724 123 106 91
-0.064182 -0.052186 0.041676 31 24 19
0.047214 -0.022964 -0.027834 30 32 26
0.017140 -0.002575 0.013826 22 28 21
0.012257 -0.037044 0.014546 107 109 103
-0.045581 0.018920 -0.004754 101 105 104
0.031787 0.003803 0.023226 75 86 90
-0.078986 0.021588 -0.007014 130 129 126
-0.053327 0.021351 -0.009394 111 120 118
-0.009736 0.039435 -0.008924 134 141 137
-0.078154 0.037485 -0.021864 113 113 107
0.014901 0.032043 0.002676 137 143 142
0.021663 -0.036979 -0.003984 100 102 96
0.028443 0.037223 -0.005774 140 147 143
0.012857 0.042334 -0.009154 140 146 139
0.083717 0.004149 0.013096 57 59 48
-0.043271 0.015537 0.011336 96 105 103
-0.083993 -0.062619 0.070386 74 82 75
-0.015614 -0.065229 0.030856 123 122 114
0.018484 -0.024795 -0.010084 114 114 108
0.052736 0.044599 0.000926 107 114 105
0.020165 -0.032677 -0.029724 19 21 15
0.048060 -0.025259 -0.024724 50 56 49
-0.038557 -0.013903 0.014916 131 137 136
0.040572 -0.054547 -0.007974 68 70 64
0.019566 -0.030537 -0.020804 17 19 13
-0.026210 0.000393 0.020326 90 92 86
0.068856 0.008344 0.015666 5 10 6
-0.024623 -0.012283 0.044516 46 46 46
-0.026351 0.023906 0.006046 122 131 129
0.054542 -0.004511 -0.027384 51 55 44
-0.073605 -0.047507 -0.018224 194 178 161
0.007595 -0.038324 0.019926 105 107 101
-0.046885 0.035782 -0.010994 122 128 121
0.066747 0.025609 -0.019164 113 115 104
-0.003829 0.029959 -0.004504 128 137 135
-0.033478 0.021513 0.000646 99 110 109
-0.052623 0.027267 -0.007974 125 130 126
0.057636 -0.014437 -0.030844 99 83 100
-0.057237 -0.048547 0.045096 114 116 105
-0.077135 0.017381 -0.002934 142 148 141
0.053156 0.044769 -0.009154 90 97 93
0.020134 -0.054635 0.026706 104 106 100
-0.028587 0.040960 -0.017264 122 128 121
0.060228 -0.020078 -0.030154 127 118 105
-0.058626 -0.002689 -0.024394 111 118 114
-0.020859 -0.020337 0.063466 116 125 124
0.016299 -0.018479 0.017176 94 99 95
0.047712 -0.019729 -0.008924 119 129 124
-0.040134 -0.022718 0.011336 119 125 124
0.086735 0.026284 0.007966 15 17 11
-0.005693 -0.010575 0.041116 107 118 117
0.064722 0.018360 -0.030434 118 116 104
-0.091579 -0.025239 0.006996 231 211 192
-0.052970 0.041134 -0.019534 119 121 115
-0.081384 -0.062849 0.057766 114 120 113
0.022293 -0.040726 -0.027834 16 18 12
0.064632 0.045251 -0.001584 86 95 86
-0.064754 -0.050096 0.060566 14 31 32
-0.032882 0.037134 -0.013184 114 119 115
-0.017735 0.009161 0.012036 121 130 129
-0.030494 -0.044337 -0.008454 127 127 116
-0.046388 -0.002413 -0.029864 115 121 114
0.003331 0.032768 -0.005014 137 146 144
-0.038551 -0.000906 -0.022384 123 131 124
0.028545 0.026653 -0.006764 133 140 136
0.052575 0.005717 0.018736 10 17 8
0.013486 -0.050978 -0.000764 114 115 107
-0.039906 0.005044 -0.037124 111 118 114
0.039784 0.029236 0.006046 128 137 135
-0.052614 -0.078169 0.103816 124 125 117
-0.081384 0.004606 0.002676 111 116 112
0.068791 0.005381 0.023646 9 10 7
0.002154 0.032119 -0.004754 140 149 147
-0.004430 0.038380 -0.004504 139 145 144
-0.034116 -0.013152 -0.024064 126 131 127
-0.081139 -0.061127 0.057766 113 119 112
0.067547 0.028781 -0.009394 2 12 7
0.048408 -0.027850 -0.037464 53 56 48
-0.070004 -0.054357 0.071186 15 32 33
0.035248 -0.028102 -0.024394 77 82 85
-0.067596 -0.022379 -0.028864 250 229 204
-0.039333 0.003110 0.010996 100 111 109
-0.042196 0.001273 0.019126 88 97 96
0.015831 -0.004053 0.008626 23 24 21
-0.044862 0.010060 -0.013604 119 127 120
0.020312 0.036261 -0.007974 138 145 141
0.040979 0.034283 0.005726 123 133 128
-0.057923 -0.059816 0.016416 121 120 112
-0.032897 0.040625 -0.017644 122 124 118
-0.053207 -0.064609 0.030386 129 129 118
0.029674 -0.028064 -0.045164 58 54 67
-0.053897 -0.007099 -0.045684 133 134 126
-0.058014 0.026080 -0.008924 130 135 131
0.017896 -0.039837 0.011336 102 103 100
-0.062429 0.027442 -0.012314 119 124 120
0.041390 -0.029187 -0.025524 16 26 46
-0.037909 0.039419 -0.009854 118 125 121
-0.137669 -0.091945 0.104966 126 125 117
0.048141 -0.026107 -0.037914 66 64 58
0.073683 0.013520 -0.004754 5 12 8
-0.063981 0.035143 -0.016274 116 121 117
0.039201 -0.020390 -0.007494 85 85 79
-0.037365 -0.011480 0.028056 121 130 128
-0.107513 -0.025781 0.013826 249 227 207
0.074148 0.002177 -0.003984 80 82 76
0.025914 0.035318 -0.002404 141 148 144
-0.051560 -0.062054 0.088026 121 123 117
-0.040345 0.023570 -0.002664 96 105 103
-0.072434 -0.039511 -0.025684 157 146 133
0.040572 -0.022383 -0.012314 100 101 93
0.060018 -0.021245 -0.027834 114 86 71
0.057701 0.040181 0.002086 90 97 93
0.051101 0.032627 0.004796 67 73 72
0.040424 0.033451 0.004796 126 131 127
-0.006749 -0.051538 0.025816 118 118 112
-0.048329 0.030002 -0.010314 120 127 123
-0.082113 0.021513 0.000646 132 137 133
-0.048311 -0.026581 0.028516 128 135 131
0.016394 0.045109 -0.006024 137 142 138
-0.075337 -0.041718 -0.012754 138 131 121
-0.093365 0.014122 -0.003194 142 143 140
-0.065173 -0.043415 0.046276 30 54 67
-0.042808 0.008107 0.012036 109 113 113
-0.007667 -0.054266 0.023226 101 102 99
-0.040019 0.029728 -0.009154 126 134 127
0.010321 0.041589 -0.008924 137 144 140
0.002038 0.017109 0.011336 117 127 129
0.049892 -0.026249 -0.014654 13 21 14
-0.024834 -0.032440 0.062736 37 41 41
0.036432 -0.034292 -0.047524 55 52 56
0.069381 0.002747 -0.017454 70 70 64
-0.062491 -0.039303 0.018736 100 102 91
-0.036447 0.033310 -0.007014 123 128 124
-0.050784 -0.075333 0.081456 127 126 118
0.035842 -0.030728 -0.043064 71 64 73
0.024082 0.021409 0.010306 129 140 138
0.019188 -0.054136 0.011686 110 111 103
-0.039479 -0.004105 -0.031254 127 132 128
0.062442 -0.026356 -0.026774 71 71 60
0.017398 0.001721 0.017176 64 68 67
0.043221 -0.014750 -0.009854 145 154 153
-0.100474 0.016645 0.008956 142 141 138
0.017867 -0.032680 -0.004754 105 105 99
-0.001678 0.038237 -0.012314 142 148 147
0.034763 -0.014158 -0.005524 144 158 161
-0.074122 0.026703 -0.013604 127 129 118
-0.002542 0.036033 -0.007494 135 146 144
0.066257 0.041119 0.003876 84 90 83
0.028274 -0.029846 -0.016674 44 46 40
0.040981 0.012929 0.004176 17 27 22
-0.042108 0.027619 -0.008214 123 130 126
0.057103 -0.015477 -0.015674 48 67 90
-0.076407 -0.043180 -0.004754 161 156 146
0.027327 -0.019783 -0.003724 100 101 98
0.059308 -0.005473 -0.018034 58 61 53
-0.074802 0.027064 -0.005524 122 128 121
-0.043724 0.005446 -0.020804 119 126 122
0.056617 -0.033799 -0.014654 58 61 53
0.036468 -0.053845 -0.003194 34 40 39
0.043910 0.035515 0.006356 119 124 120
0.048143 -0.021476 -0.029864 55 61 54
0.064380 -0.019358 -0.029864 104 97 92
0.075092 -0.022578 -0.019904 18 16 40
-0.040500 -0.003799 -0.032454 125 126 123
0.042490 -0.030499 -0.025844 72 79 95
0.010112 0.016935 0.016036 119 130 129
-0.048921 0.013364 -0.003984 121 126 122
-0.071438 -0.044341 0.048076 91 91 85
0.055550 0.044511 -0.014444 88 96 89
-0.046599 -0.003901 -0.037914 109 109 109
0.037960 -0.053144 -0.007014 79 82 85
-0.038753 -0.047686 0.049296 121 122 114
0.010977 0.031205 0.004486 132 141 140
0.068298 0.023570 0.001216 13 14 6
0.055584 -0.015202 -0.013394 3 12 10
0.024082 -0.015300 0.012386 19 25 18
0.017241 0.009390 0.018336 62 68 68
-0.060546 -0.037593 0.055726 106 112 111
0.083833 0.040355 0.018336 57 65 58
0.111942 0.014456 0.017566 66 67 59
0.052712 -0.030397 -0.020444 66 67 59
-0.057169 -0.004466 -0.034744 133 135 124
-0.055518 0.040940 -0.016074 118 124 117
-0.029336 0.037162 -0.016474 114 121 117
0.020720 -0.020983 -0.013184 113 114 106
-0.004822 -0.014841 0.045676 50 59 58
-0.053263 0.027740 -0.008694 119 126 122
0.068440 0.007604 -0.011654 41 43 32
-0.023535 0.028098 -0.007254 121 132 130
0.041147 -0.052107 -0.005524 95 95 95
-0.033586 -0.010881 0.032796 131 140 139
0.055222 0.005356 0.005416 8 10 4
-0.011286 0.036944 -0.011214 134 141 137
-0.018245 0.027178 -0.006514 123 132 130
0.039792 -0.037092 -0.024394 97 93 86
-0.032601 -0.019560 0.047466 123 134 133
-0.054962 0.031842 -0.010314 125 130 126
-0.085113 0.015023 0.000646 152 153 150
0.057378 -0.006195 -0.022214 68 69 66
0.047941 -0.025636 -0.033494 9 16 7
0.045023 0.006284 0.004796 12 18 11
0.031996 -0.031947 -0.045514 22 19 28
0.070664 0.009004 0.002976 41 39 20
0.040572 -0.021276 -0.012314 104 105 97
0.048553 0.021471 0.006996 50 59 58
0.059099 -0.023568 -0.022214 82 47 6
0.009664 0.029948 0.008296 135 144 143
-0.051226 -0.070538 0.069586 126 128 117
0.054849 -0.018722 -0.003724 39 48 46
0.034905 -0.028757 -0.023404 100 106 113
-0.038123 -0.046161 0.055066 118 118 112
-0.052979 0.034169 -0.023064 123 123 117
0.027365 -0.013028 0.027156 22 29 25
-0.060687 -0.031248 0.012746 219 215 201
0.051027 -0.028860 -0.017844 44 49 45
-0.076863 0.030382 -0.011874 121 123 117
0.048530 -0.034991 -0.042194 30 34 23
0.039633 -0.036653 -0.024884 98 91 86
0.055014 0.026018 0.011336 72 79 75
-0.084659 0.024397 -0.012314 135 136 133
-0.068446 -0.012097 -0.007254 206 197 184
-0.072377 0.030607 -0.013394 118 124 123
-0.016259 -0.053842 0.026706 127 125 125
-0.012852 -0.002452 0.039486 125 131 131
-0.055978 0.029119 -0.006024 127 134 130
0.051902 -0.024110 -0.027834 64 58 44
-0.044632 -0.004504 -0.038684 120 120 114
0.041070 0.020468 0.013096 88 94 94
0.032810 0.042538 -0.002404 140 148 141
0.010958 0.026602 0.010306 134 145 144
0.049956 -0.004653 -0.045164 22 27 23
0.039007 -0.040036 -0.036314 38 40 50
-0.063310 -0.005881 -0.028724 134 133 125
0.037830 -0.031388 -0.025994 108 114 128
0.057964 0.001369 0.010996 16 21 17
0.034864 -0.024993 -0.009154 106 107 99
-0.058653 -0.035885 -0.014854 184 178 166
0.057733 -0.014479 -0.016274 48 66 83
0.103579 0.023059 0.009296 35 41 34
-0.013519 0.031501 -0.006764 126 133 129
0.038057 0.019118 0.016036 90 99 97
-0.017293 -0.054150 0.031336 121 121 115
-0.042289 0.010974 0.009966 103 110 106
-0.032313 -0.119276 0.129456 129 129 118
-0.011301 0.042236 -0.014654 123 129 128
-0.026943 0.040675 -0.017064 125 127 121
-0.003055 -0.009032 0.041116 112 122 124
0.070850 -0.020778 -0.025044 13 9 38
-0.054386 0.035063 -0.019714 118 124 117
0.047381 0.041010 0.000356 105 112 108
-0.072701 -0.034703 -0.018224 169 161 145
-0.059842 -0.001862 -0.030014 117 118 115
-0.018876 0.007982 0.015666 123 129 128
-0.020627 0.042137 -0.017264 126 132 125
-0.032882 0.039483 -0.012314 113 120 116
0.035254 -0.046494 -0.005774 105 104 96
-0.046361 0.011380 -0.016674 113 120 116
-0.071197 -0.024070 -0.027084 216 198 186
-0.073326 -0.045417 -0.015474 166 152 140
0.060205 -0.005086 -0.022214 31 37 30
0.006765 -0.019591 0.025376 94 100 93
0.021623 -0.030578 -0.002404 100 102 96
-0.055616 0.042815 -0.017454 121 123 117
0.051031 -0.034570 -0.030014 42 49 45
0.067132 0.023793 -0.004504 13 15 9
-0.135267 -0.093772 0.110896 127 129 118
-0.011476 0.017883 0.019126 124 133 132
0.028696 -0.016570 0.001506 95 110 116
0.055923 -0.034081 -0.011654 10 11 8
-0.078978 0.026822 -0.015874 131 132 124
-0.080535 0.037729 -0.018974 127 124 114
0.015448 0.035382 -0.001864 136 146 141
0.068740 0.006118 0.023226 10 12 6
0.065604 0.015424 -0.029864 114 111 101
0.012495 -0.050324 -0.018034 119 120 112
0.029315 -0.039730 -0.014654 124 120 113
-0.030410 0.022804 -0.002664 109 118 116
0.029720 -0.040608 -0.009154 30 32 26
0.039340 -0.005391 -0.000764 52 59 50
0.058948 -0.016478 -0.028284 95 57 5
-0.039982 -0.069960 0.021146 135 134 126
0.058375 -0.019238 -0.026924 100 55 4
-0.005085 -0.034563 0.056406 107 109 103
0.025043 -0.043937 -0.022894 19 21 15
-0.030299 0.034479 -0.013604 117 124 120
-0.057643 -0.001108 -0.021514 114 115 112
0.035761 -0.038726 -0.033364 55 54 58
-0.066224 -0.051747 0.051166 83 81 81
0.065447 0.017695 -0.009154 12 15 7
-0.015526 0.037392 -0.009624 128 135 131
-0.089728 0.015511 -0.005264 143 145 139
-0.082118 0.019958 -0.002404 133 139 132
0.033428 -0.012464 -0.006274 134 149 150
-0.025232 0.041015 -0.017644 119 125 118
-0.079652 -0.026344 -0.022894 234 209 191
-0.005250 -0.059507 0.040566 117 117 111
-0.080930 -0.040874 -0.010314 163 157 143
0.048162 0.001851 0.022806 1 6 2
0.063458 -0.009188 -0.026154 81 68 62
0.022136 0.028318 0.007966 121 134 133
0.022770 -0.019095 -0.002134 110 112 106
0.067068 0.048229 0.001506 82 90 83
0.041178 -0.014877 -0.005774 64 73 77
0.052029 -0.026413 -0.011654 10 18 11
0.049956 -0.022913 -0.007254 8 14 13
0.030889 0.037052 0.007316 138 144 143
-0.045099 -0.003693 -0.037464 119 120 117
0.077616 0.005459 0.029446 41 44 36
-0.053262 -0.078008 0.047466 119 123 112
0.010352 0.041525 -0.009624 138 145 141
0.066412 0.028022 -0.010314 5 13 6
0.035579 -0.012960 -0.009154 127 139 141
-0.023253 -0.024241 0.053746 20 24 29
-0.015193 0.029115 -0.003464 132 141 139
0.054901 -0.012053 -0.018414 3 15 10
-0.030304 -0.009753 0.036316 103 135 106
0.016201 -0.032682 0.010646 101 103 97
0.056308 -0.018475 -0.018604 64 55 37
-0.093143 0.028718 -0.007974 133 133 127
0.078632 0.010730 -0.007974 70 71 63
0.061495 0.030503 -0.030704 113 114 106
0.045125 0.006685 0.019126 25 35 30
0.036784 -0.026458 -0.018604 43 45 39
0.037533 -0.015236 -0.007974 125 129 128
-0.059535 0.033804 -0.018034 116 121 117
0.030920 -0.000708 -0.004244 147 157 164
0.055584 -0.033389 -0.013394 30 36 29
-0.143580 -0.097674 0.121116 125 126 118
-0.065469 0.026445 -0.008694 126 132 125
0.043477 0.004943 -0.005014 9 15 8
0.029156 -0.003899 -0.006274 156 165 169
0.030469 -0.027094 -0.004244 120 119 111
0.012019 0.031811 -0.000204 137 146 145
-0.024749 0.041581 -0.018034 118 124 117
-0.052299 0.043279 -0.016864 113 119 112
-0.002219 0.037892 -0.011874 143 153 148
0.042444 -0.044852 -0.006514 98 98 92
0.047159 -0.016089 -0.020084 12 21 12
0.063725 0.015389 -0.015874 8 14 7
-0.046112 -0.003887 -0.037124 103 103 103
0.053012 -0.026478 -0.008924 6 18 13
-0.031098 0.002655 0.020326 95 100 96
0.031159 -0.007499 0.041676 6 12 11
-0.007184 -0.073675 0.051166 118 119 111
-0.068113 -0.035939 0.013096 225 214 194
0.076292 0.008778 0.008956 35 34 12
0.063079 0.030787 -0.019904 100 102 96
0.031270 0.024788 0.010646 122 131 129
-0.019170 0.001360 0.024506 99 105 105
0.072312 -0.003352 -0.000204 59 59 53
-0.026403 -0.019100 0.047466 119 130 129
-0.018499 -0.033968 0.068796 32 41 39
-0.027543 0.024376 0.002386 121 130 129
-0.048893 0.020529 -0.008214 74 80 79
0.021447 -0.051152 0.030386 100 106 99
0.063304 -0.016593 -0.031114 148 133 118
-0.014502 0.020706 0.007316 129 138 137
-0.069533 -0.025042 -0.026464 230 210 191
0.018432 -0.021242 -0.006764 46 44 44
0.040866 -0.021269 -0.009154 91 91 85
0.067118 0.041395 -0.012094 82 87 74
-0.040265 -0.006009 0.019526 27 26 30
-0.016177 0.036804 -0.011214 127 132 128
0.023237 -0.019941 -0.002664 109 111 105
0.038719 0.008226 0.024936 77 88 87
0.036730 -0.042167 -0.011654 110 110 104
0.002519 0.021876 0.007966 119 128 127
0.042476 0.041786 -0.003984 123 129 122
0.017239 0.044927 -0.007494 147 152 148
0.006476 0.008789 0.017946 116 122 122
-0.057306 0.002191 -0.033754 110 117 113
0.027072 -0.031521 -0.022384 29 36 27
0.067827 0.027658 -0.013604 9 11 5
-0.071934 0.032903 -0.020264 113 119 112
0.004507 0.036664 -0.011214 139 148 146
0.046083 -0.008478 -0.014024 17 24 20
-0.069636 -0.026742 -0.021864 250 228 208
0.015600 -0.046221 0.008296 106 106 100
-0.016343 -0.025447 0.045096 110 119 118
0.088235 0.025197 0.008956 15 16 8
0.056933 -0.041909 -0.023574 39 46 42
0.059801 0.040908 -0.004244 88 94 87
0.069216 0.028123 -0.017644 115 114 106
0.023009 -0.020053 -0.002934 104 106 100
0.038467 -0.015869 -0.011214 120 130 132
0.086565 0.031120 -0.009624 114 112 100
0.055731 0.026561 0.012036 66 73 69
0.057978 0.029551 -0.025994 97 98 90
0.004680 0.028392 0.011686 132 141 140
0.012451 -0.032166 0.004486 101 103 97
-0.036658 0.027837 -0.003194 119 129 124
-0.010142 0.031778 -0.001584 129 138 136
0.037960 -0.021053 -0.007014 86 85 82
0.021479 -0.027972 -0.010994 13 14 11
-0.067411 0.027761 -0.009854 116 121 117
0.047138 0.035414 -0.008924 105 113 106
-0.095222 -0.000545 -0.003984 118 116 116
-0.069250 -0.047178 -0.017844 113 108 98
0.000129 0.034597 -0.012094 139 149 144
-0.018161 0.016935 0.006996 124 135 134
0.026279 -0.031331 -0.022214 20 22 16
0.012715 0.001750 0.024506 84 93 92
0.067026 0.015542 0.000076 108 96 74
0.047979 -0.026062 -0.038354 64 62 56
-0.036506 0.041674 -0.016674 115 121 114
0.012977 -0.019227 0.009966 65 67 61
-0.037801 -0.021133 0.007646 134 140 139
-0.059796 -0.085964 0.057766 134 134 123
0.018602 0.044566 -0.008454 140 148 141
-0.064557 0.019959 0.012386 114 120 119
0.049727 -0.011293 0.006996 6 10 9
-0.004577 -0.037884 -0.012314 118 118 112
0.073659 0.001788 0.018336 50 56 49
-0.038019 0.017660 -0.006274 89 95 94
-0.014010 0.035744 -0.009154 133 140 136
0.069484 0.024781 0.002676 13 13 7
0.004143 -0.050034 -0.012094 114 117 109
0.034081 -0.033055 -0.049704 60 56 67
0.013613 0.033496 0.002676 136 145 143
0.052898 0.032269 0.001506 88 99 91
-0.063991 0.035197 -0.015874 119 120 117
-0.018768 0.042163 -0.017454 130 136 129
0.056723 -0.012750 -0.020624 107 118 117
0.063075 0.022600 0.002976 11 14 6
-0.009813 0.039592 -0.010084 125 132 128
-0.010034 0.029787 -0.013394 130 136 135
-0.028185 0.030933 -0.005524 126 133 129
0.048800 -0.025254 -0.025204 41 47 40
-0.038881 -0.011542 0.017946 137 143 143
-0.015324 -0.005724 0.040566 121 125 124
0.040553 -0.054786 -0.005524 74 74 75
0.000929 -0.024331 0.069586 29 38 37
0.035405 0.044114 -0.008214 139 145 138
-0.010530 0.043725 -0.016074 135 146 145
-0.073688 -0.044049 -0.008454 27 15 11
-0.087681 0.017610 0.005416 143 145 139
-0.030193 -0.047004 -0.007974 129 129 118
0.017009 -0.030457 -0.001044 91 96 92
-0.011019 0.025459 0.000076 125 131 130
-0.035373 -0.018749 0.048676 124 135 133
-0.064789 -0.020105 -0.035954 246 227 206
0.029991 0.019133 0.010996 119 128 126
-0.060361 -0.065949 0.027156 33 30 27
-0.082122 -0.042774 -0.012534 164 153 142
-0.064918 -0.044244 0.045096 43 83 91
0.058458 -0.014146 -0.028724 96 86 116
0.026946 -0.008182 -0.006274 143 154 158
0.042505 -0.037570 -0.019164 96 96 90
0.080081 0.015208 -0.001584 8 15 6
0.063538 0.028221 0.007646 13 23 18
0.029806 -0.045074 -0.007734 10 15 11
0.020320 0.009833 0.014546 78 84 84
0.046344 -0.035965 -0.019354 72 75 67
0.059211 0.013511 0.008626 8 14 7
0.019034 -0.018792 -0.008454 74 74 68
-0.063440 -0.034228 -0.009854 239 229 205
0.026220 0.006000 0.024076 89 98 97
-0.008383 0.017255 0.010306 121 130 129
-0.013382 -0.055280 0.022386 144 149 145
0.055454 0.045093 -0.003724 97 102 98
-0.079867 0.025370 0.004176 130 138 131
-0.025187 -0.002654 0.018736 122 127 123
-0.076830 -0.046452 -0.015264 152 146 139
-0.044386 0.016990 -0.007254 106 113 109
-0.028954 -0.028476 0.059856 82 89 93
-0.008822 -0.056196 0.023226 120 120 114
0.083579 0.000654 0.010646 67 68 65
0.042170 -0.009572 0.002086 40 46 39
-0.038987 -0.003458 0.014546 126 130 130
0.005879 -0.004629 0.040026 103 112 110
0.030690 -0.012024 0.000356 162 170 172
-0.074766 0.028025 -0.018224 122 124 118
-0.076296 0.036423 -0.024554 111 111 105
0.024911 -0.007944 0.031336 7 15 8
0.058247 -0.032412 -0.016474 74 76 65
0.015399 -0.028062 0.004486 18 18 18
0.030852 0.010634 0.013826 24 26 20
-0.035281 -0.007100 0.017566 118 118 118
0.055612 -0.005899 -0.036664 14 19 22
-0.033616 -0.011235 -0.026924 122 127 123
-0.068793 0.024216 -0.008454 124 131 127
-0.028663 0.014936 -0.002934 100 106 105
-0.074512 -0.046496 0.051806 90 90 84
0.063870 -0.006316 -0.022384 54 43 50
0.032261 -0.038063 -0.019534 98 97 101
0.058023 -0.019662 -0.030014 73 25 2
0.029901 0.007942 0.024076 68 74 74
0.062882 0.030069 0.006046 60 68 61
0.024370 -0.006413 -0.006024 126 134 141
0.019553 -0.027838 0.001216 114 116 110
0.039684 0.014018 -0.006764 12 18 11
-0.099191 0.018454 0.014546 151 151 145
0.001032 -0.014313 0.044516 76 80 85
0.003721 0.000010 0.029916 35 40 36
0.049528 -0.022723 -0.007494 13 17 16
-0.043408 -0.037647 0.068796 117 126 124
0.101479 0.015623 0.005416 14 23 14
-0.079198 0.016659 -0.013394 130 132 126
0.020732 0.036109 -0.009624 138 145 141
0.008881 -0.027190 0.049296 103 105 99
0.015499 -0.046026 0.009626 104 106 100
0.040693 -0.025645 -0.023234 31 32 19
-0.018777 -0.037061 0.033776 116 116 110
0.000516 -0.020668 0.049296 24 30 30
-0.003257 0.025979 0.005726 130 139 138
0.043200 -0.014486 -0.008214 129 139 141
-0.072755 0.029311 -0.029014 127 128 120
0.061642 0.032126 -0.028574 112 115 107
0.016695 -0.024655 0.001216 96 97 94
-0.059244 -0.003634 -0.034744 122 123 120
0.028838 -0.001996 -0.006764 158 167 171
0.018286 -0.025825 -0.007974 123 123 117
0.030644 0.041999 -0.001584 140 147 143
0.061049 -0.041723 -0.010314 6 12 5
-0.055298 0.031233 -0.014854 117 125 118
-0.016076 0.020175 0.000356 124 134 136
0.048579 -0.012849 -0.015264 15 22 18
0.015421 0.019814 0.014186 122 131 130
0.030690 -0.017390 0.000356 10 10 10
-0.022649 0.035501 -0.010994 120 127 123
-0.030264 0.020038 -0.000204 95 104 102
0.035371 -0.032837 -0.043624 62 57 66
-0.071148 -0.044923 -0.010764 121 118 108
-0.041555 0.029030 -0.006274 123 130 126
0.058068 0.026239 0.009626 31 43 38
-0.055526 0.031700 -0.010314 123 130 126
0.006981 -0.019631 0.058456 22 28 28
-0.096452 0.004498 0.001506 161 160 157
-0.068268 -0.064472 0.034786 104 100 88
0.012842 -0.011647 0.019926 4 10 9
0.029709 0.016719 0.019926 108 118 113
-0.057844 0.042336 -0.017844 118 124 117
0.076827 0.007555 0.020326 8 9 6
0.029956 -0.027609 -0.045424 61 55 66
0.010607 0.041445 -0.008924 140 147 143
0.067646 0.022175 0.004486 72 52 0
0.061228 0.004686 0.015286 6 11 7
-0.058422 0.024098 -0.003984 130 135 131
-0.015688 -0.051450 0.034276 118 119 116
0.044622 -0.025751 -0.050944 43 47 46
-0.076986 -0.023538 -0.012754 234 214 195
-0.058549 0.027600 -0.011874 125 132 128
0.028618 0.025289 0.009296 126 133 129
0.030040 -0.008330 -0.006274 168 181 187
-0.015841 0.037116 -0.010534 131 138 134
-0.106257 0.000356 0.004796 75 86 84
-0.100568 -0.005546 -0.001044 120 120 114
-0.042071 -0.028361 0.052446 113 118 121
0.071314 0.031514 -0.013184 105 108 100
0.052438 0.044641 -0.009394 92 99 95
-0.014552 0.001713 0.020326 125 134 133
-0.025176 0.038128 -0.013394 127 132 128
0.033220 -0.027441 -0.015264 36 44 37
0.029577 0.047061 -0.009154 141 147 140
-0.033799 0.036782 -0.009394 116 123 119
-0.022776 -0.003267 0.028056 124 130 129
-0.063453 -0.055336 0.036316 91 93 82
-0.067045 -0.036051 -0.013604 236 220 203
0.086334 0.002043 0.022806 64 68 67
0.040068 -0.025158 -0.011654 79 81 75
0.030070 -0.031840 -0.014444 65 67 61
-0.085849 -0.037399 -0.014024 164 156 140
-0.004859 0.039375 -0.010534 137 146 144
-0.077340 0.021521 -0.007254 127 133 126
0.054097 -0.030958 -0.020264 72 71 63
0.032831 0.038719 -0.004754 141 147 140
-0.074366 0.026249 -0.019164 128 128 122
-0.002176 -0.071097 0.055726 117 118 115
0.029157 -0.039300 -0.015064 120 119 111
-0.046044 -0.072349 0.095086 127 126 118
0.057285 -0.018327 -0.019534 62 26 6
-0.037626 0.035190 -0.017844 120 126 119
-0.026874 0.033928 -0.014234 117 123 122
0.002076 0.026990 0.003576 130 139 138
-0.087901 0.021901 -0.003724 131 133 127
-0.075107 -0.027033 -0.025204 187 174 159
0.024085 -0.016897 0.016036 12 19 15
0.034955 -0.027820 -0.017844 102 102 91
-0.050837 0.040907 -0.019714 114 120 113
-0.014268 0.044050 -0.010764 135 141 140
0.027850 -0.000924 -0.005774 159 168 172
-0.043045 0.005359 0.012746 92 103 102
0.068198 0.044748 -0.008924 80 87 78
-0.047879 0.029441 -0.009154 118 125 121
-0.037875 -0.000354 -0.014444 118 123 119
-0.084967 -0.056482 0.057086 97 99 88
-0.085735 -0.080808 0.055726 135 135 124
0.053590 0.035151 0.007646 104 110 103
-0.017764 0.005903 0.018736 111 120 119
0.019029 -0.050630 0.027156 102 104 98
-0.000822 0.034651 -0.011654 139 149 144
-0.052990 0.036160 -0.022034 119 121 115
0.065297 0.014106 -0.013184 8 15 6
0.019036 -0.032116 -0.021334 90 90 84
-0.088611 0.002330 -0.009624 141 137 130
0.012673 0.040486 -0.004504 139 148 146
0.045043 -0.030430 -0.040904 43 51 44
0.050957 -0.028331 -0.020624 48 48 42
0.050770 -0.034325 -0.032724 44 49 45
0.025664 -0.001897 -0.003724 150 159 163
0.074244 0.001936 0.008956 55 61 54
0.067801 0.001090 0.003276 51 57 50
0.042879 0.017433 0.008626 22 28 21
0.023269 -0.025062 -0.006764 116 116 110
0.042898 0.010938 -0.002134 12 18 11
-0.010015 -0.053581 0.033776 149 153 152
-0.059004 0.015097 0.002676 114 120 119
0.018735 -0.076859 0.049916 123 125 119
0.014788 -0.000021 0.024076 87 96 95
-0.045684 0.014341 -0.012094 113 120 116
0.051694 0.030471 0.012746 98 105 101
-0.025996 0.043434 -0.011654 123 125 119
-0.026327 0.000563 0.019926 81 83 77
0.060804 -0.005086 -0.022384 100 102 91
-0.017203 0.011723 0.026256 128 137 136
0.055439 0.031027 0.014546 98 105 101
0.062663 -0.009079 -0.025994 117 103 93
-0.025420 -0.036379 0.042236 113 112 109
-0.082731 -0.042534 -0.005264 164 157 139
0.093178 0.028289 0.011336 15 17 11
0.078718 0.015603 -0.002664 5 12 3
0.037859 0.022537 0.020736 114 125 124
0.056454 -0.009839 -0.020984 8 44 94
-0.037978 0.001502 -0.033234 121 126 122
0.037018 0.020289 0.019926 117 128 126
-0.019806 -0.031037 0.031816 109 111 105
-0.090096 0.000305 -0.005014 124 125 122
0.068460 0.005223 0.024076 10 11 8
-0.085476 0.010504 0.006676 114 120 113
-0.089759 0.023144 -0.010534 135 134 126
0.058168 0.041024 -0.006514 92 98 91
-0.016810 -0.059668 0.032796 122 120 114
-0.061544 -0.059657 0.033286 45 39 37
0.011420 -0.047385 0.012386 109 112 104
-0.040323 0.028863 -0.007974 124 130 129
0.021698 -0.064194 0.046866 112 112 106
0.049626 -0.000935 -0.006024 43 49 42
0.006179 -0.001331 0.032796 107 113 112
-0.091117 -0.001890 -0.007974 111 119 121
-0.037543 -0.005815 -0.034994 115 117 111
0.017261 -0.039551 -0.001314 100 101 93
0.049602 -0.031196 -0.043244 38 43 39
0.034554 -0.008901 -0.006764 61 60 57
0.042200 0.014127 0.001796 9 15 8
-0.075172 -0.036702 -0.000484 248 227 202
0.012378 -0.035849 0.008296 100 106 99
-0.065672 -0.002456 -0.016864 111 116 112
-0.033950 0.018155 -0.008454 94 103 101
-0.041783 0.009966 0.001796 102 108 107
-0.074823 -0.046139 -0.017844 161 154 144
0.073603 0.002313 0.014916 52 54 48
0.067608 0.033824 0.011686 75 84 75
-0.092180 0.023855 -0.009154 130 131 123
0.038023 -0.032701 -0.023234 117 123 137
-0.024332 0.026720 -0.004754 127 133 132
-0.065410 0.031051 -0.025044 122 123 120
0.063408 0.017140 0.006356 9 11 5
0.013044 -0.032653 0.005106 101 103 97
0.060328 -0.015967 -0.032324 117 100 85
-0.042271 -0.004282 -0.036664 103 104 101
0.052125 -0.035237 -0.027234 26 37 29
-0.076727 -0.025489 -0.022894 212 192 173
-0.026055 -0.051824 0.040566 120 121 113
0.049061 -0.033521 -0.044804 38 48 43
0.007910 0.039561 -0.011874 144 151 147
-0.071263 -0.032101 -0.020624 184 176 160
0.019002 0.032518 0.004486 130 139 138
-0.004146 -0.018546 0.043936 94 105 104
-0.015606 -0.026196 0.050536 116 125 124
0.066282 0.015697 0.006676 39 28 0
-0.073522 0.032683 -0.018794 121 123 117
-0.092727 0.018593 -0.004244 135 138 125
-0.023432 0.036797 -0.003984 127 133 126
0.019819 -0.033187 -0.023234 22 23 20
-0.084803 0.022059 -0.008924 133 130 127
-0.035976 -0.019670 0.043936 124 133 132
-0.078089 0.021204 -0.006274 126 132 125
0.005821 -0.002204 0.030856 107 113 112
0.040055 -0.052564 -0.008454 76 74 74
0.059710 -0.032450 -0.014654 73 72 64
-0.030295 -0.039728 0.054396 112 114 108
-0.002963 0.038865 -0.014654 142 147 143
0.032326 -0.015156 -0.004504 139 151 153
0.014795 0.029236 0.002976 136 145 144
-0.071064 -0.055772 0.076176 17 35 33
0.032414 0.042669 0.001216 142 149 145
0.046307 -0.003579 -0.013394 63 69 62
0.067676 0.038779 -0.001864 114 122 110
0.027302 0.033673 0.005416 135 145 140
0.009018 -0.039697 0.034276 104 106 100
-0.041622 -0.006883 -0.033754 189 187 175
0.048762 -0.001061 0.021966 0 6 2
0.044772 -0.035804 -0.033494 23 28 24
0.052342 -0.007295 -0.022554 20 26 19
0.015904 -0.015085 0.009966 88 89 86
-0.034353 -0.001778 0.016796 116 123 119
0.068510 -0.022002 -0.024884 74 65 66
0.018402 0.039532 -0.007494 139 146 142
0.009748 -0.021140 -0.001864 98 100 94
-0.007489 0.011115 0.016036 121 130 129
-0.094650 -0.033155 0.020326 232 214 195
-0.077074 -0.080466 0.046866 92 88 81
-0.051928 0.037079 -0.018224 123 125 119
0.057450 0.042868 -0.014234 83 89 82
-0.003102 0.011670 0.018736 116 125 124
-0.021526 0.037459 -0.016674 124 126 120
0.023355 -0.059808 0.016796 112 113 105
0.036689 0.027987 0.010306 123 134 132
-0.083075 -0.031849 0.003876 245 228 205
0.044761 -0.026461 -0.009624 50 49 41
0.028403 -0.019143 -0.005014 108 113 109
-0.091398 0.018382 0.014186 124 130 130
0.048763 0.044559 -0.006514 107 113 106
-0.025546 0.023817 0.004486 128 137 135
-0.075856 -0.046875 -0.014654 150 144 132
0.030052 -0.025970 -0.002404 112 115 107
0.023167 -0.059976 0.017566 110 111 103
0.035316 0.035405 0.003876 133 140 136
0.095367 0.014464 0.005416 33 37 26
0.058416 -0.014675 -0.026314 81 93 122
-0.001287 0.034764 -0.012964 142 152 147
0.040556 -0.017988 -0.010084 143 148 144
0.046910 0.007342 0.013096 8 15 11
-0.013723 -0.000404 0.014546 126 132 131
0.043027 0.010118 -0.003464 12 19 10
0.049321 0.034753 0.003876 100 110 105
0.071072 -0.026647 -0.023574 41 41 35
0.059763 0.012012 0.006676 6 12 5
0.038886 -0.016850 -0.011214 152 158 157
0.037647 -0.040033 -0.028574 50 55 51
-0.045140 0.016333 -0.008214 112 119 115
0.071682 0.003083 -0.005774 91 92 89
0.067091 0.036656 -0.007734 101 104 96
-0.017915 -0.055254 0.037876 117 119 113
0.045589 0.042314 -0.003194 116 122 115
0.020764 -0.061716 0.037876 111 114 106
0.043365 -0.026471 -0.016474 51 54 46
-0.028911 0.033741 -0.008454 119 129 124
0.047282 -0.015134 -0.008924 132 137 140
0.058926 -0.015413 -0.028574 113 83 85
0.105461 0.013280 0.009296 55 53 47
0.011533 -0.051335 0.108486 100 102 96
0.056125 -0.006305 -0.036544 16 19 22
0.060227 -0.044356 -0.022034 46 48 42
-0.010265 0.004544 0.025376 121 125 124
0.016163 -0.032341 -0.002134 9 14 10
0.067761 -0.014580 -0.027984 88 64 96
0.105057 0.018537 0.010646 52 64 54
0.074030 0.034509 0.015286 32 39 35
-0.047727 0.043038 -0.011874 116 122 115
0.008203 -0.001552 0.032306 97 103 103
-0.037163 0.035066 -0.013814 117 124 120
-0.051946 -0.042192 0.057766 94 105 103
0.067948 0.014181 0.002086 107 100 75
0.059047 -0.024023 -0.022894 69 28 0
-0.009390 0.024690 0.009626 125 134 132
0.021997 0.034082 0.002086 129 140 139
-0.010653 -0.035651 0.055726 110 111 108
0.069956 0.032491 -0.008694 91 97 90
0.076181 0.003389 -0.020084 93 94 81
0.036313 -0.046070 -0.006764 102 100 100
0.016986 -0.013944 0.017946 84 84 84
0.017018 -0.042750 -0.008454 103 106 98
0.017820 0.040116 -0.007494 135 141 140
-0.092288 -0.003176 -0.007014 103 112 111
-0.039837 0.005962 -0.012534 117 124 120
0.067075 0.017545 0.005106 92 75 38
-0.004430 0.030076 -0.005014 130 136 135
-0.074989 -0.046105 -0.017644 159 152 142
0.035850 0.042591 -0.001314 135 137 131
-0.017877 0.032456 -0.002664 127 133 132
0.045683 -0.010974 0.007316 58 63 59
-0.025278 0.035079 -0.015264 117 124 120
-0.009162 0.039291 -0.008924 134 140 139
0.020877 -0.050520 0.004796 102 103 95
0.063470 -0.024745 -0.024394 91 89 83
0.045062 -0.031241 -0.023234 55 57 69
0.071879 0.001172 -0.007734 82 85 77
0.034398 -0.029372 -0.039974 51 48 57
-0.017370 0.043756 -0.013604 128 135 131
0.052715 -0.009059 -0.018974 108 112 101
0.058952 -0.018182 -0.029584 84 56 19
-0.041689 0.026736 0.000646 115 125 120
-0.074134 -0.023436 -0.025364 237 215 201
-0.084346 0.027415 -0.009624 129 133 122
0.044662 -0.021318 -0.030564 19 21 15
-0.048832 0.015097 -0.002134 117 124 120
0.045260 -0.021776 -0.030014 43 51 39
-0.053982 0.037986 -0.016674 116 122 115
0.013791 0.044245 -0.012964 140 147 143
0.064746 -0.002671 0.002086 57 58 50
0.026927 -0.028885 0.000926 112 113 105
-0.002573 0.040970 -0.015264 147 155 148
-0.025420 0.026409 -0.002404 129 139 134
0.068403 0.027352 -0.009394 6 8 2
-0.009862 0.041900 -0.011654 131 138 134
-0.048914 -0.051052 0.068796 114 117 109
0.037294 0.035620 0.001506 134 142 135
-0.012265 -0.000413 0.029446 121 130 129
-0.052231 0.035037 -0.015064 114 122 115
-0.059068 -0.035568 0.006676 227 216 203
-0.072629 -0.025165 -0.025994 210 195 175
0.021699 -0.041849 -0.033874 14 21 17
-0.030210 0.034352 -0.012964 112 119 115
0.034114 -0.013308 -0.006764 154 166 168
0.006449 0.003228 0.026256 17 21 20
0.044820 0.045933 -0.005014 124 131 127
0.024762 -0.001727 -0.003194 143 158 164
0.076789 0.011202 -0.002404 0 9 4
-0.067529 0.014937 -0.007974 115 120 116
0.039890 -0.022445 -0.056934 41 42 39
-0.014676 0.030107 -0.001044 132 141 139
0.032712 -0.004793 -0.008454 11 9 10
-0.035005 -0.013091 -0.026924 197 197 186
0.006099 -0.038276 0.013826 108 110 104
-0.080648 -0.060881 0.057766 120 126 119
0.026268 -0.005691 0.032796 36 48 43
0.040387 -0.047650 -0.006514 118 117 114
0.070731 0.027841 -0.025044 114 113 105
0.044953 -0.008170 -0.015064 18 19 16
0.106228 0.021113 0.012036 88 91 78
-0.060813 0.035143 -0.016274 119 125 118
-0.018375 0.013745 0.006046 120 130 132
0.013006 0.022183 0.003876 130 139 138
0.011923 0.036125 -0.004504 140 146 145
0.063247 0.025016 -0.032194 116 115 107
0.093029 0.008541 -0.000484 88 86 72
-0.016624 0.010695 0.002386 124 133 132
0.062648 -0.048153 -0.018224 32 32 26
-0.034580 0.032831 -0.009624 118 125 121
-0.048372 0.026559 -0.009624 119 129 124
-0.062008 0.030000 -0.014234 125 131 124
-0.059901 -0.088202 0.071186 121 120 112
0.026232 0.044185 -0.001864 139 147 140
0.049103 0.031150 0.010996 102 111 109
0.051574 -0.029606 -0.019714 46 49 41
-0.014036 0.042862 -0.015474 133 141 134
0.017821 -0.019773 0.005106 95 94 91
0.029195 -0.004854 0.036316 55 66 64
-0.039106 0.000694 0.018736 143 147 146
-0.033901 -0.010875 -0.027084 127 132 128
0.035232 -0.033552 -0.023234 111 116 125
-0.001419 0.019782 0.012386 122 131 129
-0.068657 -0.060133 0.058456 126 125 117
0.037114 -0.050369 -0.003464 104 102 102
-0.012249 0.004380 0.025816 117 123 123
0.082316 0.001571 0.014546 117 116 113
0.043077 0.044154 -0.007014 126 130 129
-0.089751 0.027821 -0.010084 135 135 124
0.047586 0.034464 0.002676 106 113 109
-0.008997 0.039783 -0.009394 133 139 138
0.035998 0.026948 0.010306 125 134 132
-0.006876 0.042855 -0.008694 139 145 144
-0.036712 0.005122 -0.042004 112 119 115
0.047798 -0.035547 -0.018034 66 66 55
-0.045306 -0.003824 -0.033754 119 120 117
0.045343 0.031532 0.012746 119 128 126
-0.004584 0.021014 0.008626 123 129 128
-0.006621 0.009019 0.018336 118 127 126
0.034587 0.031949 0.001506 140 145 141
-0.084517 0.022525 -0.005264 123 128 124
0.035178 -0.036821 -0.035594 58 55 64
-0.078668 -0.042408 -0.021164 142 139 129
0.016676 0.039832 -0.008694 143 147 146
-0.019880 0.037397 -0.017064 119 127 120
-0.028016 0.011651 0.013456 100 109 108
0.016630 0.035631 -0.004244 136 141 137
-0.068113 -0.066626 0.013096 135 136 123
0.039372 -0.023485 -0.011654 99 100 92
0.018521 -0.033283 -0.005774 102 103 100
0.037624 0.035399 0.006046 137 145 138
0.101194 0.019555 0.011336 2 8 1
0.010613 0.038496 -0.004244 140 150 145
0.039784 0.026904 0.006046 109 113 113
0.004624 0.042852 -0.011434 140 145 141
0.009402 -0.019796 0.049916 26 35 34
0.062769 0.044295 -0.003194 87 94 85
-0.030745 0.010013 0.014546 101 110 109
0.067187 0.023187 -0.020984 117 115 103
0.035744 -0.035766 -0.022214 57 56 71
0.040424 -0.016290 -0.011214 125 131 130
0.018597 -0.038765 -0.018414 110 110 104
-0.020039 0.018486 0.002676 133 137 137
0.043968 0.002360 -0.005524 17 26 17
-0.051219 -0.037870 0.043936 99 105 104
-0.033744 0.000889 0.022806 97 106 104
-0.055907 0.033919 -0.019714 123 124 121
-0.044817 0.016848 0.001796 96 105 103
0.032533 -0.017339 -0.009624 93 100 96
-0.075682 0.025334 -0.002404 123 125 119
0.072221 0.038338 0.002676 66 77 69
0.020860 0.004065 0.021556 40 46 46
-0.024826 -0.038525 0.033776 117 117 111
-0.037885 0.011705 0.013826 104 111 107
0.023389 0.044282 -0.013394 143 149 142
-0.011801 0.010317 0.018336 121 127 127
0.053085 0.022297 0.008296 27 36 34
-0.020947 0.036344 -0.014854 122 127 123
-0.056037 0.031026 -0.011654 126 131 127
0.030348 -0.029341 -0.017064 68 73 69
-0.089579 0.016108 -0.005264 140 142 136
0.035304 0.024914 0.013826 126 137 136
-0.044480 0.018102 0.003876 86 95 94
0.037059 -0.006726 -0.005014 32 33 30
-0.042542 0.033675 -0.010994 114 122 115
0.103669 0.017065 0.007646 63 69 68
0.025623 -0.032627 -0.017844 95 95 84
0.037943 -0.022300 -0.010534 102 103 95
0.014414 -0.031028 0.007316 98 100 94
-0.066596 0.034276 -0.011874 113 120 116
-0.052320 -0.049766 0.025816 121 122 114
0.016466 -0.017197 -0.009624 27 33 33
-0.101505 0.010368 0.005726 155 150 145
-0.027343 -0.006489 0.012746 45 100 40
-0.035528 -0.016973 0.043936 20 25 28
0.013067 0.029988 -0.000484 137 143 143
0.036312 -0.032441 -0.044084 66 61 70
0.067883 0.040207 -0.008214 79 86 77
0.011272 0.043118 -0.014024 141 146 142
-0.023824 0.005496 0.018336 116 122 121
-0.044911 0.019311 0.006356 88 97 96
-0.025495 -0.055096 0.036836 125 126 118
0.028271 0.020295 0.006996 126 137 136
-0.014611 0.012682 0.006676 121 132 131
-0.060818 -0.002910 -0.027834 113 117 116
-0.021345 0.007861 0.006996 112 118 117
0.049948 -0.007856 -0.020444 35 44 35
-0.075001 -0.067251 0.049296 86 86 80
0.011991 0.041835 -0.012314 145 152 148
-0.055249 0.017350 0.022386 118 123 119
0.054237 -0.043009 -0.025524 9 14 10
0.064271 0.034513 -0.019534 94 96 90
-0.062063 -0.037357 0.002676 224 215 197
0.048822 -0.025129 -0.025684 45 47 41
0.046483 -0.025555 -0.009854 50 52 41
-0.051730 0.024004 -0.007734 91 99 101
0.057701 0.037452 0.002086 91 97 90
0.063753 -0.026911 -0.029584 52 52 41
-0.036643 -0.000059 -0.031254 125 131 124
0.019551 0.037553 -0.003984 136 146 141
0.037157 -0.023722 -0.012534 99 100 92
0.028477 0.016461 0.019526 126 136 131
-0.064678 0.020783 -0.001584 112 123 115
0.053763 0.035218 0.008296 102 108 101
-0.033514 -0.022503 0.045096 117 128 127
-0.027752 -0.031897 0.055066 107 118 117
0.065886 0.019658 0.013456 7 13 6
-0.033073 -0.000089 0.022386 92 98 97
-0.065413 0.040780 -0.019714 118 120 114
0.027982 -0.013073 0.034786 5 10 6
-0.077681 -0.080734 0.040026 137 137 131
0.017747 0.026995 0.006356 132 141 140
-0.059747 -0.006481 -0.037804 132 131 123
-0.078089 0.021675 -0.011214 125 127 121
0.039930 -0.056560 -0.005264 65 66 63
-0.083973 0.025781 -0.009394 130 130 124
0.000495 0.040123 -0.012964 139 146 142
-0.058233 0.032202 -0.017844 114 119 115
0.003402 0.021970 0.001796 126 135 139
-0.014753 -0.020689 0.051806 38 43 46
-0.000285 0.035442 -0.005774 140 150 145
0.021172 0.033486 0.000076 128 139 137
-0.070725 0.041524 -0.018604 125 124 121
0.058265 -0.005511 -0.033874 19 24 27
-0.057844 0.038178 -0.017844 121 123 117
0.065679 -0.011063 -0.026154 62 31 51
-0.041032 0.029706 -0.007254 125 132 128
-0.060417 0.035937 -0.016274 115 121 114
-0.038699 0.035845 -0.007254 121 127 126
-0.051228 0.035501 -0.010994 122 124 118
0.058810 -0.023310 -0.021164 85 53 2
-0.068802 -0.033548 -0.021514 185 174 161
0.007030 -0.020253 -0.006514 98 99 96
0.069767 0.001040 -0.019354 51 54 46
-0.041069 0.034775 -0.017064 117 127 122
-0.034590 -0.013860 -0.030154 210 205 195
0.057654 -0.010049 -0.025524 57 80 91
0.031661 -0.033016 -0.024394 110 115 126
-0.080417 -0.079406 0.051806 98 99 91
-0.034653 -0.013980 0.035796 117 126 125
-0.022157 0.016676 -0.002664 106 112 112
0.040146 0.037653 0.002976 123 128 124
-0.042206 0.001517 0.016796 100 109 108
-0.059555 0.019812 -0.000484 123 133 128
-0.030788 -0.035096 0.062006 25 36 35
-0.058708 0.020209 0.001796 112 121 119
0.048874 0.028526 -0.001584 99 105 98
0.015587 0.001294 0.019526 18 27 25
0.069276 0.011492 0.009966 3 8 4
-0.026813 0.038265 -0.013394 119 124 120
-0.069487 -0.043808 -0.016674 160 154 142
0.039576 0.044941 -0.003724 139 144 140
-0.025697 0.033306 -0.010534 125 132 128
0.036507 -0.034065 -0.031524 63 53 58
-0.085492 -0.057239 0.064206 69 73 62
0.041272 -0.030153 -0.024724 19 24 45
-0.088608 0.001927 -0.001044 128 134 127
-0.022289 0.044145 -0.014854 123 128 124
-0.056205 -0.061412 0.022386 134 131 121
0.039552 0.039005 -0.002404 111 118 114
0.012168 0.039894 -0.002134 142 149 145
-0.021629 0.038265 -0.013394 121 126 122
-0.045364 0.015282 0.000356 109 116 112
0.070494 0.001185 -0.022384 59 65 58
0.041003 0.046193 -0.006764 137 144 140
0.020163 -0.029411 -0.000204 100 101 93
-0.075408 0.030071 -0.012314 124 126 120
-0.037640 0.041344 -0.015064 119 125 118
-0.090007 0.028230 0.038406 117 124 120
0.090938 0.034123 -0.004244 118 119 106
0.061859 -0.043645 -0.013394 22 29 25
-0.045680 0.030950 -0.006274 120 125 121
0.056687 -0.005747 -0.016074 33 41 34
0.059678 -0.005611 -0.016674 51 54 46
-0.007221 0.026993 -0.001044 124 133 131
0.040499 -0.033673 -0.023574 95 95 112
