ply
format ascii 1.0
element vertex 1213
property float x
property float y
property float z
property uchar blue
property uchar green
property uchar red
end_header
0.130720 -0.097051 0.037123 112 110 104
0.040419 0.021414 -0.057077 166 164 164
0.017082 0.041126 -0.088777 132 136 135
-0.011473 -0.061446 0.056433 51 65 73
0.036718 -0.002224 -0.025657 149 149 150
-0.003928 0.032841 -0.035387 51 65 73
-0.015290 0.065917 -0.037867 111 120 119
-0.100362 0.028293 0.001013 113 119 119
-0.009442 0.041612 -0.009607 76 85 94
0.087888 0.035759 -0.076197 140 133 123
-0.028119 0.054621 -0.019637 110 120 122
-0.009013 0.037987 -0.008887 74 86 94
-0.040814 0.008501 0.059283 112 122 124
-0.023067 -0.023263 0.032513 76 90 100
-0.050152 0.057466 -0.027937 118 127 126
0.075194 0.022893 -0.064757 143 137 130
-0.088626 0.008858 0.060733 105 114 118
0.005782 0.043016 -0.077427 59 75 73
0.025776 -0.116608 0.183003 67 83 81
-0.100536 0.060351 -0.038357 113 117 116
-0.049576 0.029283 0.002643 110 118 120
-0.151939 -0.045260 0.001013 83 82 74
-0.045847 -0.049793 0.126093 119 129 131
0.062803 -0.066294 0.069823 21 33 35
0.076987 0.016287 -0.051047 156 154 148
0.073540 0.034117 -0.077907 144 139 129
-0.189489 -0.064660 0.121383 96 95 92
-0.124712 -0.014820 0.076293 84 93 92
0.081501 0.029537 -0.070377 151 146 136
0.322880 -0.156409 0.157823 95 91 84
0.065473 0.047513 -0.082927 117 112 107
-0.227076 -0.069270 0.069823 79 83 72
0.151151 -0.096244 0.108123 63 67 66
-0.033780 0.044037 0.005153 110 119 123
-0.041451 -0.035963 0.035953 144 153 152
0.035118 0.038671 -0.085027 123 121 115
0.084058 0.027476 -0.065067 155 151 144
0.037409 -0.053619 0.052293 79 87 94
-0.048743 -0.030230 0.043193 126 134 136
-0.094369 -0.030072 0.066713 32 34 92
0.071732 -0.056625 0.059283 119 128 137
0.094128 0.077579 -0.050247 78 83 86
-0.011468 0.078656 -0.043017 108 116 118
0.096291 -0.045680 0.052293 120 132 142
0.003696 0.034518 -0.065997 61 77 75
-0.040350 -0.016841 0.053653 122 129 133
0.003374 0.057056 -0.070937 53 66 65
-0.092994 -0.018477 0.071413 20 29 94
-0.031386 0.061048 -0.034887 109 118 117
0.007509 0.042624 -0.080487 55 71 69
-0.015086 -0.090407 0.065193 60 73 72
-0.053361 0.042511 0.004303 112 120 122
0.071781 0.005220 -0.034377 169 166 163
0.096350 0.077502 -0.051047 74 85 84
0.023897 -0.027974 0.007733 68 80 82
0.046248 0.044587 -0.088207 46 39 34
0.108573 0.020095 -0.052227 164 157 147
-0.081683 0.065931 -0.049437 126 130 129
0.078710 0.030069 -0.072307 147 142 132
0.557707 -0.196938 0.410883 85 80 75
0.059153 0.011229 -0.042117 151 151 145
-0.144230 0.040611 -0.009607 106 104 104
-0.035283 0.009969 0.068263 110 119 123
0.025612 0.044772 -0.091867 123 123 117
0.097216 0.040810 -0.075697 118 110 103
0.537554 -0.149904 0.393203 64 59 54
-0.027464 -0.059022 0.065193 111 128 142
-0.100330 0.070154 -0.034377 118 123 119
0.020967 0.026773 -0.066297 155 153 153
-0.156186 -0.048182 0.006863 82 84 73
-0.075021 0.038009 -0.033857 114 120 119
-0.060947 0.064492 -0.039787 126 132 132
-0.086295 0.007109 0.055033 101 112 116
0.083464 -0.097971 0.068263 80 95 96
0.159175 -0.093127 0.092183 80 95 109
0.034689 0.011952 -0.045237 166 164 164
0.128825 0.009245 -0.036397 165 159 152
-0.117023 0.043363 -0.009607 118 119 116
0.301815 -0.052819 0.146523 9 15 22
-0.021263 0.036947 0.003473 112 121 125
-0.096964 0.072361 -0.049437 115 116 113
-0.070946 0.040958 -0.016427 117 123 122
0.076673 0.005585 -0.031767 160 154 152
-0.113094 -0.020343 0.068263 21 30 89
0.011443 0.009600 -0.046097 154 152 153
-0.071883 0.062740 -0.034887 123 129 129
0.321376 -0.085351 0.176363 52 60 67
-0.035061 -0.056825 0.055033 100 121 137
0.017563 0.041030 -0.088017 130 130 130
0.122359 0.012993 -0.036887 167 161 154
-0.067025 -0.002256 0.053653 86 107 123
-0.154635 -0.086153 0.020813 16 39 23
-0.155452 -0.072774 0.035953 60 60 54
-0.007684 0.056382 -0.017727 99 107 114
-0.071607 0.070958 -0.046527 123 129 128
-0.074377 -0.075449 0.041953 100 104 103
-0.140056 0.056201 -0.006707 109 113 112
-0.057145 -0.099331 0.059283 110 111 108
0.091141 0.022968 -0.058837 175 168 163
0.009936 0.037537 -0.075187 67 83 81
-0.122244 0.070759 -0.035387 98 98 98
0.089364 -0.063223 0.068263 37 55 53
-0.107795 0.045910 -0.003707 114 119 115
0.055498 0.030690 -0.075697 133 130 127
-0.072588 0.063807 -0.021497 120 126 126
0.014385 0.034830 -0.077427 126 130 129
0.109615 0.059502 -0.062207 73 82 80
-0.133447 -0.053226 0.021823 89 89 83
0.027695 -0.098071 0.138543 66 79 78
0.023312 0.017751 -0.051437 155 153 154
0.215066 -0.103601 0.103963 104 100 93
-0.080200 0.074224 -0.055257 119 123 123
-0.002735 0.073483 -0.043017 107 117 119
0.010337 0.050242 -0.087237 54 70 67
-0.168726 -0.067262 0.088483 98 96 90
0.089184 0.033498 -0.075187 150 145 135
0.040503 0.030839 -0.075697 133 133 127
-0.102061 0.063185 -0.045237 115 115 115
-0.080933 -0.000752 0.059283 94 101 110
0.069406 0.062625 -0.073897 75 85 92
0.055588 -0.096245 0.074643 70 86 84
-0.109142 0.045251 0.001823 114 118 117
-0.175046 -0.084108 0.025963 18 23 26
0.061079 0.005953 -0.028497 147 145 145
0.061037 0.026397 -0.066597 164 162 156
0.121074 -0.107310 0.084883 56 70 73
0.052866 0.027102 -0.073367 163 158 153
0.016958 0.052172 -0.093747 64 77 75
-0.008388 -0.065009 0.052293 59 78 80
-0.160628 0.006330 0.032513 81 87 86
-0.075142 0.009555 0.055033 105 114 118
0.069215 0.022590 -0.061877 171 166 161
0.022698 -0.056080 0.053653 39 50 54
-0.061863 0.072145 -0.057077 131 131 131
-0.040364 0.067463 -0.027377 113 119 119
0.027912 -0.058713 0.043193 55 71 69
-0.085992 -0.040207 0.050943 23 31 106
-0.118341 -0.051627 -0.000587 83 83 77
-0.057109 -0.010497 0.084883 128 138 140
-0.226258 0.037515 0.086673 108 112 111
0.029540 0.009993 -0.045667 164 164 165
0.052858 0.025259 -0.064447 156 153 150
0.012356 0.010169 -0.047367 147 145 146
0.012769 0.022672 -0.061217 165 165 165
-0.060138 -0.040959 0.039513 87 100 113
0.020517 0.026496 -0.065997 154 152 152
0.069807 0.035043 -0.077187 148 143 138
0.114856 0.002339 -0.026807 173 167 160
-0.041100 0.030366 0.016883 107 117 119
0.049491 0.019784 -0.057427 144 143 140
-0.055625 -0.095255 0.055033 110 111 108
0.075166 -0.078060 0.037123 70 83 81
-0.026173 0.024065 0.038313 108 117 121
0.127963 0.015888 -0.044797 145 138 128
0.012112 0.049192 -0.083777 57 70 69
-0.164122 -0.080481 0.018833 57 56 48
0.110628 0.021610 -0.058487 144 138 131
-0.115627 -0.066982 0.047003 92 96 101
-0.036507 -0.083408 0.038313 99 103 102
0.095381 -0.057598 0.048303 40 56 54
0.021811 0.027812 -0.073637 157 155 155
0.030080 0.046239 -0.089147 125 124 121
-0.139859 0.034460 -0.015107 102 102 102
0.023083 0.024641 -0.064127 162 160 160
-0.061718 0.059902 -0.032817 118 124 124
0.023177 0.027863 -0.071757 154 152 152
0.019543 -0.088617 0.106023 68 84 82
0.071075 -0.058414 0.030283 58 71 69
-0.029874 0.054828 -0.005217 108 118 120
-0.010146 0.059332 -0.034377 107 117 119
0.029590 0.020423 -0.056347 156 152 152
0.032356 0.040231 -0.086647 139 137 131
0.099782 0.032702 -0.070937 144 134 125
0.008888 -0.043903 0.024913 121 134 147
-0.197663 -0.095630 0.126093 95 95 89
-0.101864 0.070878 -0.053377 111 111 111
0.006955 0.033903 -0.071757 64 77 76
-0.070968 0.061255 -0.021497 119 128 127
0.019818 -0.012777 -0.008887 159 159 159
-0.084696 -0.067777 0.060733 35 37 76
0.113743 -0.008625 -0.012407 159 157 151
-0.006401 -0.068233 0.053653 54 68 71
0.074857 0.048948 -0.080257 110 105 100
-0.050567 0.065724 -0.043017 124 130 130
-0.042708 0.072560 -0.037377 113 119 119
0.066398 0.042675 -0.084407 103 99 92
0.173217 -0.047273 0.079663 122 132 139
-0.152967 0.027120 0.029183 107 113 112
-0.036020 0.007825 0.050943 108 119 123
-0.044386 -0.113646 0.073013 104 108 107
0.034659 0.026149 -0.068087 140 136 136
-0.047276 0.073861 -0.046527 118 127 126
-0.117440 -0.035001 0.057853 76 82 81
0.111111 -0.029958 0.024913 104 111 107
0.258506 -0.093908 0.112403 90 89 81
0.236493 -0.088583 0.065193 86 82 75
0.078551 -0.013003 -0.005217 70 66 67
-0.167353 -0.050696 0.073013 88 88 82
-0.151447 -0.105734 0.068263 90 90 84
-0.140060 -0.018213 0.083113 76 83 87
0.108102 0.006689 -0.033337 140 131 126
-0.127673 0.009564 0.057853 105 111 111
-0.018769 0.073988 -0.041197 110 116 116
0.003842 -0.023477 0.018833 83 96 95
-0.029630 -0.022818 0.023873 123 133 135
0.017257 0.044652 -0.090437 70 83 81
-0.030777 0.051342 -0.040727 112 121 120
-0.023436 0.039126 0.005153 108 117 121
-0.093535 -0.062499 0.010383 101 102 99
0.000846 0.040450 -0.054887 74 88 98
-0.146563 -0.091802 0.024913 23 37 22
-0.092709 0.067183 -0.034377 122 126 125
0.090717 0.008421 -0.041197 174 169 164
-0.193309 -0.001510 0.097943 17 15 15
-0.065503 0.035558 -0.005217 114 123 121
-0.029800 -0.097123 0.028103 115 134 148
0.046583 0.035300 -0.078867 147 147 141
0.008910 -0.043547 0.027023 122 135 148
0.128642 0.002833 -0.027937 75 64 65
0.112622 0.009864 -0.037377 173 167 160
0.017291 -0.102067 0.092183 77 93 91
-0.133861 0.015819 0.024913 106 110 109
-0.116396 0.053246 -0.027937 111 112 109
-0.050384 0.031153 0.006863 110 118 120
0.037256 0.037862 -0.085437 133 131 125
0.019202 0.046201 -0.094077 124 124 118
0.072507 0.035914 -0.081167 132 126 119
-0.108650 0.053145 -0.026807 114 115 112
0.002822 0.064453 -0.064447 70 81 85
-0.061047 0.063813 -0.035897 121 127 127
0.059434 -0.046938 0.071413 109 126 135
-0.181589 0.003332 0.052293 88 94 94
-0.156820 -0.031238 0.011283 79 76 73
-0.169328 -0.092151 0.015933 31 45 30
0.110628 0.024063 -0.058487 148 141 131
0.143212 -0.049894 0.014983 93 93 87
0.066760 -0.021739 -0.005217 164 165 162
-0.052751 0.070300 -0.043017 123 132 130
-0.060519 0.039628 0.040723 115 123 125
0.063244 0.019852 -0.056717 161 160 157
-0.133369 0.029211 -0.016427 111 115 114
-0.064605 0.035707 0.006003 115 124 123
0.029453 0.039351 -0.084617 142 140 134
0.001662 0.055492 -0.067787 55 65 67
-0.118783 -0.043326 0.049613 89 90 87
0.086507 0.041491 -0.078867 111 107 100
-0.112293 0.056374 -0.043017 113 112 109
0.050827 0.037189 -0.084197 162 160 154
-0.002732 0.075481 -0.050647 108 118 120
0.049488 -0.001135 -0.025077 154 152 152
0.125941 0.002659 -0.029057 168 162 150
-0.091560 0.062761 -0.043917 118 122 121
-0.030988 -0.026818 0.062203 120 131 135
-0.004385 0.034029 -0.032297 58 75 82
0.010994 -0.017830 -0.000587 152 152 152
0.120196 0.000645 -0.024497 160 154 147
0.107127 -0.057438 0.044443 48 64 61
0.013814 0.023229 -0.060877 160 158 159
0.102956 -0.054379 0.055033 120 131 135
0.161043 -0.022266 0.028103 168 162 155
0.020910 0.043212 -0.091157 136 134 128
0.025645 -0.026483 0.008603 78 94 92
0.036991 0.035989 -0.081387 134 132 126
-0.171640 -0.041139 0.065193 89 84 79
-0.086006 0.037353 0.001013 114 120 119
0.052349 0.047053 -0.086447 104 101 98
-0.106951 0.057054 -0.046947 119 118 115
-0.084875 -0.024833 0.101923 135 140 143
0.016050 0.040787 -0.087627 65 78 76
0.079800 0.046193 -0.078627 109 104 99
0.007594 -0.100206 0.103963 69 85 83
0.036858 0.045342 -0.089147 133 131 125
-0.073799 0.066730 -0.040727 117 123 123
0.120158 -0.034748 0.030283 64 75 73
0.003803 -0.054671 -0.033337 106 128 146
-0.111157 -0.070422 0.062203 61 61 99
0.102632 0.045584 -0.072837 124 118 111
0.273343 -0.058716 0.119093 32 49 63
-0.175958 -0.081670 0.025963 21 32 31
-0.093271 -0.047007 0.060733 30 34 107
-0.063619 -0.089264 0.060733 105 105 105
0.089070 0.045678 -0.076197 114 112 106
-0.207234 -0.043784 0.060733 98 97 94
0.048669 -0.029252 0.022843 82 95 93
-0.196033 -0.030190 0.065193 78 77 74
0.164445 -0.078905 0.092183 72 94 112
0.068162 0.010433 -0.041657 66 60 58
0.006797 0.021667 -0.059527 82 95 94
0.089886 -0.139140 0.110243 112 133 149
0.016959 -0.016279 -0.002157 165 165 165
0.011182 0.022678 -0.062527 149 149 150
-0.120669 -0.055007 0.065193 29 35 101
-0.153688 0.048262 -0.001377 110 111 108
0.044646 -0.007082 -0.013087 166 164 165
0.030950 0.027659 -0.072837 135 134 131
0.119675 0.069899 -0.055257 74 78 78
0.009520 0.022290 -0.061547 150 153 156
-0.132141 0.041713 -0.015107 114 114 114
0.057679 0.029121 -0.070097 49 42 43
-0.144047 0.003995 0.038313 100 101 98
0.099387 0.048589 -0.073367 94 92 86
0.000934 -0.081648 0.065193 70 86 84
-0.066789 0.070187 -0.040257 126 132 131
0.075328 0.026234 -0.066597 141 136 126
-0.069457 -0.028588 0.071413 132 140 142
-0.076390 -0.103323 0.088483 108 109 106
-0.076560 0.059248 -0.036887 117 123 123
-0.003261 -0.006990 -0.016427 81 97 95
-0.107556 -0.069851 0.041953 98 98 98
-0.079137 0.068984 -0.048207 121 127 126
-0.349132 -0.004019 0.193473 20 41 64
-0.078266 -0.055960 0.060733 110 122 137
-0.090306 -0.067899 0.062203 51 56 120
-0.025246 0.053041 -0.011717 113 123 125
-0.137269 -0.034487 0.073013 91 92 89
0.041076 0.041982 -0.087237 136 131 126
0.078677 0.030088 -0.071487 148 143 133
0.049245 0.016660 -0.051047 159 159 159
-0.190266 -0.043552 0.092183 90 87 84
-0.076220 0.052643 -0.035387 118 124 123
0.071194 0.045732 -0.083567 116 114 108
-0.092247 0.064332 -0.043017 119 123 122
0.064902 -0.003873 -0.016427 163 161 161
-0.056435 0.063304 -0.031227 119 125 125
0.170181 -0.083938 0.090323 80 98 115
-0.109674 0.049387 -0.032817 109 113 112
0.094374 0.016398 -0.046097 142 137 132
0.082922 0.040001 -0.078147 131 126 116
-0.165624 -0.076637 0.027023 27 32 35
-0.112205 -0.061331 0.060733 20 26 87
0.099294 0.042000 -0.075697 123 119 112
0.052313 0.030780 -0.072577 163 157 155
-0.044940 -0.022527 0.065193 127 136 140
0.029910 0.035854 -0.085437 147 146 143
-0.130164 -0.077411 0.032513 93 92 89
0.167245 -0.097922 0.126093 76 82 82
0.031412 0.042081 -0.088967 139 137 131
0.072555 0.042684 -0.080707 103 99 92
0.019094 0.028662 -0.068377 164 162 162
0.267091 -0.042154 0.119093 14 27 40
-0.117954 -0.005277 0.069823 98 104 104
-0.081552 -0.016355 0.106023 131 139 141
-0.016805 0.081416 -0.039787 105 113 115
0.138791 0.015421 -0.038357 167 155 146
-0.017768 0.034344 0.022843 92 101 110
-0.017298 0.059549 -0.013767 110 118 120
0.082230 0.020315 -0.055627 159 155 148
-0.071649 -0.017075 0.079663 133 141 143
0.006219 0.053832 -0.077427 58 74 72
0.018471 0.041289 -0.088017 132 129 126
0.001983 0.056458 -0.067787 54 66 68
-0.078250 0.041706 -0.019637 116 122 121
0.125896 0.073212 -0.047787 74 78 78
-0.051565 -0.065081 0.079663 72 90 102
-0.010582 -0.000596 -0.015107 65 76 80
-0.013526 0.070690 -0.048617 108 117 116
0.080068 0.056077 -0.077907 78 93 99
0.003720 0.020788 -0.054507 70 85 86
-0.068050 0.066946 -0.038357 124 130 130
-0.076837 -0.075656 0.060733 121 128 132
-0.124488 0.053055 -0.030687 114 114 114
-0.145553 0.020812 0.032513 106 112 111
-0.165251 0.046673 0.006003 110 108 108
-0.071542 0.012495 0.043193 107 114 118
-0.093522 0.013315 0.050943 111 119 121
0.064288 -0.100523 0.069823 41 56 57
0.041077 -0.015101 -0.006707 141 139 140
0.044176 -0.070664 0.053653 66 82 79
-0.168913 -0.052979 0.038313 50 60 62
0.085212 0.028830 -0.067497 152 146 139
0.005662 0.015063 -0.049437 80 93 92
0.058738 0.012694 -0.046527 146 145 142
0.028659 0.047790 -0.092037 121 121 115
0.100803 0.049697 -0.073637 93 92 84
0.105473 -0.035612 0.031393 74 90 93
0.098189 0.063815 -0.065687 79 88 87
0.059771 0.037810 -0.081387 130 124 117
0.138682 -0.027591 0.018833 151 146 141
0.008544 -0.016658 -0.008167 150 150 150
0.212684 -0.035873 0.083113 140 131 132
-0.113427 -0.101654 0.121383 104 104 105
0.115402 -0.047438 0.045713 119 131 139
0.070657 0.043051 -0.081607 127 123 116
0.079046 0.004288 -0.031767 173 171 165
-0.021812 -0.046837 0.037123 115 127 137
-0.033700 0.044754 0.006003 109 118 122
-0.030518 -0.021749 0.059283 116 130 133
-0.180514 0.000569 0.073013 30 34 33
-0.055931 0.069198 -0.047367 125 131 131
0.031757 0.044283 -0.089527 140 138 132
0.037250 -0.011357 -0.008167 159 163 163
0.089383 0.034899 -0.074417 149 139 130
0.081547 0.022039 -0.066297 157 151 144
0.102754 -0.016745 0.001013 165 162 159
-0.059802 -0.056280 0.083113 107 127 145
-0.081691 0.051433 -0.010317 116 122 121
0.107996 0.058454 -0.064127 69 79 74
0.335525 -0.116063 0.183003 83 82 74
-0.054138 -0.023887 0.049613 139 147 149
0.104799 -0.037676 0.053653 56 67 65
-0.101320 0.064048 -0.037377 118 122 121
0.095937 0.007999 -0.037867 177 172 167
-0.124825 0.008849 0.032513 100 106 105
-0.086384 0.043274 0.006863 114 120 119
-0.133358 -0.080860 0.040723 93 92 89
0.022075 -0.032538 0.015933 58 70 80
-0.149654 -0.002467 0.050943 66 59 61
-0.000776 0.011819 -0.042567 64 76 78
0.025508 0.038383 -0.086647 144 141 138
0.011725 0.007795 -0.038357 155 154 158
0.075285 0.022067 -0.060547 159 155 148
-0.095896 0.073232 -0.043917 109 114 110
0.002157 0.056322 -0.068087 53 65 67
0.021621 0.031097 -0.073897 145 143 143
-0.166617 0.013624 0.034793 99 105 105
0.024092 0.026952 -0.068087 153 151 151
0.007210 0.047010 -0.084407 54 70 68
-0.083008 0.034644 0.022843 116 122 121
0.150578 -0.043065 -0.005217 83 80 77
-0.054051 0.072770 -0.052227 128 134 133
-0.157063 -0.087597 0.012193 18 27 25
-0.050166 0.067142 -0.039787 121 130 129
0.008449 -0.025817 0.009493 79 92 91
0.003803 0.003696 -0.033337 145 145 146
-0.078794 -0.045019 0.074643 138 143 146
-0.118421 0.038748 0.009493 118 118 118
0.104277 -0.007288 -0.011017 165 160 155
0.017920 -0.091074 0.108123 68 84 82
0.043689 0.028677 -0.073107 137 134 131
-0.189399 0.015036 0.039513 98 102 102
0.028277 0.002971 -0.036397 168 167 171
0.160165 -0.034204 0.038313 67 73 72
-0.210945 -0.044550 0.057853 97 98 95
0.270392 -0.041315 0.116833 18 23 32
-0.088938 0.067522 -0.042117 122 126 125
-0.060217 -0.081131 0.056433 46 59 57
0.044785 0.017634 -0.057787 164 160 160
-0.123910 0.034125 0.002643 113 117 116
-0.094963 0.035158 0.006003 114 120 119
-0.102420 0.070485 -0.049027 111 111 111
-0.248338 -0.190134 0.306143 101 101 101
-0.003004 -0.022908 -0.004467 79 92 91
-0.116909 -0.047719 0.062203 25 33 101
-0.153096 -0.086947 0.021823 20 40 26
-0.056721 0.068100 -0.029607 119 128 127
0.110776 0.001698 -0.022707 166 159 154
-0.139238 0.042863 -0.009607 114 115 112
0.159942 -0.034283 0.037123 61 70 69
0.076194 0.024948 -0.063177 152 147 137
-0.102277 0.063391 -0.045667 117 117 117
0.084914 0.021320 -0.059527 154 148 141
0.146704 -0.101087 0.101923 92 96 95
0.056142 0.025467 -0.066297 158 152 150
0.039448 -0.000719 -0.024497 158 158 159
0.129782 -0.118632 0.074643 109 128 142
0.048787 -0.021525 0.014043 167 165 166
-0.147074 0.056037 -0.008167 114 115 112
-0.166039 0.014482 0.043193 103 109 108
0.076872 -0.090070 0.076293 64 77 75
0.093700 -0.049814 0.050943 124 136 144
0.024633 0.026692 -0.068667 154 152 152
-0.098675 0.061684 -0.046947 119 119 119
-0.142209 0.026828 0.025963 108 112 111
0.058311 0.024808 -0.064127 166 161 156
0.039902 -0.002538 -0.024497 164 164 165
0.081057 0.011044 -0.041197 168 163 158
0.045310 0.045805 -0.085647 125 123 117
-0.095082 0.053889 -0.013087 111 117 116
0.027365 0.044495 -0.090797 121 120 117
-0.187201 -0.063165 0.031393 36 40 39
-0.057877 0.059268 -0.028497 119 128 127
-0.046049 0.072242 -0.055257 125 131 131
-0.003547 0.073657 -0.049847 109 119 121
-0.047150 0.077884 -0.049027 121 130 129
0.047804 0.002924 -0.030147 170 168 169
-0.012010 -0.014240 0.000213 68 83 84
0.043718 0.019318 -0.056717 159 157 157
-0.069153 0.067944 -0.040727 121 127 127
0.034497 0.047898 -0.089707 121 121 115
0.005386 -0.065355 0.052293 70 83 82
0.016466 0.049431 -0.085027 77 90 88
0.014394 0.031793 -0.075437 152 151 148
-0.094637 -0.033880 0.038313 28 33 102
0.007561 0.010361 -0.047367 157 155 156
-0.171902 -0.021680 0.050943 74 78 78
-0.131998 0.053980 -0.023307 114 115 112
0.148478 -0.060597 0.083113 122 133 137
-0.035948 0.029051 0.023873 108 118 120
0.331153 -0.057182 0.163783 6 6 7
0.135387 -0.021492 0.010383 153 148 143
0.081428 0.031855 -0.072577 153 147 140
-0.122019 -0.062593 0.052293 85 89 89
-0.146759 -0.030465 0.007733 87 85 79
-0.104613 -0.030324 0.068263 84 89 119
-0.180083 -0.012987 0.060733 13 14 11
0.043597 0.057149 -0.086847 105 104 96
0.112860 0.027696 -0.064757 146 141 131
-0.143620 -0.038893 0.049613 92 92 86
-0.178216 -0.032392 0.032513 72 72 72
-0.172215 -0.063792 0.015933 23 41 26
0.014130 0.050004 -0.095537 68 81 79
0.143304 -0.065541 0.086673 102 114 122
-0.023539 -0.061903 0.052293 95 119 141
-0.008942 0.070514 -0.042567 108 116 118
0.028133 0.013406 -0.048207 167 167 168
-0.074499 0.059591 -0.030687 116 122 122
0.088949 -0.105359 0.071413 109 129 147
0.131816 -0.023114 0.006863 160 156 149
0.355197 -0.155584 0.228903 97 96 88
0.090183 0.044401 -0.076447 113 108 103
0.106997 0.059805 -0.061547 62 71 69
-0.080380 0.012726 -0.003707 112 118 118
0.277931 -0.131412 0.208413 102 100 94
-0.172650 -0.054177 0.034793 69 75 68
-0.188892 -0.052663 0.077963 77 77 77
0.076456 0.025355 -0.063817 142 139 129
-0.095233 -0.048098 0.050943 37 35 100
0.100291 -0.112056 0.069823 106 127 143
0.087319 -0.026461 0.015933 153 153 147
0.128793 -0.013473 0.006863 167 162 157
-0.082613 -0.002256 0.053653 92 100 107
-0.145454 -0.068935 0.020813 25 34 25
0.018027 -0.034795 0.020813 123 137 154
-0.089673 -0.021725 0.056433 20 29 94
0.309493 -0.061523 0.143823 28 39 52
-0.044612 -0.035141 0.049613 111 116 119
0.013029 0.016853 -0.056347 162 162 163
0.090580 -0.046515 0.037123 122 134 142
0.030920 -0.072316 0.049613 68 81 79
0.092324 -0.076555 0.059283 65 78 76
0.065610 0.043712 -0.083137 128 123 118
0.085086 -0.059843 0.033643 60 73 71
0.012906 0.003753 -0.034887 138 136 137
0.009866 0.000455 -0.029057 164 162 163
0.055114 -0.033821 0.025963 59 77 75
0.236957 -0.026455 0.083113 73 71 65
0.048305 0.031521 -0.073367 149 147 141
-0.020174 -0.081642 0.097943 88 113 132
-0.147894 0.036928 0.010383 108 113 109
-0.194440 -0.121505 0.121383 85 84 81
0.094748 0.017505 -0.046947 142 133 128
-0.122782 0.048464 -0.017077 109 113 112
0.103729 0.029314 -0.067497 155 148 138
0.126308 -0.103290 0.055033 106 104 104
0.090356 0.053261 -0.074157 58 67 66
0.017927 0.022340 -0.062527 141 139 140
0.033426 0.037257 -0.084407 134 132 126
-0.115371 -0.047728 0.059283 24 31 102
0.320617 -0.117067 0.149273 81 75 68
0.093041 -0.053485 0.062203 119 131 139
-0.141269 -0.095764 0.037123 70 77 68
0.046195 0.016609 -0.051837 166 163 160
0.044245 -0.103127 0.069823 106 128 146
0.102968 0.062884 -0.061877 79 85 85
0.059646 0.011767 -0.044797 163 161 155
-0.101390 0.068646 -0.054887 112 113 110
-0.014173 0.075836 -0.043467 107 113 113
-0.174531 -0.066058 0.021823 24 45 29
0.041061 -0.061589 0.047003 64 77 76
-0.155720 0.011747 0.037123 104 108 107
0.001691 -0.086756 0.048303 100 123 134
-0.010110 -0.089861 0.052293 104 127 143
0.120716 -0.102832 0.063683 105 124 138
0.101908 0.029825 -0.068957 153 145 138
-0.081369 0.071170 -0.046097 120 124 123
-0.036306 0.042147 0.011283 112 122 124
-0.170533 -0.055303 0.050943 40 39 43
0.064734 -0.017689 0.000213 145 143 144
-0.149697 -0.089836 0.015933 32 42 30
0.155449 -0.031855 0.031393 142 140 134
0.089296 -0.077416 0.037123 71 84 82
-0.022772 0.071651 -0.043917 111 117 117
0.043597 0.057412 -0.086847 103 103 97
0.080595 -0.096530 0.049613 109 129 147
-0.169528 -0.051665 0.037123 92 91 88
-0.109557 0.023239 0.014983 112 118 117
-0.070790 -0.069970 0.065193 79 87 89
-0.154361 -0.013345 0.060733 21 25 24
-0.170460 -0.060931 0.035953 22 32 34
-0.017158 0.034809 0.011283 104 114 121
-0.008007 0.058487 -0.026237 110 119 123
0.086239 -0.002104 -0.017727 173 171 165
-0.171743 -0.072547 0.018833 22 31 22
-0.023653 0.066120 -0.044357 108 117 116
-0.009681 -0.003429 -0.019007 66 81 82
0.067604 0.055153 -0.081167 99 100 92
-0.026963 0.039028 0.009493 108 117 121
-0.005648 0.002924 -0.030147 69 84 85
-0.032864 -0.003447 0.056433 98 110 118
-0.155016 -0.011322 0.062203 76 81 77
-0.159725 -0.066964 0.018833 50 57 53
-0.018688 -0.097602 0.068263 108 130 150
-0.144018 -0.028540 0.005153 83 82 79
-0.170209 -0.091038 0.027023 24 33 32
-0.084044 -0.068745 0.063683 69 74 83
0.055342 0.031551 -0.073897 152 146 144
-0.026821 0.011006 0.060733 84 92 99
-0.067009 0.062277 -0.033337 116 122 122
-0.100823 0.068095 -0.043917 116 117 114
-0.046049 -0.037721 0.045713 139 148 147
0.057799 -0.098576 0.049613 112 132 150
0.106557 0.021275 -0.056717 148 138 129
0.055204 0.014280 -0.045667 132 130 130
-0.129801 0.033452 -0.022707 110 110 110
-0.090797 -0.013292 0.076293 79 88 92
0.017984 0.036970 -0.081387 145 144 141
-0.097869 0.069409 -0.046527 116 120 119
0.023617 -0.061031 0.043193 62 75 74
-0.214346 -0.062621 0.135973 90 90 84
0.122237 -0.000229 -0.025077 159 150 145
-0.131146 0.038479 -0.010317 112 112 112
-0.104293 0.048868 -0.009607 109 113 112
-0.142679 0.024854 0.035953 108 112 111
0.006012 0.008237 -0.045237 152 150 151
-0.106528 0.005767 0.050943 109 115 115
0.084970 0.014140 -0.044357 175 176 168
-0.110498 0.064759 -0.023897 115 119 118
0.118876 -0.037367 0.033643 120 133 139
0.399025 -0.160366 0.251723 89 85 78
0.017949 0.049838 -0.093577 64 77 75
-0.120396 -0.089326 0.037123 99 99 93
-0.086004 0.024967 0.014983 113 119 118
0.090659 0.035135 -0.077907 139 132 122
0.092358 0.020101 -0.055987 138 130 123
-0.094368 0.066328 -0.038357 119 123 122
0.028191 -0.074443 0.073013 63 79 77
-0.070333 -0.000562 0.073013 98 108 115
0.147944 -0.020674 0.015933 168 162 155
-0.087749 0.072602 -0.055257 118 118 118
-0.022719 -0.090602 0.062203 106 128 146
-0.043724 0.038045 0.008603 109 119 121
-0.040579 -0.064258 0.056433 72 82 84
-0.073123 -0.079506 0.052293 103 103 103
0.337740 -0.068720 0.166843 16 22 29
0.085755 -0.014788 -0.008887 164 162 156
0.111400 0.003855 -0.031767 172 165 160
-0.006954 -0.016437 0.010383 83 96 95
0.031359 0.040172 -0.086447 142 142 136
0.079310 0.002715 -0.025077 175 175 169
-0.026618 0.075602 -0.041197 113 119 119
0.134333 -0.010526 0.000213 158 152 145
0.079970 0.000682 -0.016427 162 159 156
0.149024 -0.070978 0.037123 101 98 95
0.067368 0.039233 -0.083777 132 128 121
-0.024606 0.026536 0.010383 106 115 119
0.050906 0.040329 -0.085647 147 144 141
0.092696 0.033264 -0.074927 157 152 142
-0.063367 0.059263 -0.018367 122 131 130
0.087501 0.055696 -0.072837 66 71 67
-0.048241 0.053529 -0.017727 109 117 119
0.170238 -0.087697 0.088483 97 113 130
0.052709 0.029116 -0.074677 140 137 134
0.099556 0.036934 -0.074157 124 116 109
0.010345 -0.043080 0.021823 120 133 146
0.037523 0.040941 -0.085437 133 132 124
0.065258 0.058027 -0.078627 87 96 100
-0.085519 -0.061213 0.052293 33 39 119
-0.171743 -0.053448 0.018833 52 66 49
0.014398 0.036354 -0.082487 67 78 77
0.093603 0.011366 -0.045237 172 167 162
0.048895 -0.052109 0.066713 122 137 151
-0.101429 0.073377 -0.048207 117 118 115
0.040449 -0.008404 -0.014447 145 142 146
-0.177959 -0.018395 0.055033 2 7 3
-0.114507 0.033565 0.016883 108 112 111
-0.175307 -0.059052 0.057853 81 80 77
0.041155 0.036960 -0.079567 134 132 126
0.048812 -0.008019 -0.015777 167 165 166
-0.106684 0.054283 -0.034887 114 114 114
-0.067902 -0.129238 0.106023 110 111 108
-0.123945 0.049433 -0.005217 118 119 116
0.286513 -0.064492 0.154923 1 9 16
0.061895 0.049779 -0.082487 94 92 86
-0.164122 -0.085389 0.016883 50 57 48
0.081872 -0.096918 0.066713 83 96 94
0.028426 0.037799 -0.084407 144 142 136
0.005130 0.014013 -0.051837 82 95 94
0.086454 -0.090797 0.090323 65 78 76
-0.039508 -0.071634 0.049613 79 87 89
-0.060684 0.054892 -0.026237 125 134 133
-0.167523 -0.022428 0.056433 17 26 25
0.089420 0.048058 -0.075437 113 111 105
0.064102 0.043517 -0.083987 117 112 107
0.146303 -0.003329 -0.020257 164 156 149
-0.004200 0.069525 -0.042117 107 118 117
0.083015 0.043755 -0.080487 116 113 110
-0.109514 -0.054339 0.040723 15 19 77
0.043224 -0.003040 -0.023897 167 165 166
0.003598 0.035939 -0.068087 57 70 69
-0.016198 0.065709 -0.037377 111 120 119
0.126118 -0.023022 0.009493 150 145 140
0.351335 -0.176217 0.186433 97 93 86
0.156212 -0.081106 0.103963 81 96 102
-0.134792 0.037047 0.020813 112 116 115
0.066249 0.016105 -0.047787 161 155 153
-0.035941 -0.032969 0.041953 121 131 133
-0.017800 0.034860 0.007733 110 120 127
0.097465 -0.024216 0.006863 149 149 143
0.300774 -0.051812 0.143823 11 17 24
-0.082487 -0.029318 0.130953 132 140 142
-0.090438 0.072224 -0.044357 113 117 116
0.147237 -0.058517 0.090323 122 132 139
-0.112167 -0.016622 0.015933 83 83 77
0.095290 -0.132953 0.133443 104 129 148
-0.099188 0.003020 0.065193 100 107 111
0.084840 0.030337 -0.075947 153 147 140
-0.110018 0.075882 -0.037377 117 117 117
0.032803 -0.117375 0.189913 66 82 80
0.011684 0.036902 -0.081607 73 86 85
0.026148 -0.059313 0.041953 63 79 77
-0.007887 -0.062048 0.060733 56 68 70
-0.107083 0.058880 -0.025077 114 119 115
0.077255 -0.020085 0.008603 168 164 164
0.111869 0.028871 -0.062857 147 137 128
0.011101 -0.064756 0.063683 65 78 77
0.043238 0.050233 -0.088587 102 102 96
-0.065731 0.048894 0.000213 121 129 131
0.033207 0.049127 -0.091337 120 120 114
-0.147932 0.043469 -0.006707 108 108 108
0.039222 0.015983 -0.052997 154 152 152
-0.170562 -0.051702 0.039513 80 84 83
0.066078 -0.105377 0.062203 109 129 147
-0.174931 -0.053889 0.035953 88 86 80
-0.136737 0.009151 0.025963 100 104 103
-0.109097 0.046079 -0.002937 115 120 116
-0.089435 0.014171 0.031393 109 118 117
-0.053242 0.057941 -0.028497 121 130 129
0.278241 -0.078540 0.149273 20 30 45
0.211579 -0.083049 0.086673 97 95 89
-0.111773 0.057602 -0.046527 112 113 110
0.088197 0.055569 -0.073107 64 69 65
-0.065829 0.070405 -0.039787 131 137 136
0.003852 -0.007082 -0.013087 167 167 168
0.010903 0.009020 -0.044797 152 150 151
-0.135755 0.051259 -0.013767 116 117 114
-0.101100 0.028207 0.002643 112 118 117
-0.117422 -0.055945 0.049613 76 80 85
0.110755 -0.043268 0.038313 124 133 142
-0.019208 -0.076814 0.015933 107 129 149
-0.165001 0.023536 0.018833 102 106 105
-0.055494 0.076585 -0.052997 126 132 131
0.008509 0.024430 -0.060877 80 93 92
0.117929 -0.038317 0.033643 124 136 144
0.011884 0.047009 -0.080487 58 74 71
-0.088403 0.063259 -0.029057 114 120 120
0.131990 0.004124 -0.033337 165 159 152
-0.119671 0.061924 -0.035897 116 117 114
0.120381 -0.003685 -0.015777 161 154 149
-0.110079 -0.038710 0.062203 30 37 101
0.033701 -0.079459 0.065193 67 83 80
-0.108924 -0.047069 0.050943 27 31 103
0.103584 0.013031 -0.053377 177 171 164
0.089218 0.032946 -0.076197 155 150 140
0.080561 0.029537 -0.070377 154 149 139
0.054397 0.016336 -0.050247 149 146 143
0.086654 0.041034 -0.077667 107 103 96
-0.091506 0.033399 0.017853 107 113 112
-0.025325 -0.009241 0.045713 86 103 117
0.115750 -0.034911 0.032513 72 85 84
0.063387 0.058460 -0.078627 80 97 104
0.009086 0.056022 -0.085027 51 67 65
-0.083092 -0.157372 0.160773 109 110 107
0.048078 0.036679 -0.080027 162 160 154
-0.150211 0.032170 -0.003707 110 111 108
0.146964 -0.143767 0.119093 108 128 140
0.056542 0.036081 -0.082927 150 148 142
0.050554 -0.070558 0.045713 62 78 75
-0.102717 0.068050 -0.046947 108 112 111
0.003257 0.018340 -0.051047 78 90 92
0.192982 -0.032944 0.062203 92 85 86
0.061111 0.035388 -0.079567 145 140 135
0.073152 0.012944 -0.044797 166 165 162
-0.146726 0.047366 -0.009607 110 108 108
-0.075296 -0.071991 0.056433 127 129 134
-0.012185 -0.018858 0.004303 78 91 90
-0.042637 -0.088408 0.057853 88 97 96
0.099196 -0.005492 -0.017077 169 167 161
0.016413 0.020462 -0.054137 158 158 159
-0.103623 0.053273 -0.030687 112 117 113
-0.070152 0.057104 -0.042117 117 123 122
0.021594 -0.105263 0.121383 69 85 83
0.030592 0.048628 -0.091337 119 119 113
-0.040483 0.015476 0.043193 109 119 121
0.038678 0.041683 -0.086647 135 134 126
-0.084663 0.075637 -0.046097 122 122 122
0.150322 -0.008121 -0.005217 165 157 150
0.326421 -0.065140 0.157823 24 32 39
0.006238 0.053345 -0.080257 58 74 71
-0.093792 -0.058728 0.003473 96 97 94
-0.036949 0.073858 -0.052607 111 117 117
-0.010290 0.026726 -0.003707 78 95 104
0.125494 0.014015 -0.042567 160 152 145
0.105798 0.013941 -0.039317 174 166 159
-0.201393 -0.083553 0.043193 34 48 31
0.074217 0.038235 -0.080937 134 128 121
-0.166514 -0.002312 0.023873 16 43 62
0.016062 0.010565 -0.046527 167 165 165
0.073516 0.036084 -0.078147 132 126 119
-0.054042 -0.076174 0.065193 12 26 21
0.010945 0.048974 -0.085437 57 70 69
-0.158995 0.012987 0.034793 98 104 103
0.038992 0.027705 -0.070097 132 128 128
-0.046035 0.073164 -0.054887 121 130 129
-0.146574 0.001650 0.050943 105 105 105
0.017121 0.045680 -0.091507 75 88 86
0.003021 0.055536 -0.069817 54 67 66
-0.030901 0.071564 -0.058137 109 118 117
0.069030 0.031610 -0.072307 141 135 128
-0.322073 -0.049455 0.169953 77 77 71
-0.001783 0.006779 -0.039317 73 88 89
-0.061834 -0.022561 0.068263 130 140 142
0.057850 0.030110 -0.072837 31 27 28
0.020190 0.005259 -0.035897 169 169 170
0.030287 0.035308 -0.085027 146 145 142
0.040056 0.048628 -0.091337 106 106 100
0.130323 -0.106767 0.050943 107 106 103
-0.089116 0.077466 -0.047367 118 118 118
0.011317 0.040611 -0.083357 65 78 76
0.349673 -0.152126 0.220453 93 92 84
0.014424 0.033054 -0.076937 128 124 124
-0.051524 0.073087 -0.046527 123 129 128
0.045239 0.006765 -0.038357 154 150 150
0.125840 -0.016774 -0.000587 171 166 161
0.019523 0.041008 -0.087037 141 139 133
-0.013861 -0.091591 0.063683 62 76 79
-0.137098 0.040911 -0.013087 111 112 109
0.325121 -0.158478 0.154923 97 91 84
-0.219233 0.031629 0.074643 101 105 104
0.113801 -0.005300 -0.008167 165 160 155
0.066610 0.060516 -0.076687 79 93 101
-0.163516 -0.079188 0.021823 30 37 41
0.095755 -0.118419 0.077963 111 129 146
-0.090153 0.051329 -0.017077 118 124 123
0.057977 -0.020487 0.004303 138 136 137
0.035513 0.052486 -0.088967 112 112 106
0.099040 0.032362 -0.070377 136 126 117
0.053814 -0.069751 0.055033 62 75 73
-0.127407 0.017775 0.050943 113 119 119
0.129672 -0.018769 -0.002937 165 161 154
-0.026442 -0.091660 0.035953 113 133 151
-0.138377 -0.019983 0.092183 23 26 29
0.060963 0.041767 -0.083567 151 147 140
-0.020104 0.051483 -0.002157 114 123 127
-0.166885 0.021927 0.030283 108 109 106
0.156456 -0.063958 0.033643 100 98 92
-0.026979 0.072192 -0.059527 110 119 118
0.018390 0.043516 -0.090437 130 129 126
0.016507 0.030127 -0.072037 161 159 159
-0.015341 0.063126 -0.022097 108 118 120
0.133992 -0.106120 0.083113 87 99 101
-0.050753 -0.005645 0.057853 82 100 117
-0.015881 0.049726 -0.008167 114 123 127
0.154552 -0.055796 0.094083 122 131 140
-0.096255 -0.054773 0.044443 26 33 105
0.043321 0.050585 -0.088397 103 102 99
-0.026184 0.048061 -0.017727 113 123 125
0.006170 -0.030960 0.023873 77 90 88
-0.144934 -0.088091 0.029183 17 32 19
0.013414 0.027598 -0.069817 142 142 143
-0.103252 0.047270 -0.017077 113 118 114
0.064455 0.026320 -0.065067 130 124 122
-0.246019 -0.124793 0.193473 91 91 85
-0.001544 0.069902 -0.043017 101 108 112
0.062372 0.020455 -0.057787 151 150 147
-0.106925 0.063515 -0.042117 116 117 114
0.020215 0.038547 -0.084197 137 134 131
-0.008452 -0.040664 0.030283 127 140 153
-0.105914 0.066932 -0.040727 112 116 115
-0.073425 0.041606 -0.019007 111 117 116
-0.072160 -0.086142 0.068263 105 109 108
0.045780 0.045664 -0.087817 123 121 115
0.024399 0.022764 -0.063177 135 132 129
0.033256 0.049772 -0.090797 120 120 114
-0.129694 0.006534 0.043193 97 106 105
-0.040038 0.064141 -0.029057 111 120 119
-0.025131 -0.090527 0.081373 103 125 143
0.019724 0.007363 -0.036397 169 168 172
-0.060459 0.063597 -0.035387 118 124 124
0.070488 0.036252 -0.080027 147 141 134
-0.019427 0.069483 -0.062857 105 114 113
-0.037818 0.004894 0.062203 108 119 123
-0.069914 0.048966 -0.015107 121 127 127
-0.087137 -0.036485 0.032513 29 33 105
0.104332 -0.077999 0.065193 66 79 77
-0.089165 0.004156 0.083113 100 108 115
-0.160074 0.013493 0.029183 97 103 103
0.109655 -0.042552 0.040723 124 136 144
0.189257 -0.054977 0.094083 98 96 97
0.018785 0.022055 -0.059177 151 151 152
0.065139 0.033474 -0.076447 123 121 115
-0.036804 -0.006865 0.055033 79 100 116
-0.028915 -0.005134 0.009493 107 121 129
-0.160672 -0.060593 0.030283 70 70 64
0.022113 0.032638 -0.077427 144 143 140
-0.095301 0.046793 -0.019007 113 117 116
0.076697 0.055472 -0.080257 84 94 96
0.088380 -0.047492 0.034793 115 128 134
-0.069906 0.061542 -0.053377 119 123 122
0.112474 0.024736 -0.057427 145 137 130
-0.049608 0.069738 -0.048617 125 131 131
0.020055 0.045695 -0.092557 128 127 124
0.106337 -0.010260 0.002643 165 163 157
0.164642 -0.067262 0.088483 105 122 131
-0.114661 -0.000752 0.059283 96 104 106
0.032855 -0.015542 -0.008887 159 162 165
-0.128944 0.033680 0.011283 109 113 112
-0.173293 -0.093872 0.020813 25 39 24
-0.039612 0.079019 -0.034887 112 118 118
0.000525 0.032887 -0.055627 61 73 75
-0.050060 -0.015077 0.047003 126 136 138
0.036286 0.023844 -0.065067 141 141 135
-0.032163 0.070367 -0.034377 112 121 120
-0.177647 -0.123273 0.128503 98 97 94
0.030782 -0.025535 0.014043 82 95 94
-0.103968 0.065130 -0.043467 115 115 115
-0.127797 -0.063387 0.059283 89 90 87
0.311098 -0.069959 0.146523 30 43 56
0.097301 0.019607 -0.057427 161 149 145
0.056373 0.032241 -0.075437 143 139 132
-0.047354 0.050989 -0.020877 108 116 118
-0.000003 0.007022 -0.042117 80 95 96
0.017566 0.034765 -0.077667 47 47 48
0.130669 -0.023335 0.011283 166 161 156
0.072430 0.045111 -0.082047 112 110 104
0.077260 0.002618 -0.022707 175 173 167
0.011524 0.029019 -0.069817 82 95 94
0.077266 -0.035078 0.034793 54 64 59
0.041282 0.047051 -0.089887 120 118 112
-0.148439 -0.010724 0.063683 67 73 72
0.044780 0.046221 -0.087437 122 120 114
-0.038661 0.054386 -0.019637 110 118 120
0.113351 -0.029054 0.021823 155 153 147
-0.011245 -0.021641 0.011283 78 93 94
-0.108248 -0.049135 0.053653 40 44 90
0.116204 -0.109381 0.092183 39 52 51
0.027417 0.011384 -0.044357 147 145 146
-0.059095 0.048892 -0.014447 121 130 129
-0.036274 0.042320 -0.011017 114 124 126
-0.147972 -0.119893 0.169953 102 102 103
0.126887 0.001640 -0.021497 165 159 152
-0.110785 0.052053 -0.039787 112 112 112
-0.078951 0.040661 -0.024497 116 122 121
0.085616 0.035581 -0.078387 139 132 122
-0.000351 0.031250 -0.049847 54 68 71
-0.058862 -0.060535 0.090323 100 121 137
-0.126002 -0.029584 0.068263 88 89 86
0.084032 0.059409 -0.073367 81 89 91
-0.171296 -0.016494 0.053653 13 19 19
0.195336 -0.015130 0.030283 66 60 58
-0.177877 0.008528 0.037123 86 94 96
0.022826 0.040026 -0.088967 129 127 121
-0.023398 0.062690 -0.041197 105 114 113
0.040462 0.037531 -0.081827 141 141 135
0.169310 -0.070371 0.092183 107 122 136
-0.048217 -0.022527 0.065193 127 136 140
-0.207045 -0.010361 0.063683 19 44 63
0.049569 0.014784 -0.047367 148 144 144
-0.298282 -0.015191 0.141163 19 46 70
0.098569 0.020564 -0.056717 142 133 128
-0.073688 -0.033232 0.057853 133 142 141
0.019106 -0.037595 0.023873 122 136 153
0.081977 0.045209 -0.080027 104 102 96
-0.061670 0.051112 -0.022097 124 133 132
-0.107558 -0.008368 0.056433 91 101 103
-0.065746 0.047592 -0.015777 120 126 126
-0.119211 -0.025066 0.017853 90 89 86
0.006260 -0.069033 -0.002937 106 128 146
-0.081144 0.074533 -0.042117 122 126 125
0.002834 0.038129 -0.064757 60 73 72
0.124392 -0.010179 -0.007437 166 160 153
-0.103828 -0.004621 0.071413 92 100 107
0.074327 0.032266 -0.075947 143 140 130
0.047406 -0.068318 0.043193 60 76 73
-0.037005 0.003728 0.084883 110 121 125
-0.094679 0.063430 -0.047367 117 117 117
0.031826 0.016499 -0.050647 166 166 167
0.036228 0.003012 -0.032297 154 152 153
0.009714 0.024724 -0.066897 81 85 85
-0.024848 0.067180 -0.034887 111 120 119
-0.120182 0.050864 -0.019637 111 116 112
-0.115213 0.054367 -0.033337 112 112 112
-0.139394 -0.056436 0.013113 67 66 63
-0.143999 0.019952 0.017853 104 108 107
-0.082514 0.056048 -0.012407 118 124 123
-0.031187 0.065359 -0.048617 110 119 118
0.021022 0.001026 -0.027377 166 166 167
0.114897 -0.065856 0.079663 39 50 49
0.075255 0.022028 -0.060877 157 153 146
0.260008 -0.047981 0.114603 32 45 58
-0.026446 0.054578 -0.027937 110 119 118
-0.122508 0.007520 0.044443 100 106 106
-0.173015 0.018453 0.035953 100 104 103
0.098147 0.024462 -0.058137 163 155 148
0.016071 0.040204 -0.087437 86 90 89
-0.054113 -0.051784 0.069823 105 127 145
0.015509 0.026750 -0.069247 146 144 145
0.022697 0.040539 -0.088967 127 125 119
0.119183 -0.103454 0.074643 98 117 124
0.041664 -0.019137 0.002643 171 169 170
0.081973 0.036316 -0.079327 139 134 124
-0.136918 -0.045281 0.033643 92 92 86
0.100408 0.065283 -0.064447 72 81 80
-0.049142 0.012605 0.031393 108 118 120
0.011819 0.027970 -0.066897 113 119 119
-0.104438 0.069027 -0.054137 110 111 108
0.022027 -0.006686 -0.017077 164 164 165
0.037342 0.055639 -0.087437 106 105 102
-0.162869 0.021477 0.028103 111 112 109
0.046933 0.044636 -0.088397 26 23 20
0.088987 0.048297 -0.075947 114 113 110
0.155969 -0.097407 0.112403 85 89 88
-0.017510 0.066899 -0.045667 112 121 120
-0.044712 -0.022643 0.045713 124 134 136
-0.040092 -0.035785 0.044443 132 137 140
0.098091 0.012604 -0.043017 163 157 150
0.039140 0.052960 -0.089527 109 109 103
-0.126345 0.041824 -0.011017 112 113 110
-0.171574 -0.039606 0.040723 88 87 84
0.038566 -0.007334 -0.017727 147 144 148
0.095166 0.023056 -0.058137 162 155 145
0.004082 0.019881 -0.054507 77 92 93
0.076201 0.012721 -0.045667 172 170 164
-0.056473 -0.078879 0.060733 41 52 51
-0.120347 -0.016771 0.073013 66 70 70
-0.018631 -0.026751 0.015933 123 134 147
0.009112 0.031517 -0.072037 77 90 89
-0.084142 0.015068 0.052293 107 115 117
0.023303 0.038036 -0.089147 134 133 130
0.155615 -0.066566 0.096003 104 124 136
0.031491 0.040039 -0.086447 139 137 131
0.013383 0.001116 -0.029057 151 151 152
-0.063473 0.071372 -0.058487 128 132 131
0.058432 -0.052356 0.083113 124 136 151
-0.060147 -0.053500 0.047003 96 116 128
0.087408 0.042902 -0.078147 118 113 108
-0.181143 -0.052069 0.041953 91 89 83
-0.007616 -0.067422 0.056433 51 67 70
0.060985 0.019683 -0.058487 166 160 158
-0.061146 0.005402 0.077963 108 118 120
-0.149885 -0.043950 0.000213 87 85 79
0.117047 -0.106534 0.090323 79 91 86
-0.088247 0.039392 -0.017077 116 122 121
0.000931 0.058049 -0.063177 65 75 77
0.078007 0.003146 -0.024497 176 174 168
-0.052152 0.061890 -0.027377 116 125 124
-0.003453 0.022585 -0.038837 55 67 69
-0.165017 -0.066102 0.029183 23 32 41
0.011265 0.036343 -0.081607 71 84 83
0.051206 0.047312 -0.087627 98 95 92
0.009851 0.021740 -0.061877 150 154 154
0.070650 0.016618 -0.054507 161 158 155
0.067742 0.062625 -0.073897 69 82 88
0.036144 0.049625 -0.090077 113 113 107
-0.079053 0.066752 -0.035897 119 123 122
-0.045292 -0.012632 0.049613 120 129 133
0.178641 -0.084445 0.094083 93 101 103
0.101376 0.026541 -0.060547 154 146 139
0.055169 -0.010187 -0.017727 164 164 164
-0.121472 0.052634 -0.018367 109 113 112
-0.327814 -0.307106 0.422793 104 104 98
0.041617 0.037732 -0.084197 148 146 140
0.041786 -0.030752 0.022843 82 95 93
0.162357 -0.081060 0.086673 54 81 98
0.060360 0.031221 -0.074677 134 127 122
-0.001151 0.071170 -0.046097 97 105 107
0.042607 0.023800 -0.065377 160 159 156
0.080794 0.038044 -0.077907 129 123 116
-0.067777 -0.060506 0.045713 76 82 82
0.091909 -0.007888 -0.012407 169 167 161
-0.098131 0.072730 -0.042117 119 120 117
0.040115 0.047915 -0.088017 123 121 115
0.102474 0.010487 -0.037377 143 134 129
0.030638 -0.063949 0.047003 64 80 78
-0.165001 -0.074310 0.018833 31 33 38
-0.080446 -0.062026 0.066713 64 67 75
-0.154295 -0.015077 0.047003 9 14 10
0.110896 0.026008 -0.059527 149 136 130
0.015822 0.037044 -0.082047 125 125 125
-0.181536 -0.036078 0.071413 41 38 47
0.105232 0.028846 -0.065687 157 150 140
0.098564 0.001069 -0.023897 173 169 162
0.004188 0.015914 -0.051047 82 94 96
-0.048042 0.033232 0.018833 112 120 122
-0.117807 0.066534 -0.038357 118 119 116
-0.160640 -0.088006 0.016883 11 21 16
0.086986 0.004979 -0.033337 166 164 158
-0.040879 -0.031382 -0.077427 104 105 102
-0.026836 0.072578 -0.058837 107 116 115
-0.100511 0.077054 -0.014447 126 131 127
0.051634 0.028737 -0.072037 151 148 145
0.045424 0.028483 -0.071757 137 136 133
0.106647 -0.155787 0.141163 109 131 144
0.064240 0.040140 -0.083137 136 135 127
0.036779 0.009027 -0.041197 161 157 158
0.058031 0.019999 -0.058837 172 167 162
0.039866 0.033118 -0.076687 138 138 132
-0.051782 -0.102958 0.053653 109 110 107
-0.011234 -0.068601 0.057853 60 79 93
0.107671 -0.081230 0.084883 64 77 75
-0.145445 -0.025972 0.033643 91 90 87
0.051239 0.025046 -0.064757 141 140 137
-0.068416 0.037612 -0.006707 109 120 119
0.080009 0.044857 -0.079097 101 99 93
-0.044103 0.073773 -0.044797 118 127 126
0.075198 -0.026439 0.011283 84 97 96
0.032789 0.042929 -0.087817 139 138 130
0.038301 0.043888 -0.088017 128 126 120
0.040491 0.023436 -0.063177 141 140 137
-0.004312 0.027581 -0.038357 95 109 119
0.049313 0.049964 -0.086447 110 110 104
-0.129697 0.028579 0.006003 109 113 112
-0.103534 0.052216 -0.019007 113 117 116
-0.101303 0.061393 -0.049437 118 118 118
0.053348 -0.010429 -0.011717 168 168 169
0.010056 0.050902 -0.084197 53 69 67
-0.062050 0.062358 -0.036397 121 127 127
0.025841 0.001056 -0.027937 161 161 162
0.014047 -0.008075 -0.019637 167 167 168
0.197066 -0.078633 0.050943 95 94 86
0.043516 0.043637 -0.087037 127 125 119
-0.011382 -0.003305 -0.014447 60 74 77
0.071552 0.015295 -0.048617 168 165 162
0.088793 0.029167 -0.070657 156 148 141
-0.121568 0.037225 -0.002937 95 96 93
-0.177576 -0.091949 0.022843 38 41 49
-0.119595 -0.023556 0.073013 70 75 91
-0.062880 0.053151 -0.031767 116 124 126
-0.005284 -0.002584 -0.023897 77 89 91
-0.032352 0.010369 0.073013 102 111 115
0.067597 0.055041 -0.081387 104 105 97
0.087289 -0.110062 0.062203 109 130 146
0.051715 0.007347 -0.034887 171 167 168
0.006202 0.061749 -0.074677 51 67 65
-0.108248 -0.050871 0.053653 89 94 124
0.178632 -0.060851 0.088483 126 126 126
0.351364 -0.125917 0.193473 83 80 70
-0.113950 -0.056757 0.001823 91 91 85
-0.070282 0.065267 -0.032817 121 127 126
-0.001346 0.006990 -0.039787 75 90 91
0.060182 0.000612 -0.027937 168 166 166
0.017426 0.030864 -0.074927 164 162 162
0.018499 -0.110437 0.083113 108 130 148
0.039580 0.022973 -0.062857 157 155 155
0.060664 -0.008310 -0.019637 136 132 132
0.077820 -0.092182 0.079663 64 77 75
0.030841 0.048004 -0.091337 121 121 115
-0.034188 -0.005247 0.027023 87 105 122
-0.036086 0.050419 -0.022097 110 118 120
-0.020491 0.056857 -0.017727 112 121 120
0.133683 -0.041002 0.038313 124 132 139
-0.119595 -0.034487 0.073013 24 29 93
0.335525 -0.116608 0.183003 83 82 74
-0.033609 0.067415 -0.032297 113 119 119
0.000662 -0.059378 -0.024497 107 129 147
-0.024333 0.073495 -0.049437 111 120 119
-0.025005 0.066705 -0.045237 110 119 118
0.068353 0.024583 -0.062207 164 162 156
-0.163242 -0.073135 0.018833 53 54 51
-0.014091 -0.085917 0.062203 55 71 69
0.080898 0.045029 -0.080487 101 99 93
0.101782 0.062574 -0.062857 83 89 89
0.068496 0.041315 -0.082927 134 130 123
-0.188312 -0.073673 0.088483 85 85 79
0.107253 -0.036690 0.023873 120 132 142
0.078182 0.054279 -0.079797 76 91 92
-0.169129 0.018662 0.033643 105 109 108
0.067093 0.020523 -0.058837 163 158 153
-0.099072 0.078224 -0.041197 118 118 118
0.047824 0.037930 -0.084827 162 160 154
0.093486 0.079107 -0.048207 79 87 89
0.042723 0.048942 -0.088587 106 104 98
0.061516 0.020872 -0.058837 121 115 113
0.097381 0.044890 -0.073897 91 88 85
-0.149015 0.050678 0.001013 113 118 114
0.084114 0.031860 -0.069817 157 151 144
-0.024464 -0.088251 0.092183 99 124 143
0.003960 -0.048455 0.011283 68 81 80
0.064380 0.051301 -0.082487 119 119 113
-0.102760 -0.063450 0.022843 96 97 94
0.092027 0.027064 -0.061547 156 148 141
0.024537 -0.057174 0.055033 33 48 49
0.025659 0.050476 -0.093747 116 116 110
-0.051801 -0.084646 0.056433 66 80 83
0.108531 0.071341 -0.055257 74 85 84
-0.075505 0.060998 -0.027377 118 124 124
0.071875 0.065635 -0.069247 80 90 92
0.086795 0.041491 -0.078867 120 116 109
-0.028743 -0.015343 0.059283 28 42 52
-0.110716 0.040666 -0.013087 113 118 114
0.295846 -0.135071 0.135973 98 92 85
0.094401 -0.055310 0.076293 120 132 142
0.087640 -0.006348 -0.013087 169 167 161
-0.128389 0.048671 -0.012407 114 119 115
-0.139548 -0.086751 0.030283 45 53 46
-0.112464 0.043904 -0.011717 118 123 119
0.029167 0.007806 -0.039787 166 166 167
0.147487 -0.053964 0.084883 122 131 140
0.032434 -0.051529 0.050943 121 134 147
-0.137732 0.076296 -0.022097 111 112 109
-0.087912 0.065484 -0.033337 115 119 118
-0.080409 0.073463 -0.052997 123 123 123
-0.027397 -0.025389 0.048303 23 37 47
0.102018 0.041618 -0.075947 118 112 105
-0.126608 -0.054922 0.049613 92 91 88
-0.159402 -0.061599 0.031393 61 67 60
0.014020 0.035147 -0.078387 78 84 84
-0.007736 0.068996 -0.047787 110 119 118
0.041623 0.043580 -0.087817 128 126 120
-0.104091 -0.008160 0.053653 93 103 110
0.027998 -0.022926 0.012193 157 157 157
0.063957 0.026987 -0.065997 148 143 138
-0.128848 0.035054 -0.014447 110 110 110
-0.162236 -0.075084 0.029183 36 38 32
