ply
format ascii 1.0
element vertex 1216
property float x
property float y
property float z
property uchar red
property uchar green
property uchar blue
end_header
0.012689 0.049191 -0.072885 61 64 48
-0.051292 -0.249889 0.399105 153 133 111
0.012259 0.023161 -0.052245 154 153 153
-0.031034 0.074004 -0.034265 118 118 112
-0.073120 0.068093 -0.027305 126 127 123
0.142167 -0.152593 0.163625 144 128 107
-0.160793 -0.018727 0.060065 16 17 13
-0.254359 0.014535 0.114275 97 96 96
0.015579 -0.016813 0.002635 141 140 140
0.026041 0.028077 -0.056865 150 150 152
0.038982 -0.095137 0.079545 85 87 71
0.022749 0.031840 -0.061085 145 145 145
-0.035824 -0.101778 0.049145 102 105 104
-0.035188 -0.098160 0.044635 105 105 105
-0.096535 0.036517 -0.001425 120 124 119
0.014608 0.050364 -0.079395 57 59 46
0.095890 0.038607 -0.061845 76 81 86
0.230582 -0.056919 0.128955 40 46 48
0.028458 0.042730 -0.075725 113 119 119
0.101273 0.019715 -0.043435 81 88 96
0.118960 -0.102622 0.088995 84 89 75
-0.105242 -0.009813 0.070785 108 101 93
0.050954 0.031118 -0.061595 157 163 165
0.049808 0.001041 -0.015795 168 164 167
-0.096436 -0.023967 0.063965 99 31 21
-0.007934 0.055329 -0.005905 123 119 110
0.173149 -0.087138 0.102835 109 97 79
-0.216952 -0.031314 0.104675 73 76 75
0.016958 0.033308 -0.065445 135 135 137
0.035104 0.024671 -0.054895 134 137 140
0.030146 0.017550 -0.041995 127 126 128
-0.011570 -0.042960 0.038225 151 136 126
-0.106341 0.025431 0.031235 118 119 113
0.086528 0.043830 -0.064035 93 98 103
0.077942 0.052282 -0.064515 111 119 118
0.072944 -0.017463 0.012195 144 144 148
-0.147461 0.026693 0.032205 112 112 112
0.007800 0.007290 -0.158255 99 105 105
-0.115489 -0.038974 0.063965 83 83 83
-0.005032 0.045665 -0.001425 93 86 76
0.067504 0.031107 -0.062835 139 146 150
0.083067 0.027279 -0.059285 140 147 155
0.007701 0.007291 -0.158255 103 106 107
0.007655 0.007319 -0.158255 68 76 75
0.099542 0.020966 -0.046195 43 48 53
0.021415 0.037862 -0.072295 126 129 132
-0.061545 0.058234 0.016995 131 132 123
0.285742 -0.060323 0.138075 51 37 22
-0.026274 -0.010646 0.068005 76 58 38
-0.159039 0.004340 0.063965 96 100 95
0.089622 0.045762 -0.062095 115 118 121
0.008764 -0.000073 -0.019505 158 157 159
0.057455 0.042900 -0.068575 112 117 122
0.028480 0.044104 -0.074615 111 117 117
-0.082455 0.019367 0.046865 118 119 110
0.293921 -0.141443 0.147795 86 93 99
-0.020362 0.061990 -0.023515 120 121 112
0.213182 -0.116435 0.116275 95 102 106
-0.105478 -0.023190 0.097465 94 29 20
-0.022777 0.044421 0.017825 127 125 115
-0.102925 -0.041413 0.062655 97 33 26
-0.042091 0.073027 -0.031745 124 125 116
-0.042938 0.031951 0.019505 124 122 114
0.023974 0.001736 -0.022045 168 167 167
0.139676 -0.238721 0.346375 148 130 108
0.059534 -0.030449 0.015365 67 70 54
-0.055902 0.021890 0.051475 113 111 103
0.035447 0.033605 -0.065905 132 138 140
0.010821 0.039764 -0.066135 75 77 61
0.007824 0.007288 -0.158255 95 102 106
-0.050204 0.043446 0.002635 121 118 113
0.036995 0.018339 -0.043075 164 164 166
-0.079039 0.037284 0.004035 122 124 115
-0.150532 -0.086295 0.047995 60 73 56
-0.031031 0.059430 -0.021545 116 117 108
0.095933 -0.065078 0.095725 113 102 95
0.057910 0.023603 -0.052545 148 153 160
0.058232 0.027502 -0.057405 35 37 43
-0.059995 -0.002802 0.056305 117 111 98
0.040534 -0.084882 0.065295 85 87 71
0.063507 0.047901 -0.068785 97 103 103
0.007682 0.007306 -0.158255 90 96 96
-0.003055 0.005479 -0.020535 83 81 69
0.007714 0.007284 -0.158255 108 111 110
0.057728 0.024301 -0.052245 145 147 153
0.072488 0.017198 -0.039785 155 161 163
-0.099192 -0.042767 0.073635 100 34 28
0.086853 0.022121 -0.047855 153 160 168
0.078034 0.048354 -0.065905 109 116 120
-0.044488 0.065925 -0.023025 120 121 112
-0.026138 0.072966 -0.035495 116 116 110
0.007653 0.007322 -0.158255 69 72 71
-0.183613 -0.015802 0.085765 10 13 12
0.192290 -0.078058 0.138075 100 91 74
-0.095710 -0.090915 0.106535 104 101 98
0.019945 -0.014278 -0.001425 160 156 157
0.007783 0.007288 -0.158255 144 128 107
0.007043 -0.002495 -0.015255 167 163 164
0.039706 -0.040597 0.037195 143 128 116
0.107741 0.019400 -0.043075 140 147 155
-0.081667 -0.021800 0.088995 45 15 8
-0.002778 0.071021 -0.029115 119 117 109
-0.178629 0.006351 0.072205 100 101 97
0.023698 -0.025204 0.007645 92 93 80
0.061847 -0.053929 0.005465 75 77 64
0.013435 0.047599 -0.075355 67 70 54
-0.053400 0.055020 -0.015255 127 128 119
0.035042 -0.089472 0.068005 87 89 73
0.090808 -0.033571 0.022085 121 118 102
0.146631 -0.023685 0.040315 142 147 154
0.033619 0.033189 -0.063795 130 133 136
0.007841 0.007302 -0.158255 66 73 81
-0.104278 0.010799 0.062655 118 118 112
-0.030900 -0.056915 0.070785 106 88 66
0.045692 0.053333 -0.072495 100 106 106
0.079443 0.035733 -0.066815 111 118 124
0.018422 -0.090033 0.031235 153 133 111
0.028724 -0.000519 -0.015255 158 157 159
0.026340 -0.077763 0.090645 80 82 66
0.035526 0.051369 -0.074235 105 108 107
0.050232 -0.005473 -0.011305 165 164 166
0.090150 -0.264655 0.360395 152 134 112
0.060167 0.009537 -0.030445 139 145 147
-0.049487 -0.070526 0.073635 28 38 22
0.007835 0.007290 -0.158255 90 97 103
0.024611 0.047116 -0.078375 112 118 118
-0.054111 0.028772 0.043535 120 118 110
-0.023711 0.009725 0.057545 103 96 88
-0.177759 -0.082535 0.058795 62 65 68
-0.156478 -0.118196 0.081065 82 85 86
0.119172 0.019551 -0.041635 140 150 157
0.007718 0.007288 -0.158255 106 109 108
-0.003320 0.018430 -0.024965 75 71 60
-0.121139 -0.034482 0.031235 88 91 92
0.063700 -0.075888 0.087365 63 64 51
0.002732 0.027160 -0.046195 71 70 55
0.016415 0.034632 -0.068135 130 129 129
0.174956 -0.098390 0.090645 98 104 106
0.007812 0.007303 -0.158255 90 96 96
0.068063 0.035392 -0.067915 129 134 139
0.066520 0.022233 -0.050715 151 157 159
-0.100345 0.015133 0.028395 120 120 114
0.098125 0.023521 -0.045175 146 156 163
0.007696 0.007303 -0.158255 109 58 58
0.049085 0.013937 -0.032595 149 152 155
-0.031632 0.059748 -0.024485 116 117 108
-0.108386 -0.057920 0.069385 103 48 47
0.017121 0.047573 -0.076445 79 81 68
0.163556 -0.089142 0.102835 104 87 69
0.070945 0.013659 -0.034265 165 168 171
0.007751 0.007303 -0.158255 78 80 64
0.049820 0.047165 -0.071295 98 104 106
0.004274 -0.102068 0.063965 151 133 111
-0.119194 0.047091 -0.003375 115 116 112
0.053720 0.034565 -0.068355 158 161 164
0.062652 -0.037231 0.021215 149 136 123
-0.151095 -0.097189 0.039265 25 33 22
0.028181 -0.013145 0.006915 162 161 161
-0.067359 -0.070965 0.101025 110 101 84
0.070125 0.040445 -0.068135 121 129 130
0.032924 0.040286 -0.075175 130 138 139
0.096711 0.027610 -0.056865 134 145 154
0.104167 0.023132 -0.041635 146 156 163
0.053833 -0.006376 -0.011305 145 145 147
0.007831 0.007290 -0.158255 89 97 98
-0.000251 0.071564 -0.040155 107 105 95
-0.165639 -0.024906 0.081065 6 9 12
0.105121 0.072413 -0.038255 85 86 77
-0.106649 -0.033460 0.079545 110 64 58
0.108378 0.021227 -0.046865 129 139 146
-0.163235 0.032985 0.022955 102 105 104
0.120157 -0.071184 0.081065 71 73 60
0.035781 -0.039009 0.050305 84 86 73
0.125524 -0.062265 0.072205 69 68 53
0.007812 0.007299 -0.158255 96 102 104
0.023977 0.003710 -0.025435 167 166 166
0.162405 -0.115357 0.108435 99 105 105
-0.125331 -0.013181 0.085765 98 98 92
-0.116278 0.070859 -0.024005 109 112 111
-0.153676 -0.091472 0.055075 35 39 32
0.063435 0.032913 -0.064275 124 129 134
0.206623 -0.017243 0.050305 41 40 47
-0.092938 0.057381 -0.014145 119 120 114
0.094413 0.035202 -0.061845 111 118 124
-0.063744 0.068112 -0.033855 130 131 127
-0.008427 -0.007303 0.001265 80 78 66
-0.143394 -0.012675 0.084175 84 86 77
0.044269 0.034812 -0.066135 115 121 123
-0.111683 -0.022857 0.076555 85 39 35
-0.093378 0.037432 -0.006525 117 118 114
-0.076491 0.070900 -0.013585 126 126 122
0.007647 0.007299 -0.158255 30 33 36
-0.095391 0.044364 0.001265 117 118 112
0.033606 0.040122 -0.074615 131 137 139
0.150241 -0.004120 -0.002075 148 155 163
-0.278141 -0.016930 0.135735 61 44 17
-0.078211 0.020720 0.043535 120 118 110
0.004925 -0.101286 0.097465 88 90 74
-0.013965 0.035468 0.030285 108 100 88
-0.221727 -0.051018 0.088995 96 96 96
-0.137729 0.015114 0.060065 110 111 107
-0.033592 -0.119318 0.088995 155 135 113
-0.072059 0.025843 0.023845 119 120 114
0.021135 0.023832 -0.055175 153 152 154
-0.089365 0.064675 -0.027305 123 127 122
0.105646 0.022921 -0.044485 132 144 150
-0.050504 -0.000435 0.063965 122 118 109
-0.029594 0.038128 0.001945 123 119 110
-0.041174 0.060320 -0.023025 117 118 109
0.030977 0.027137 -0.057685 143 143 145
0.069277 0.003801 -0.021035 162 165 166
-0.158081 0.026701 0.038225 111 111 111
-0.202996 -0.005560 0.076555 67 48 23
-0.029212 0.072237 -0.028665 116 116 110
-0.153105 -0.089761 0.060065 66 69 68
0.007697 0.007302 -0.158255 95 95 91
0.086264 0.019938 -0.049145 145 152 158
0.007449 0.044624 -0.070675 65 67 51
-0.139665 -0.101141 0.049145 41 55 35
0.173272 -0.055763 0.097465 139 132 124
0.007721 0.007290 -0.158255 106 110 105
0.003582 -0.084276 0.033185 151 133 111
-0.089795 0.056957 -0.025905 113 113 107
-0.136371 0.028234 0.030285 115 116 112
0.109058 0.055285 -0.051025 88 90 79
0.145831 0.007840 -0.010145 134 140 151
0.024282 0.044062 -0.076985 115 121 121
-0.098831 0.018851 0.011415 118 119 113
0.136914 0.070727 -0.026845 83 83 77
-0.007369 -0.028101 0.023845 96 94 84
0.042522 0.037691 -0.070885 133 141 142
0.324298 -0.038697 0.172175 37 42 49
-0.057513 -0.024232 0.036175 146 144 136
0.007819 0.007305 -0.158255 87 93 95
0.088687 -0.063206 0.018655 77 82 70
-0.054390 0.063646 -0.024005 130 130 124
0.124378 0.009314 -0.018465 55 54 65
-0.056292 0.076669 -0.034265 130 130 124
-0.116561 0.064264 -0.023025 116 119 118
0.092144 -0.007061 0.009885 164 167 170
-0.132832 0.029185 0.036175 110 111 107
-0.059618 0.058311 -0.020025 119 120 111
0.096437 -0.002087 -0.007745 165 168 171
-0.117228 0.043198 -0.007745 112 113 109
-0.057551 -0.095933 0.070785 101 104 103
0.079160 0.018980 -0.040155 157 162 167
-0.073167 0.060858 -0.020025 125 125 119
0.099736 -0.025154 0.016995 153 156 159
-0.019781 0.031594 0.022955 123 119 110
0.087210 0.057252 -0.057685 86 83 78
0.042665 0.041875 -0.073465 120 126 128
0.104180 -0.038190 0.042455 125 122 106
0.047859 -0.100236 0.068005 146 128 106
-0.164129 -0.051528 0.055075 71 74 73
0.081519 0.053497 -0.063795 100 94 81
0.003615 0.029607 -0.046865 69 71 55
0.010425 -0.024132 0.020355 99 100 89
0.047306 -0.008304 -0.003375 161 161 163
0.089577 0.035356 -0.062835 118 125 133
-0.106377 0.038013 0.002635 116 117 113
0.125485 -0.028375 0.031235 145 151 153
-0.029080 -0.037518 0.029335 141 139 131
0.049480 0.021443 -0.047855 149 152 155
0.007648 0.007390 -0.158255 107 110 111
-0.103534 0.012195 0.025635 118 119 113
0.030572 0.016107 -0.039785 161 160 162
-0.099046 0.076648 -0.008355 124 125 121
-0.032842 -0.042620 0.039265 134 115 90
-0.014761 0.034099 0.037195 91 83 71
-0.032370 -0.101350 0.065295 147 133 114
-0.107655 -0.035193 0.009885 91 94 93
-0.021534 0.073374 -0.035085 115 116 107
-0.172138 -0.030382 0.043535 69 77 76
-0.008567 0.006455 -0.006525 72 69 53
-0.098695 0.067964 -0.032175 115 119 114
-0.024701 0.048049 0.019505 125 123 115
-0.099815 0.070202 -0.038255 105 105 105
0.045755 0.016776 -0.042725 166 166 168
0.033970 0.044697 -0.073855 124 130 132
0.092949 -0.005589 0.001265 162 165 168
0.007683 0.007307 -0.158255 93 96 97
0.007820 0.007311 -0.158255 84 90 92
-0.016892 -0.039299 0.028395 141 128 117
0.010425 -0.034002 0.020355 145 130 118
0.046080 0.006368 -0.026375 154 153 157
0.041320 0.012898 -0.034265 149 149 153
-0.067949 -0.072662 0.073635 87 83 74
0.103749 0.026196 -0.050715 131 141 148
0.056104 0.034455 -0.065905 128 133 138
0.048042 0.025197 -0.054605 146 151 156
0.005280 -0.081451 0.065295 81 83 70
-0.067345 0.013917 0.053865 121 117 110
-0.159906 0.054123 0.022955 110 113 112
-0.031124 0.066192 -0.017415 119 119 113
0.007703 0.007299 -0.158255 106 103 100
0.151388 -0.016481 0.014565 152 159 167
-0.168309 -0.054721 0.038225 76 82 84
-0.050410 -0.035570 0.044635 134 134 130
0.076781 0.034750 -0.066815 110 117 121
0.029909 -0.016880 0.004745 154 153 153
0.135647 0.085173 -0.014705 83 83 77
-0.107369 -0.071506 0.076555 116 56 54
-0.016084 -0.097503 0.084175 76 78 62
-0.157070 0.040799 0.041375 107 110 109
0.007821 0.007308 -0.158255 84 90 92
0.098002 -0.066156 0.072205 61 63 47
0.530953 -0.172873 0.441645 72 78 80
0.007817 0.007297 -0.158255 92 99 103
-0.157087 -0.022543 0.085765 61 67 65
0.026663 0.027137 -0.057685 144 144 146
0.004182 0.004475 -0.023025 92 90 78
-0.062212 0.070256 -0.040905 132 133 129
0.007828 0.007289 -0.158255 93 100 104
0.007811 0.007303 -0.158255 96 99 98
0.095628 0.033385 -0.060325 110 117 123
-0.092393 0.051371 -0.003375 119 120 114
0.179137 -0.117742 0.128955 88 79 74
-0.015373 0.069134 -0.020025 116 117 108
0.014175 -0.087656 0.053865 140 124 101
0.007687 0.007297 -0.158255 95 98 97
0.032922 0.019664 -0.045515 138 141 142
-0.089562 0.057131 -0.013585 118 119 113
0.003428 0.006989 -0.031315 92 90 78
0.077003 0.017952 -0.043435 155 160 165
0.238541 -0.119792 0.135735 91 96 101
0.022049 -0.040297 0.037195 152 138 123
-0.067906 0.060252 -0.027305 128 129 123
-0.073829 -0.007002 0.082615 113 101 85
-0.096445 0.056868 -0.016875 117 118 114
-0.043168 -0.044892 0.058795 148 144 137
0.096274 0.046943 -0.058755 101 107 107
-0.063872 -0.017352 0.082615 138 136 128
-0.063405 0.066423 -0.031745 132 133 129
0.137087 0.085558 -0.013585 85 85 79
0.007818 0.007313 -0.158255 83 89 89
-0.026807 -0.035488 0.050305 128 126 118
-0.005409 -0.062658 0.066645 68 66 54
0.007833 0.007284 -0.158255 92 99 105
0.005567 0.008938 -0.031315 94 95 82
-0.040176 0.062986 -0.020535 119 120 111
-0.173790 -0.028832 0.066645 77 80 81
-0.167235 -0.058034 0.045745 25 34 25
0.020067 -0.016174 0.003335 147 147 149
-0.058093 -0.091996 0.066645 154 155 149
-0.140873 -0.144775 0.207825 105 105 105
0.091151 -0.070611 0.087365 56 58 42
-0.118755 0.049015 -0.005905 111 111 111
0.007780 0.007300 -0.158255 75 77 64
-0.060895 0.053926 -0.005905 132 133 124
-0.094890 0.023638 0.049145 122 122 116
0.110179 0.054089 -0.052245 89 90 81
0.074906 0.012604 -0.032175 162 164 170
0.033510 0.029700 -0.062585 131 137 139
0.123117 -0.023883 0.022085 139 145 147
-0.202402 -0.006454 0.079545 67 45 19
0.173701 -0.098988 0.095725 101 101 101
-0.118647 0.030955 0.016175 115 116 112
-0.075268 0.057625 -0.018985 124 124 118
0.097073 0.017308 -0.042725 143 148 157
0.013212 -0.028035 0.022085 95 97 81
0.060837 0.030319 -0.060575 126 134 135
0.193328 -0.082494 0.114275 91 97 99
0.007726 0.007325 -0.158255 139 135 126
-0.020907 -0.061204 0.072205 138 120 100
-0.101955 -0.080094 0.097465 115 55 53
0.007760 0.007284 -0.158255 151 133 113
0.012421 0.025766 -0.052245 89 87 77
-0.062869 0.052186 -0.004655 132 130 122
0.042405 0.043047 -0.073465 128 134 136
0.029545 0.009662 -0.034265 169 168 168
-0.028044 0.074833 -0.033435 117 118 109
-0.248534 -0.071721 0.110355 69 75 77
0.017035 0.033856 -0.067475 130 130 130
0.007779 0.007300 -0.158255 75 77 64
-0.145754 0.031872 0.022955 108 109 105
0.022623 0.002747 -0.021035 169 169 165
-0.168739 -0.065998 0.043535 64 71 65
0.018663 0.020240 -0.046525 145 145 147
0.046510 -0.110483 0.081065 150 132 110
0.007649 0.007318 -0.158255 70 73 76
0.092027 -0.082675 0.099235 72 74 61
0.007681 0.007305 -0.158255 91 97 97
-0.050610 0.071621 -0.032595 124 124 118
0.269156 -0.067048 0.152895 24 13 4
0.007816 0.007287 -0.158255 97 103 105
0.058609 0.026836 -0.056025 41 43 51
-0.081545 0.072985 -0.040535 122 122 122
0.088651 -0.012775 0.001945 162 168 170
-0.064211 0.069355 -0.036295 130 131 127
0.036136 0.026681 -0.055175 117 120 123
-0.040719 -0.086794 0.070785 88 89 80
0.123416 -0.025062 0.025635 148 153 158
0.079866 0.055830 -0.062335 89 86 81
0.013978 0.036970 -0.069425 91 92 79
-0.062499 0.014089 0.049145 115 111 104
0.093881 0.065536 -0.045515 90 91 82
0.015009 -0.028167 0.025635 92 94 78
-0.061838 0.054021 0.003335 130 131 122
0.081471 0.038504 -0.065675 106 113 117
0.081416 0.048524 -0.063555 30 36 38
-0.098692 0.065999 -0.035085 114 117 116
0.160808 -0.122470 0.126755 99 102 101
0.090915 0.031069 -0.060575 144 154 159
0.105472 0.020049 -0.041995 31 33 39
0.014912 0.040969 -0.074425 84 86 73
0.007829 0.007287 -0.158255 92 97 102
-0.054268 0.056835 -0.027305 125 126 117
0.077706 0.052679 -0.063075 105 113 112
-0.103414 0.062671 -0.027765 117 117 117
0.030472 -0.101386 0.063965 151 133 111
0.027676 0.034586 -0.069635 135 138 139
0.092576 -0.004169 0.001945 165 171 173
-0.065967 -0.059376 0.070785 93 83 69
-0.007610 0.049103 -0.002075 120 113 105
-0.039927 0.071168 -0.033855 118 118 112
-0.000033 -0.004119 -0.005285 97 95 83
0.065097 -0.012034 -0.000095 127 126 130
-0.107386 0.070849 -0.032595 112 115 114
-0.031604 0.074384 -0.034265 120 121 112
0.007823 0.007288 -0.158255 98 103 108
0.175178 -0.075342 0.101025 94 94 98
-0.087984 0.026098 0.038225 120 120 114
-0.158220 -0.077882 0.056305 56 65 58
-0.063794 0.061722 -0.030005 130 130 124
0.002610 -0.012762 -0.000095 163 162 162
0.061337 0.029076 -0.062095 131 136 143
-0.045283 -0.049245 0.052665 143 125 103
0.008328 0.001317 -0.022045 157 157 159
-0.034700 0.009712 0.056305 123 119 110
-0.009020 0.055397 -0.010725 120 118 108
-0.040252 0.054030 -0.004015 118 119 110
0.095542 0.040495 -0.061085 31 33 41
-0.053591 -0.097233 0.065295 107 110 109
0.173663 -0.062434 0.097465 124 125 121
0.067339 -0.014532 0.004035 137 137 139
0.012596 0.036994 -0.067255 85 86 73
-0.169570 -0.075076 0.030285 22 29 21
-0.035338 0.071746 -0.043075 119 119 113
-0.064802 0.066792 -0.033015 130 130 126
-0.122144 0.059967 -0.004655 114 117 116
0.083645 -0.021649 0.012195 144 147 150
-0.102915 -0.074223 0.085765 119 54 52
0.070093 -0.096620 0.087365 63 68 56
0.018919 -0.046350 0.051475 153 136 122
-0.180573 -0.001511 0.065295 80 76 69
-0.047042 0.071558 -0.037085 129 130 121
-0.171925 -0.016285 0.072205 8 11 10
-0.042371 0.062239 -0.013585 118 118 112
0.002010 0.019352 -0.038255 74 75 62
0.090666 -0.019275 0.013765 157 162 167
0.070119 -0.008195 -0.002075 157 160 161
0.130186 0.080432 -0.024965 88 89 83
-0.011750 0.070103 -0.027305 115 116 107
0.015208 0.040162 -0.072495 89 90 77
0.074616 0.023324 -0.052245 138 145 149
-0.128902 0.058818 -0.011305 112 112 114
0.040301 -0.039618 0.044635 90 87 73
-0.093006 0.002979 0.082615 116 112 103
-0.105200 0.046140 -0.003375 116 120 115
-0.102742 -0.054512 0.073635 139 91 87
0.096492 0.025850 -0.047855 135 145 152
-0.097484 0.057403 -0.005285 115 116 112
0.061677 -0.022317 0.014565 154 160 160
0.007831 0.007296 -0.158255 86 93 97
0.097989 0.000438 -0.016875 163 168 173
0.081530 0.017433 -0.041275 162 168 170
0.025928 0.033206 -0.066815 143 143 145
-0.071923 0.056655 -0.013025 124 125 116
-0.093058 0.010253 0.047995 117 117 111
0.040262 0.009275 -0.034675 168 168 170
0.070303 0.052816 -0.067475 103 114 114
0.018218 -0.050852 0.050305 147 135 119
0.007705 0.007292 -0.158255 105 105 105
-0.009869 0.066163 -0.020025 118 119 110
-0.047074 -0.033319 0.066645 139 137 129
0.110631 -0.065674 0.081065 47 46 31
0.043526 0.011961 -0.033855 124 127 130
-0.209389 -0.054234 0.078035 72 78 78
-0.018102 0.008649 0.044635 115 103 87
-0.046474 0.062543 -0.018985 125 126 117
0.007684 0.007290 -0.158255 92 98 100
-0.021437 0.065427 -0.035495 113 113 107
-0.023969 -0.043418 0.052665 133 122 113
0.061191 -0.071050 0.079545 67 69 56
0.039256 0.029040 -0.061595 128 131 132
0.009746 0.057395 -0.063555 67 69 53
-0.144630 -0.043341 0.092315 84 87 86
0.447945 -0.146719 0.302755 62 69 73
0.027141 0.024271 -0.053435 151 151 153
0.101390 0.041419 -0.060575 121 128 134
-0.043228 -0.157608 0.184305 152 132 112
-0.147900 -0.094628 0.041375 27 40 27
0.128946 -0.044510 0.047995 139 132 122
0.064831 -0.104222 0.082615 51 48 34
0.014042 0.019211 -0.046525 156 155 159
-0.074648 0.073343 -0.035495 130 130 126
0.100239 0.025351 -0.048825 133 143 148
0.059273 0.021995 -0.047525 156 161 166
-0.009452 0.053226 -0.002725 125 121 112
-0.029747 0.055429 0.004745 122 120 110
0.035843 0.028328 -0.060065 119 122 125
0.048371 -0.001431 -0.014705 161 160 162
-0.036135 0.007753 0.065295 126 122 113
0.063781 0.040618 -0.068785 107 114 118
-0.071632 0.064293 -0.033435 128 129 125
-0.149810 -0.075801 0.040315 18 28 14
-0.123288 -0.044080 0.078035 84 84 80
-0.139072 0.000967 0.051475 96 97 93
0.024647 0.005743 -0.024965 162 161 161
0.086510 0.026309 -0.052845 138 145 151
0.048257 0.009314 -0.032175 167 167 169
-0.017232 0.071242 -0.039405 112 113 104
0.081050 0.008782 -0.027765 169 176 180
-0.051598 0.055888 -0.003375 122 123 114
-0.118596 0.059247 -0.010725 113 116 115
-0.014117 0.049610 0.005465 126 122 113
0.027892 0.039383 -0.073855 126 132 134
0.007746 0.007302 -0.158255 82 84 68
-0.162737 -0.024459 0.075085 4 7 8
-0.148909 -0.093764 0.036175 17 26 17
-0.121684 -0.040172 0.060065 88 91 90
0.088302 0.013680 -0.033855 158 160 168
0.031814 0.005089 -0.022535 164 160 161
0.278400 -0.057895 0.169275 22 15 9
0.066943 0.037188 -0.068355 111 117 119
0.049965 -0.010427 -0.001425 153 153 155
0.052368 0.042013 -0.070475 20 23 24
0.077977 0.053984 -0.064275 98 95 92
0.074237 -0.102464 0.078035 140 127 103
-0.090661 0.060223 -0.026375 116 117 113
0.034534 -0.075083 0.066645 80 83 67
0.049241 0.028414 -0.058225 142 148 150
0.032904 0.038105 -0.073085 133 139 141
0.033908 0.031303 -0.063795 131 134 137
0.046136 0.038094 -0.070885 128 133 138
0.053400 0.015222 -0.039405 145 148 151
0.117099 -0.067219 0.087365 44 43 28
0.044609 -0.038303 0.051475 39 47 36
0.093456 0.041600 -0.062585 39 38 45
0.020515 -0.075616 0.023845 144 126 104
-0.105956 0.012242 0.066645 116 116 110
-0.015231 -0.037723 0.022085 148 135 124
0.033460 0.037536 -0.072095 115 121 123
0.007792 0.007311 -0.158255 142 134 122
0.093982 -0.109482 0.092315 145 125 105
-0.131336 0.003340 0.062655 105 105 99
-0.008603 -0.026651 0.022085 92 93 80
0.050818 0.012072 -0.030885 159 162 165
0.041447 -0.089676 0.035165 148 130 110
0.016385 0.031673 -0.062335 48 46 53
-0.032161 0.067214 -0.020535 122 122 116
0.113104 0.014230 -0.034265 152 159 167
0.082089 -0.060335 0.076555 96 86 74
-0.045104 0.074788 -0.029115 126 127 118
-0.000444 -0.100983 0.094015 85 87 71
0.067605 0.048116 -0.069215 105 113 114
0.080231 0.070581 -0.041635 91 87 78
-0.116310 0.051089 -0.000095 113 116 115
-0.010044 -0.006194 0.002635 80 78 66
0.011945 0.005963 -0.026375 161 160 160
0.081643 0.051071 -0.063075 73 76 77
0.141836 -0.030311 0.032205 120 125 130
0.153235 -0.103738 0.090645 98 101 102
-0.082063 0.056621 -0.016335 119 120 114
0.006123 0.042763 -0.063795 71 74 58
0.007824 0.007309 -0.158255 75 80 85
-0.003997 -0.000359 -0.014145 89 88 73
-0.048040 -0.078893 0.078035 31 37 20
0.157426 -0.099170 0.131185 75 75 77
-0.080894 -0.017595 0.104675 142 138 131
-0.085134 0.066215 -0.033015 122 123 119
0.030196 0.054746 -0.074425 110 114 109
-0.149360 0.036329 0.026545 112 113 109
-0.019664 -0.087253 0.073635 137 119 99
0.025868 0.045727 -0.077685 112 118 118
0.007690 0.007291 -0.158255 101 104 105
-0.091761 0.060955 -0.023515 116 117 113
0.007648 0.007383 -0.158255 103 106 105
0.062120 0.055214 -0.063555 94 95 91
-0.147742 0.038162 0.025635 112 115 114
-0.173168 -0.081292 0.052665 57 63 65
0.007688 0.007293 -0.158255 99 102 103
-0.025994 0.055367 -0.006525 119 120 109
0.102347 0.049513 -0.055465 94 100 100
0.024830 0.051983 -0.077335 99 102 103
-0.056848 0.062671 -0.027765 131 131 125
-0.141840 0.053945 0.008385 109 112 111
0.112626 -0.079281 0.033185 99 102 103
-0.092202 0.031316 0.022955 118 118 112
-0.150317 -0.005044 0.073635 102 103 99
-0.126751 0.048212 -0.007145 114 118 113
0.058084 0.052325 -0.065905 67 73 73
-0.060949 0.055479 0.008385 130 130 124
0.025573 0.020163 -0.047195 144 144 146
0.007842 0.007292 -0.158255 79 86 92
0.119838 -0.041222 0.043535 142 134 122
-0.109106 0.059074 -0.023025 113 116 115
-0.096819 -0.020687 0.079545 94 29 20
0.042092 0.055178 -0.071295 112 120 117
0.000469 0.024306 -0.037085 74 73 58
-0.026435 0.020554 0.032205 119 117 107
0.063724 0.031408 -0.064515 128 135 139
-0.185897 -0.021764 0.070785 60 46 29
-0.151662 -0.002972 0.075085 104 104 104
0.135359 -0.121798 0.106535 143 126 110
-0.102454 -0.059744 0.001945 86 89 90
0.069256 -0.090914 0.082615 65 67 54
-0.107451 -0.056243 0.101025 104 32 28
0.007819 0.007286 -0.158255 98 104 106
-0.111476 0.010736 0.039265 112 113 107
0.095603 0.027162 -0.054315 128 137 147
-0.095192 -0.062611 0.004035 94 97 96
-0.022505 0.020924 0.051475 120 118 108
0.007709 0.007286 -0.158255 106 109 108
0.128980 0.001937 -0.016335 140 145 152
-0.155111 -0.077364 0.060065 69 77 74
0.007679 0.007305 -0.158255 89 95 95
-0.053917 0.055535 -0.025905 119 120 111
-0.091377 0.068980 -0.041275 115 115 115
-0.074404 -0.024906 0.081065 146 142 133
-0.059010 -0.055003 0.063965 142 125 107
0.007650 0.007310 -0.158255 72 77 82
0.007828 0.007309 -0.158255 69 75 75
0.197130 -0.035830 0.076555 54 45 48
-0.074842 0.049944 -0.003375 124 125 119
0.025040 0.049032 -0.077515 110 113 114
-0.024241 0.067840 -0.021035 116 117 108
-0.141205 0.040851 -0.001425 111 111 111
-0.151460 -0.112135 0.072205 82 85 84
0.007808 0.007284 -0.158255 100 106 108
-0.021418 0.049306 0.014565 127 125 115
0.065024 0.030936 -0.062335 133 138 145
0.045478 0.038819 -0.073275 112 117 122
-0.112778 0.003845 0.052665 110 110 104
0.077444 -0.036033 0.042455 89 91 78
0.045105 0.021903 -0.050715 152 152 154
-0.037625 -0.063578 0.076555 126 109 91
-0.107748 0.053404 -0.011305 115 115 115
-0.123457 0.002016 0.061355 108 108 104
0.007706 0.007286 -0.158255 107 110 109
0.073751 0.006773 -0.026375 166 169 170
0.057563 0.030374 -0.062835 122 128 130
0.076447 0.037217 -0.066135 114 121 125
0.025813 -0.067231 0.023845 82 84 71
0.021222 -0.091512 0.038225 150 130 108
0.132931 0.002353 -0.015795 154 161 169
-0.130400 0.041534 -0.008955 109 112 111
0.291649 -0.077384 0.135735 45 53 52
0.002785 0.008326 -0.034675 97 95 83
0.116267 -0.021665 0.020355 143 146 149
0.085597 0.048318 -0.062335 100 106 108
-0.040914 -0.008344 0.075085 124 109 83
0.168290 -0.029342 0.044635 143 148 155
0.066544 0.046308 -0.067695 101 106 111
0.007827 0.007293 -0.158255 92 97 102
0.451473 -0.160867 0.302755 66 73 77
-0.008705 0.020685 -0.000755 102 89 76
0.126397 -0.007972 0.000585 146 153 159
-0.019828 0.056886 -0.021035 118 119 110
0.030645 0.012466 -0.035495 158 157 157
0.148823 -0.101520 0.124595 83 85 76
0.005311 0.064827 -0.053735 80 78 66
-0.047370 -0.086670 0.072205 84 85 74
-0.050934 0.014304 0.078035 120 118 110
0.007808 0.007287 -0.158255 99 105 107
0.109387 0.011602 -0.027305 161 168 176
0.092869 0.037486 -0.062585 110 115 120
-0.091502 0.028743 0.024735 112 113 107
0.007754 0.007301 -0.158255 81 83 67
0.072683 0.021864 -0.049775 145 152 156
-0.129800 -0.113706 0.078035 97 103 103
-0.060436 -0.088313 0.065295 101 104 103
0.073433 -0.066521 0.035165 76 78 65
-0.071929 -0.079412 0.070785 133 131 123
-0.163812 -0.022203 0.095725 24 23 23
0.031270 0.037208 -0.071895 132 138 138
-0.051501 0.016509 0.061355 119 117 109
0.066690 0.034758 -0.067255 103 108 115
0.128331 0.075893 -0.025435 77 78 72
0.066730 -0.008346 -0.005285 65 65 69
0.043730 -0.001979 -0.013025 158 157 159
-0.049222 0.053227 0.000585 118 116 108
0.030011 0.038285 -0.073665 132 138 140
0.068112 0.066455 -0.052545 96 94 84
0.007841 0.007307 -0.158255 47 54 58
0.060384 0.003962 -0.018985 153 153 155
0.007705 0.007292 -0.158255 108 108 108
-0.016105 0.043857 0.020355 126 122 113
-0.013565 0.070049 -0.037485 115 115 109
-0.148887 -0.074806 0.044635 57 63 61
-0.048059 -0.093574 0.075085 119 122 106
-0.113222 0.053922 -0.023515 112 115 114
-0.031596 0.069104 -0.021035 119 120 111
0.050547 0.031006 -0.060835 153 159 161
0.101954 -0.007581 -0.005905 158 163 168
0.019932 0.040682 -0.076085 127 130 133
0.030487 -0.047152 0.040315 148 135 122
0.009604 -0.034002 0.020355 151 133 122
0.274091 -0.061414 0.142855 49 36 25
0.060453 0.027691 -0.058755 143 149 149
0.175994 -0.068844 0.099235 130 126 115
0.110289 -0.030705 0.028395 138 145 139
-0.235331 -0.168701 0.308525 98 98 98
-0.029654 -0.017652 0.029335 136 132 123
0.092132 -0.015787 0.011415 163 169 171
-0.044151 0.048700 0.015365 121 119 111
0.288299 -0.042347 0.147795 51 51 51
-0.012819 -0.084479 0.076555 67 66 49
0.505242 -0.188521 0.441645 82 88 90
-0.082771 -0.079309 0.097465 99 96 93
-0.152852 0.041938 0.020355 112 112 112
-0.108862 0.023957 0.049145 117 117 111
-0.002021 0.018719 -0.028665 69 65 54
-0.081583 0.070479 -0.036295 123 123 123
-0.002978 -0.102433 0.099235 85 87 71
-0.079413 0.072577 -0.029565 126 126 122
-0.076841 0.046147 -0.001425 123 124 118
0.007807 0.007285 -0.158255 101 107 109
0.015203 0.021247 -0.051945 145 144 146
0.007647 0.007361 -0.158255 109 112 113
-0.046232 0.000524 0.078035 120 116 105
-0.018713 0.035225 0.019505 123 119 110
-0.065120 0.009813 0.038225 119 115 108
0.131030 0.006502 -0.014705 149 156 162
0.102933 0.034181 -0.058485 116 126 133
-0.043510 0.074483 -0.033015 127 128 119
0.097386 0.045870 -0.059545 109 112 115
-0.088792 0.063855 -0.024485 126 127 123
0.007668 0.007338 -0.158255 105 106 102
0.106156 -0.065419 0.066645 62 64 51
0.369441 -0.151433 0.226695 81 88 92
-0.045517 0.048583 0.013765 122 120 112
0.007819 0.007303 -0.158255 89 95 95
0.030911 0.010781 -0.035085 170 169 169
0.062163 0.021951 -0.047855 160 162 168
-0.102805 0.057675 -0.020025 118 118 118
0.035729 -0.000580 -0.014145 169 168 170
-0.109927 0.058416 -0.030885 114 117 116
-0.109262 0.049793 -0.025435 111 111 111
-0.071674 0.062248 -0.026375 124 125 119
0.069907 0.001062 -0.021035 161 167 167
-0.084667 0.058867 -0.023025 123 124 118
-0.011522 0.004179 0.002635 81 73 59
0.017553 0.019318 -0.045515 163 162 164
0.000070 -0.099960 0.102835 83 85 69
-0.091531 -0.034356 0.082615 95 49 45
0.075573 0.013893 -0.033435 157 162 167
-0.186598 -0.000673 0.070785 83 79 72
0.048107 0.037629 -0.070675 112 117 122
-0.030660 0.055757 0.003335 121 119 109
-0.004935 0.070208 -0.041995 119 117 109
0.517179 -0.219815 0.441645 86 91 96
-0.092608 0.051750 -0.013025 116 117 113
0.042330 0.023673 -0.053145 131 134 135
-0.099281 -0.052346 0.070785 103 34 31
0.096239 0.054933 -0.054315 69 74 62
0.277779 -0.045704 0.142855 35 24 17
0.007693 0.007300 -0.158255 99 98 98
0.035042 -0.089819 0.068005 85 87 71
0.006164 0.045564 -0.066135 63 65 49
-0.037095 0.010588 0.049145 125 123 113
0.034215 -0.087403 0.063965 85 87 71
0.046519 -0.009086 -0.002725 163 162 164
-0.003333 0.069218 -0.029565 122 120 110
0.002369 -0.098828 0.088995 87 89 73
0.042964 0.020747 -0.050715 159 162 163
-0.169390 -0.060793 0.044635 52 55 54
-0.046823 -0.005584 0.058795 93 81 65
0.285987 -0.077755 0.166425 49 29 19
-0.102654 0.076400 -0.035085 110 113 112
-0.163808 -0.010815 0.084175 11 14 15
0.094463 -0.037039 -0.047855 91 96 101
-0.098022 -0.061416 0.076555 111 35 32
-0.053032 0.059835 -0.021035 126 127 118
-0.043168 0.010072 0.058795 122 120 110
-0.171296 -0.057095 0.045745 80 86 86
0.084176 -0.056724 0.019505 73 75 64
-0.051057 -0.025201 0.047995 138 136 126
-0.130120 -0.050638 0.088995 81 81 81
-0.100243 0.059486 -0.028215 119 122 121
0.018575 0.039226 -0.072885 131 131 131
0.169484 -0.079734 0.104675 107 91 68
0.035729 -0.000138 -0.014145 162 161 161
-0.056816 -0.045474 0.081065 146 147 138
0.010551 0.046981 -0.074235 69 71 55
0.017954 0.026980 -0.058485 164 164 166
0.131900 -0.042850 0.050305 139 132 124
-0.095182 0.068112 -0.033855 118 118 118
0.071829 0.021987 -0.050095 149 157 158
-0.094894 -0.071174 0.004745 90 96 96
0.006711 -0.088738 0.052665 144 126 104
-0.054276 0.037380 0.016175 120 118 108
0.126069 0.076830 -0.032595 96 98 89
0.515396 -0.280635 0.382955 87 97 102
0.050390 0.044253 -0.073085 110 118 119
-0.071808 -0.045821 0.062655 120 108 92
-0.132369 0.052373 -0.004015 106 109 108
0.086440 0.028064 -0.057685 138 148 155
-0.009795 0.024922 0.012195 111 99 83
-0.070777 0.055641 0.005465 129 130 121
0.035281 0.032527 -0.063555 137 140 141
0.033192 -0.053129 0.052665 90 83 75
0.149520 -0.156259 0.175125 142 126 105
-0.225421 -0.008583 0.084175 69 51 31
-0.172757 -0.023654 0.066645 17 20 21
0.040077 0.020145 -0.045855 148 151 154
-0.099329 0.063523 -0.033015 116 116 116
0.104995 -0.009662 0.015365 162 168 170
0.027407 -0.033283 0.028395 92 93 82
0.029234 -0.080891 0.045745 91 93 77
-0.071686 0.017790 0.035165 121 119 111
0.069683 0.048685 -0.068575 109 117 118
-0.008032 -0.033856 0.028395 151 136 124
0.088484 0.001251 -0.020535 168 173 178
-0.025162 -0.110661 0.094015 150 132 110
-0.008687 0.070222 -0.024485 116 117 108
0.007819 0.007296 -0.158255 92 99 103
0.005229 0.010433 -0.033855 88 89 76
0.028164 -0.096259 0.057545 145 127 107
0.001819 0.046401 -0.034265 112 103 86
0.007716 0.007289 -0.158255 108 111 110
0.162114 -0.093353 0.106535 113 100 78
-0.010013 -0.033028 0.031235 151 136 124
0.291980 -0.085116 0.160875 71 77 75
0.038453 0.024704 -0.053735 129 132 135
0.092355 0.038873 -0.062835 108 113 118
0.034760 -0.042357 0.038225 151 136 124
-0.098902 0.065238 -0.035495 112 115 114
0.007649 0.007343 -0.158255 99 102 101
0.012135 0.052049 -0.070885 62 65 49
0.007672 0.007312 -0.158255 80 86 86
-0.125346 0.016264 0.006915 104 105 101
0.121636 0.013615 -0.031315 146 152 163
-0.135494 0.028671 0.026545 115 116 112
0.094409 0.014153 -0.032175 132 137 144
0.086072 0.000222 -0.012455 157 159 165
-0.118961 0.019474 0.024735 114 115 111
-0.003631 -0.037703 0.026545 152 137 125
0.053004 0.027565 -0.056305 156 159 162
0.016089 0.037915 -0.072885 89 90 77
-0.110739 0.067629 -0.030005 109 112 111
0.041479 0.007179 -0.027765 132 131 135
-0.165337 -0.082241 0.042455 43 47 42
0.058137 0.046555 -0.070265 103 106 107
0.077784 -0.089605 0.090645 75 77 64
0.470288 -0.148901 0.434505 77 83 85
0.090447 -0.044823 0.036175 144 136 124
-0.131763 0.020959 0.022085 111 112 108
-0.128902 -0.027190 0.092315 80 83 82
0.061799 0.062817 -0.057955 98 91 74
0.003054 -0.021750 0.001265 94 95 82
-0.030105 -0.085824 0.052665 149 135 118
0.030175 0.026314 -0.057135 145 145 147
-0.035262 0.024681 0.039265 119 117 107
0.140279 -0.123601 0.090645 105 108 109
0.040939 0.032672 -0.063555 119 125 125
0.059225 0.015587 -0.039405 155 158 161
0.229215 -0.020703 0.073635 47 46 53
0.100097 0.038766 -0.064035 103 115 119
0.104255 0.017844 -0.038645 156 163 169
0.049542 0.045740 -0.072685 105 113 114
0.123019 0.016332 -0.028665 132 141 151
0.075683 -0.010531 0.006185 167 172 177
0.223694 -0.040788 0.099235 38 28 14
-0.074974 -0.034555 0.079545 143 144 135
0.022629 -0.097177 0.092315 84 86 73
-0.032386 0.015965 0.034175 125 121 110
0.011476 -0.008950 -0.004015 150 149 151
-0.062508 0.044000 -0.003375 128 126 118
-0.084176 0.005420 0.057545 118 114 105
0.010292 0.020317 -0.045855 148 148 144
0.322324 -0.178566 0.281055 95 102 106
-0.012823 -0.031534 0.020355 152 137 127
0.048546 0.038899 -0.070885 106 111 116
0.007813 0.007299 -0.158255 92 98 100
0.064027 0.034314 -0.065905 124 131 137
-0.038803 0.066525 -0.024485 120 120 114
-0.019788 0.070029 -0.029115 115 116 107
-0.081620 -0.026663 0.085765 30 5 0
-0.006312 0.014964 -0.013025 73 67 54
0.105223 0.004300 -0.024485 131 138 144
0.034922 -0.022335 0.017825 163 163 159
0.063902 0.035876 -0.067255 116 123 127
0.078532 0.012394 -0.032595 165 167 173
0.018985 0.011594 -0.033435 155 154 154
0.051518 0.025818 -0.051945 160 166 168
-0.004593 0.064678 -0.017415 121 117 106
0.276917 -0.068801 0.150325 34 18 13
-0.024568 0.068060 -0.020535 116 117 108
0.053970 -0.001482 -0.010145 158 158 160
-0.067507 -0.081052 0.022955 106 109 110
0.105114 -0.008055 0.004035 158 163 168
0.030478 0.038475 -0.073855 129 135 137
0.016791 0.046726 -0.077155 80 82 69
0.007840 0.007293 -0.158255 81 89 90
-0.115398 0.050731 -0.018465 109 109 109
-0.135210 0.028256 0.022955 112 113 109
-0.256670 -0.113855 0.281055 89 92 91
-0.101882 0.062303 -0.029565 116 116 116
0.117987 -0.013307 0.006185 151 156 161
-0.173269 -0.072755 0.035165 15 28 15
0.007818 0.007312 -0.158255 84 90 90
0.142419 -0.030019 0.032205 129 134 139
-0.102928 0.051843 0.002635 110 114 109
-0.006162 0.059977 -0.018985 122 118 107
0.065801 0.014492 -0.036295 160 163 166
-0.108259 0.050593 -0.005285 116 119 118
0.070677 0.047642 -0.068135 111 119 120
0.146022 -0.054162 0.040315 90 96 98
0.007840 0.007297 -0.158255 77 84 88
-0.278141 -0.090918 0.135735 70 80 83
-0.046925 -0.045091 0.050305 136 117 92
0.182301 -0.067659 0.099235 122 107 95
-0.027083 -0.021545 0.034175 137 133 122
0.026524 0.048412 -0.077515 117 120 121
0.041311 0.041299 -0.073275 125 133 134
0.129109 0.002429 -0.017945 146 153 159
0.019274 0.047594 -0.078885 65 66 62
-0.087348 -0.073692 0.084175 81 55 53
0.039089 0.038545 -0.071495 124 132 133
0.098055 0.043199 -0.059805 84 86 92
-0.149814 -0.008951 0.095725 97 98 92
0.052909 0.001937 -0.016335 167 167 171
0.073163 0.050586 -0.066585 106 114 115
0.170462 -0.014706 0.019505 138 139 152
0.019310 0.020349 -0.048505 130 130 132
-0.048978 0.042894 0.001265 119 117 109
-0.119546 -0.030796 0.042455 83 89 89
0.019274 0.044668 -0.078885 98 99 93
0.031774 0.009827 -0.035495 166 165 165
-0.056046 0.030889 0.028395 120 118 110
-0.206110 -0.004806 0.090645 63 48 36
0.058619 0.052834 -0.065445 93 99 99
0.050727 0.034030 -0.065905 156 159 162
-0.120340 0.018215 0.032205 110 111 105
0.014280 0.048977 -0.075905 74 76 63
0.007779 0.007301 -0.158255 77 79 66
0.066271 -0.060695 0.076555 121 114 104
0.007682 0.007311 -0.158255 92 95 96
0.007648 0.007393 -0.158255 101 107 109
-0.068631 0.069196 -0.035495 126 126 122
0.035232 0.003169 -0.021035 153 152 152
0.007708 0.007292 -0.158255 106 109 108
-0.048747 -0.019744 0.084175 128 124 115
-0.134645 0.017608 0.026545 105 106 102
-0.070183 0.058181 0.004745 126 127 118
0.048110 0.012121 -0.029565 151 154 157
-0.152436 -0.003663 0.053865 11 14 13
-0.042350 0.050669 0.001945 120 118 110
0.067956 0.053708 -0.066815 109 117 118
-0.155178 -0.057895 0.050305 68 74 74
-0.087714 -0.037709 0.075085 104 35 32
-0.091801 0.037332 -0.004655 117 121 116
0.160501 -0.091391 0.112295 93 80 58
-0.139567 -0.059859 0.044635 84 90 90
0.048392 0.036354 -0.070055 138 143 148
0.127237 0.015702 -0.032175 134 145 154
0.033361 -0.026561 0.014565 95 96 83
0.042652 -0.015118 0.008385 163 159 160
-0.123131 0.047398 0.002635 109 113 108
0.023643 0.028259 -0.061085 145 145 147
-0.031114 0.040397 -0.004655 126 122 113
0.059830 0.052023 -0.066815 58 64 66
0.096792 0.034900 -0.061345 110 117 123
0.034613 0.032718 -0.062835 141 144 145
0.129327 -0.074269 0.094015 72 74 63
-0.190494 -0.079486 0.046865 11 15 8
-0.146414 0.038690 0.006185 107 108 104
-0.025633 0.026977 0.029335 121 119 109
0.496978 -0.176555 0.441645 78 84 86
-0.137582 -0.034964 0.097465 86 86 86
0.059188 -0.016566 0.002635 166 166 168
-0.037674 0.073578 -0.032175 118 118 112
-0.114368 0.057607 -0.009545 117 117 117
0.010105 0.044855 -0.071695 65 67 54
0.000329 -0.100208 0.094015 87 89 73
0.164880 -0.011620 0.011415 144 151 159
-0.057402 0.033988 0.020355 122 120 110
-0.005966 0.067378 -0.023025 119 117 107
-0.196003 -0.002015 0.078035 75 71 60
-0.161245 -0.071339 0.050305 35 34 34
-0.115071 0.057770 -0.013025 112 115 114
0.074238 0.023881 -0.052845 125 132 136
0.082701 0.026081 -0.049465 146 153 159
0.071469 -0.087587 0.082615 69 71 58
0.148068 -0.007843 -0.000755 145 152 160
-0.027096 0.079096 -0.031315 116 117 108
0.048035 0.050039 -0.071695 106 112 114
0.012825 0.036569 -0.068135 87 88 75
-0.132744 0.036192 0.031235 115 119 114
-0.037983 -0.003769 0.069385 123 117 104
0.105355 0.078206 -0.028665 82 82 76
-0.003941 0.013112 -0.020025 83 80 66
0.090843 0.029360 -0.060835 142 152 159
-0.176197 -0.068085 0.039265 65 78 77
0.079491 0.032425 -0.062835 128 138 145
0.042359 0.054911 -0.071295 85 92 86
-0.115286 0.054336 -0.023515 113 116 115
0.007815 0.007294 -0.158255 96 102 104
-0.021190 0.046090 0.034175 126 122 113
-0.066929 0.058192 -0.017415 129 129 123
-0.142218 0.014980 0.024735 110 111 107
0.060184 0.046534 -0.068135 104 110 112
0.053025 0.020622 -0.046195 156 159 162
-0.006761 0.011915 -0.010725 80 77 63
0.100619 0.034884 -0.059805 116 123 131
-0.043337 -0.093761 0.078035 114 116 105
-0.071391 0.026866 0.022955 123 124 115
0.060752 -0.025497 0.009135 95 97 84
-0.034749 0.055833 -0.021035 119 120 111
0.161136 -0.009925 0.007645 147 154 162
-0.101356 -0.015932 0.072205 45 11 1
-0.039672 0.030587 0.019505 121 119 111
0.132581 -0.005853 -0.001425 152 159 165
-0.015750 0.069614 -0.029565 116 117 108
-0.074841 0.058708 -0.014145 122 123 117
0.267893 -0.052657 0.145305 26 24 16
0.095560 0.031494 -0.060065 117 124 132
-0.115222 -0.039499 0.075085 88 35 31
-0.091614 0.071529 -0.034265 116 117 113
0.007782 0.007286 -0.158255 146 129 111
0.005372 0.007963 -0.031315 86 84 72
0.069641 -0.009154 -0.002075 106 105 105
0.016078 0.017371 -0.041995 161 160 160
0.132947 -0.110705 0.097465 118 111 92
0.094694 0.040338 -0.062835 97 105 104
0.165740 -0.096867 0.133445 69 70 64
0.007279 0.054314 -0.063315 68 71 55
0.095253 0.009397 -0.026845 143 148 153
0.020968 0.019229 -0.041275 167 166 166
0.077883 0.052634 -0.064975 116 116 118
-0.019802 0.033315 0.019505 123 119 110
0.101250 -0.026660 0.017825 141 147 149
0.004091 0.052670 -0.055465 66 67 54
-0.029945 -0.006632 0.082615 108 100 88
-0.125594 0.053128 -0.001425 108 111 110
0.053764 0.040789 -0.071895 127 133 135
0.017194 0.033136 -0.064515 50 50 50
0.079775 0.048725 -0.064745 29 31 37
-0.064021 -0.045585 0.057545 69 59 47
0.051717 0.040677 -0.071495 46 51 58
0.007817 0.007304 -0.158255 91 97 99
-0.117572 -0.037840 0.079545 104 69 66
-0.093765 0.036753 -0.002725 115 119 112
0.044281 -0.003844 -0.008955 163 162 164
-0.120454 0.042626 -0.010145 112 115 114
0.045416 0.036561 -0.069425 125 132 136
-0.037522 -0.058728 -0.021545 106 109 108
-0.118007 -0.045559 0.097465 99 33 27
-0.141829 0.013324 0.025635 110 110 110
-0.047512 0.053913 0.001265 117 118 109
-0.007294 -0.085015 0.063965 73 75 59
0.060620 0.060859 -0.059015 111 99 83
0.018919 0.014009 -0.038255 155 154 154
-0.068043 0.052272 -0.002725 129 130 119
-0.093940 -0.016047 0.060065 87 28 19
-0.043500 -0.052887 0.058795 139 123 102
0.094865 0.007380 -0.025905 168 173 180
-0.079167 -0.030415 0.081065 59 52 46
0.090928 0.029602 -0.061085 136 146 153
0.107645 0.016105 -0.034675 144 151 157
0.007830 0.007289 -0.158255 91 98 102
-0.086915 0.073578 -0.032175 118 119 115
0.149333 -0.008582 0.006915 156 163 171
0.026761 0.014470 -0.039785 160 159 159
0.007747 0.007305 -0.158255 80 82 66
0.036587 0.006773 -0.026375 167 166 168
-0.074853 -0.023743 0.075085 124 116 113
-0.088975 -0.081920 0.087365 105 100 96
-0.114395 0.058953 -0.008955 117 117 117
0.051641 0.025542 -0.051645 151 157 159
0.094151 0.009000 -0.026375 141 146 151
-0.114527 -0.086408 0.112295 104 55 54
0.015555 0.033515 -0.065215 143 143 139
-0.122010 -0.012641 0.075085 94 94 88
0.033576 0.046924 -0.077515 115 121 121
0.061748 0.038334 -0.069425 118 125 129
-0.112606 -0.003930 0.046865 106 106 100
-0.125883 -0.054349 0.035165 87 93 93
0.065573 -0.011473 -0.002725 158 161 162
-0.064620 0.035187 0.028395 124 125 116
-0.044226 -0.022241 0.106535 138 131 121
-0.133094 -0.020644 0.095725 83 84 78
0.381507 -0.129371 0.360395 87 90 93
-0.123082 -0.009060 0.075085 102 102 96
-0.111798 0.052831 0.002635 115 118 117
0.007819 0.007298 -0.158255 93 99 101
0.013678 0.011546 -0.040155 162 161 163
0.005598 -0.005944 -0.005905 166 165 165
0.052483 -0.013942 0.003335 165 164 164
0.049620 0.025237 -0.053435 149 155 157
0.061139 0.017517 -0.042365 164 167 170
-0.061604 -0.028630 0.088995 146 144 134
0.216544 -0.054926 0.116275 48 54 54
0.085607 0.001440 -0.020025 160 166 168
0.233657 -0.071508 0.088995 71 78 82
0.007841 0.007307 -0.158255 47 54 58
0.012938 0.050427 -0.079055 73 75 62
-0.113128 -0.038224 0.018655 91 94 93
-0.098619 0.020811 0.060065 116 116 110
-0.016143 0.070748 -0.034675 112 112 106
-0.088727 0.064870 -0.031315 119 120 116
-0.041045 0.033391 0.045745 121 117 110
-0.097648 -0.066629 0.051475 96 88 85
0.038400 0.030288 -0.060065 133 136 137
0.119615 0.010998 -0.027305 150 160 167
-0.105257 -0.049885 0.068005 97 35 32
-0.281348 -0.061781 0.140445 69 72 75
0.000746 -0.024735 0.016175 95 96 83
0.076165 0.048818 -0.066135 110 118 119
0.132392 0.008019 -0.020025 150 157 165
0.102880 -0.007119 0.001945 155 160 165
0.034760 -0.060149 0.038225 75 77 61
-0.071832 0.055469 0.004035 129 130 121
-0.112260 0.035899 0.035165 115 116 112
0.093617 0.024461 -0.049145 132 139 147
-0.085917 0.062011 -0.034265 121 124 123
-0.077218 0.029925 0.022955 120 120 114
-0.064939 0.067628 -0.037875 130 131 127
0.007833 0.007287 -0.158255 88 95 99
0.176812 -0.102886 0.095725 99 102 103
0.050469 0.028342 -0.059285 155 161 163
0.097155 0.018162 -0.043075 146 151 158
0.040540 0.021738 -0.049465 134 137 138
0.083998 -0.034961 0.040315 87 89 76
0.068192 0.036431 -0.068135 121 128 132
0.114685 0.001978 -0.017415 156 161 168
0.054885 0.034472 -0.062335 155 158 161
-0.130326 -0.024365 0.035165 83 89 89
0.077485 0.013702 -0.033435 152 159 163
-0.001257 0.005458 -0.018985 86 85 70
0.041962 0.044954 -0.073275 124 130 130
-0.034781 0.061337 -0.013025 116 117 108
0.520852 -0.186680 0.441645 75 83 84
0.099476 0.023769 -0.045855 156 163 171
0.001104 0.013807 -0.035085 82 81 66
0.059625 0.016310 -0.044135 124 123 127
0.091134 -0.070273 0.070785 68 70 57
-0.140643 0.012554 0.028395 108 108 104
-0.148711 0.000206 0.076555 102 103 99
-0.119380 -0.070190 0.055075 91 97 97
-0.050546 -0.089853 0.072205 67 58 51
0.106246 0.014516 -0.032595 135 145 152
0.174276 -0.097823 0.106535 111 94 78
-0.078411 0.046156 0.000585 123 124 118
-0.035515 0.071216 -0.043075 118 118 112
-0.028108 0.073015 -0.040155 116 117 108
0.080340 -0.005505 -0.002725 163 166 167
-0.097059 -0.025527 0.065295 99 31 23
0.243551 -0.078523 0.104675 72 80 81
0.007323 -0.103315 0.070785 152 134 112
-0.153950 -0.067673 0.056305 73 76 77
0.011996 0.017760 -0.041635 160 159 159
0.002139 0.010539 -0.037085 89 90 77
0.046000 -0.072619 0.050305 78 80 64
-0.077542 0.073598 -0.029115 131 132 128
0.005502 0.030638 -0.055175 75 77 61
0.061715 -0.113410 0.095725 144 126 106
0.040327 0.041093 -0.073465 124 132 133
-0.062269 0.029632 0.027465 125 123 115
0.036969 0.030227 -0.060325 120 123 126
0.007687 0.007286 -0.158255 98 104 106
0.106665 0.010107 -0.031315 159 166 172
0.001749 0.008683 -0.036695 92 90 78
0.024963 0.033515 -0.065215 143 146 147
-0.112396 -0.022044 0.012975 77 80 81
0.051061 0.011861 -0.031315 148 151 152
-0.090684 0.056694 -0.009545 121 122 118
0.046756 0.038217 -0.071295 122 127 132
-0.077535 -0.053088 0.073635 142 128 109
0.004191 -0.100208 0.094015 88 90 74
-0.004581 0.000670 -0.012455 90 88 76
0.065601 0.053352 -0.063795 91 97 95
0.007699 0.007292 -0.158255 103 106 105
-0.158904 -0.080534 0.041375 23 30 24
0.032590 0.000405 -0.020535 162 159 156
0.103081 0.036691 -0.060835 114 121 127
-0.096566 0.031242 0.001945 117 118 112
-0.095147 0.060652 -0.033435 118 118 118
0.274864 -0.079209 0.145305 71 74 73
0.121373 0.005864 -0.016875 155 160 169
-0.010839 0.049777 0.012195 123 119 108
0.007832 0.007287 -0.158255 95 102 106
-0.175983 -0.040735 0.062655 80 83 84
-0.103797 0.069039 -0.016335 114 117 116
-0.081063 0.055833 -0.006525 122 123 119
-0.158958 0.031048 0.039265 113 112 112
-0.107230 0.049275 -0.024485 109 109 109
0.077691 0.045755 -0.066355 114 124 129
0.041858 0.043401 -0.073855 129 135 135
0.126248 -0.014889 0.014565 154 161 165
0.032298 -0.015280 0.004035 142 142 144
-0.099732 -0.052438 0.079545 113 63 58
-0.093428 0.049604 -0.007145 121 122 116
-0.031462 -0.081026 0.092315 147 128 103
-0.173221 -0.071229 0.040315 23 30 22
0.121828 0.014639 -0.030445 127 134 142
0.008029 0.030225 -0.054895 78 80 64
-0.083230 -0.021238 0.066645 94 29 20
0.054986 0.034632 -0.063315 158 161 164
0.012327 0.045186 -0.076985 66 69 53
0.102580 0.044106 -0.059805 106 113 119
0.350067 -0.158552 0.190715 81 88 92
0.007824 0.007304 -0.158255 85 91 93
-0.093225 0.000112 0.092315 115 108 100
-0.080167 0.031798 0.014565 119 120 114
-0.073689 0.055723 -0.004655 124 125 116
-0.038331 0.072560 -0.033015 119 120 111
-0.040952 0.031637 0.021215 121 119 111
-0.078329 0.056603 -0.030005 124 125 119
-0.171083 0.031370 0.032205 105 108 107
0.224446 -0.052417 0.118315 4 7 6
0.311652 -0.043768 0.172175 95 98 99
-0.059656 0.074901 -0.032595 132 132 128
-0.174134 -0.063000 0.040315 35 38 39
0.022661 -0.062462 0.069385 75 76 63
