ply
format ascii 1.0
element vertex 1215
property float x
property float y
property float z
property uchar red
property uchar green
property uchar blue
end_header
0.003088 -0.001316 -0.083494 140 140 144
-0.005863 0.017149 0.051736 192 182 170
0.031486 0.075587 0.082406 149 146 141
0.067298 0.041626 -0.000964 132 114 92
0.068005 -0.023583 -0.013914 170 136 72
0.069895 0.009479 -0.010074 137 115 89
0.026911 0.022407 0.032766 116 106 104
-0.024403 0.002809 0.051246 6 6 2
-0.050354 -0.026153 0.014436 169 181 195
0.061122 -0.001344 0.000906 171 133 54
-0.043107 -0.051917 0.105996 105 106 93
-0.450004 -0.144825 0.389196 88 98 101
-0.118413 -0.008812 0.189036 3 7 2
0.003082 -0.001348 -0.083494 167 163 164
0.031617 -0.000375 0.070746 157 142 116
-0.067194 -0.026275 0.054226 3 6 5
-0.062876 -0.024601 0.008856 57 65 62
0.050471 0.048521 0.011446 162 127 52
0.003140 -0.001424 -0.083494 171 134 52
0.042130 -0.019233 0.053726 173 133 50
0.003083 -0.001413 -0.083494 223 209 174
-0.185065 0.075851 0.265476 11 18 12
0.131205 -0.044733 0.080946 176 137 63
0.054544 0.021376 0.028566 165 128 46
0.057606 0.045675 0.022816 163 126 51
0.003119 -0.001395 -0.083494 172 131 44
-0.039605 -0.036343 0.008406 169 176 180
0.003126 -0.001411 -0.083494 168 131 49
0.049322 0.017593 0.027566 164 124 39
-0.145826 0.032814 0.238386 8 11 10
0.039120 -0.007644 0.058426 172 130 48
-0.066167 0.025992 0.002076 126 126 130
0.003132 -0.001373 -0.083494 167 127 46
0.059699 0.008555 0.027566 167 127 46
0.046948 -0.036211 -0.011904 175 134 58
0.080315 0.035940 0.005756 129 112 87
0.003016 -0.001321 -0.083494 167 172 188
0.003087 -0.001325 -0.083494 144 147 148
0.003136 -0.001395 -0.083494 167 130 44
-0.157474 0.000840 0.193076 11 17 15
0.003114 -0.001401 -0.083494 175 134 47
-0.007923 -0.041005 -0.006424 129 140 90
-0.029406 0.042308 0.019866 159 161 171
0.003050 -0.001392 -0.083494 89 90 79
0.003096 -0.001317 -0.083494 146 145 145
-0.026179 -0.017789 0.055776 4 5 1
0.051161 -0.022745 0.042166 174 132 48
-0.053641 -0.006018 -0.009344 98 108 113
0.069267 -0.002629 -0.014044 128 115 102
-0.061446 0.003148 -0.002224 104 114 121
0.064413 -0.014559 -0.005294 174 137 62
-0.032057 0.005591 0.041746 93 92 75
-0.062141 -0.053629 0.096846 98 100 87
0.003075 -0.001332 -0.083494 149 151 157
-0.070665 -0.031730 0.030276 82 88 86
0.003067 -0.001423 -0.083494 130 141 91
-0.032107 -0.012155 0.007946 3 6 5
-0.022434 0.037116 0.002266 155 160 169
0.003172 -0.001391 -0.083494 172 136 68
0.003126 -0.001412 -0.083494 166 129 47
-0.034485 -0.014447 0.058966 116 115 122
0.003058 -0.001416 -0.083494 225 232 190
-0.050265 -0.020435 0.025616 3 6 5
-0.044602 0.031131 0.010486 176 181 190
0.003164 -0.001371 -0.083494 171 135 57
0.067947 0.028163 -0.003444 142 143 156
0.013242 0.043921 0.035356 141 138 135
0.004443 0.020151 0.030276 196 183 170
-0.070455 -0.036968 0.004706 116 127 136
-0.064448 0.026574 0.003066 140 139 146
-0.072696 -0.027874 0.030976 16 23 17
0.056704 -0.012038 0.011926 170 130 47
0.031103 0.020283 0.030976 130 119 114
0.003078 -0.001327 -0.083494 145 147 153
0.003178 -0.001332 -0.083494 129 111 89
-0.061589 0.007525 0.005336 114 123 133
-0.034140 -0.046687 0.010246 113 144 128
0.070931 0.006646 0.006186 162 127 54
-0.061142 0.018460 0.014186 6 7 3
-0.049833 0.051846 0.028236 164 170 181
0.018455 0.020563 0.056296 193 176 160
-0.048303 -0.030132 0.008856 161 171 178
0.026463 -0.011899 0.084646 172 163 154
0.003139 -0.001390 -0.083494 173 133 48
-0.004947 0.016744 0.050276 190 180 168
0.041517 0.019766 0.034976 146 132 124
0.003049 -0.001319 -0.083494 158 163 172
0.003137 -0.001391 -0.083494 169 129 46
0.003050 -0.001403 -0.083494 105 107 91
0.003086 -0.001356 -0.083494 193 179 164
0.020257 -0.017832 0.079506 201 192 175
-0.020685 -0.008461 0.057346 122 125 128
0.003087 -0.001320 -0.083494 142 145 146
-0.071123 -0.024003 0.001296 0 4 11
0.007083 -0.065915 0.048386 129 138 82
0.064385 -0.008353 0.004286 175 137 58
0.002997 -0.001406 -0.083494 88 100 102
-0.046060 0.025002 0.010246 28 31 30
0.229773 -0.131706 0.220066 182 141 63
-0.056454 0.035238 0.085406 6 10 5
0.048048 0.080336 0.063456 137 111 67
-0.045146 -0.039682 0.009316 165 175 182
0.003017 -0.001316 -0.083494 162 170 185
0.059126 -0.025057 -0.012044 181 139 66
0.030229 0.052950 0.080946 164 157 151
0.027702 -0.082367 0.128626 160 145 115
0.003021 -0.001367 -0.083494 13 21 20
0.051648 -0.014292 0.052716 170 130 49
0.034061 -0.048688 0.034226 146 117 37
0.056723 0.049323 0.030276 163 126 53
-0.061090 0.032076 0.043016 19 25 23
-0.015873 -0.005038 0.050756 125 125 121
0.003124 -0.001424 -0.083494 164 129 46
-0.063336 -0.013981 -0.002044 97 102 111
0.003084 -0.001406 -0.083494 140 134 108
0.003048 -0.001324 -0.083494 156 161 170
-0.068776 0.011431 0.000526 42 49 53
0.003056 -0.001412 -0.083494 179 179 146
0.027483 0.017500 0.048386 194 176 156
0.003071 -0.001414 -0.083494 217 213 177
0.055664 -0.000580 0.015476 165 128 46
0.003143 -0.001334 -0.083494 164 128 50
-0.037935 0.028089 0.009086 176 178 186
-0.063881 -0.013515 -0.006584 1 9 8
0.066405 -0.021275 -0.016294 171 137 75
0.013697 0.073218 0.050276 119 119 121
-0.060539 -0.014779 0.002266 103 109 109
0.002788 -0.019348 0.077396 148 127 110
-0.040317 -0.007652 0.045196 4 5 1
0.068088 0.036441 0.006626 158 128 55
0.003038 -0.001379 -0.083494 3 7 2
-0.058619 0.004317 0.008626 0 6 6
0.013627 0.013315 0.054736 180 170 158
-0.073152 -0.039933 0.001676 134 155 172
0.001523 -0.011163 0.080946 145 138 130
0.003171 -0.001416 -0.083494 183 142 64
0.027354 -0.023794 0.040496 187 139 54
0.003152 -0.001400 -0.083494 180 139 61
0.065844 -0.004393 -0.010074 171 136 65
0.003144 -0.001396 -0.083494 176 134 54
0.055386 0.032686 0.033126 169 128 50
0.046625 0.045420 0.007946 156 124 50
0.063724 -0.024137 -0.012174 184 142 69
0.050912 -0.019801 0.028906 171 129 47
-0.133414 0.004438 0.165406 1 7 5
0.002991 -0.001413 -0.083494 118 134 144
0.003097 -0.001410 -0.083494 161 147 114
0.051282 0.017704 0.040496 165 129 49
-0.330522 0.041349 0.482316 11 19 16
-0.008190 0.008944 0.045196 90 87 82
0.003157 -0.001425 -0.083494 179 136 61
-0.043778 0.037327 0.000716 168 172 184
0.003049 -0.001317 -0.083494 153 158 167
0.027130 0.005260 0.059506 208 194 186
0.058895 -0.023312 0.038866 168 128 43
0.003141 -0.001387 -0.083494 168 126 42
-0.042010 -0.013864 0.046096 0 1 2
-0.050117 0.017180 0.061736 2 6 1
0.038356 0.051549 0.068236 157 151 138
0.003167 -0.001399 -0.083494 180 141 69
0.003055 -0.001399 -0.083494 103 105 92
-0.108434 0.008794 0.151316 14 17 16
-0.055978 -0.044475 -0.001864 131 148 107
-0.011879 -0.004487 0.053726 122 118 109
0.055395 0.008003 0.017896 168 128 47
-0.003050 0.021196 0.021326 191 181 167
-0.063966 -0.001216 0.000146 102 112 117
0.058248 0.045650 0.015216 161 126 55
-0.054295 0.054853 0.036886 164 170 181
-0.068671 0.034045 0.007946 178 184 197
-0.063766 -0.013718 0.004086 107 114 122
0.003005 -0.001351 -0.083494 12 18 16
0.065211 -0.014606 -0.002044 175 137 60
0.052773 0.005186 0.003266 169 132 50
0.003047 -0.001413 -0.083494 183 184 155
-0.063563 0.011573 0.005976 13 19 19
0.003153 -0.001424 -0.083494 178 136 65
0.003096 -0.001336 -0.083494 160 157 152
-0.071105 -0.041974 -0.003094 99 126 117
0.023114 -0.049148 0.070746 127 117 85
0.039844 -0.056263 0.019586 156 126 42
0.046096 -0.053681 0.031686 164 129 44
0.016657 -0.020095 0.075346 114 105 86
-0.064094 0.012658 0.000146 18 18 20
0.003073 -0.001315 -0.083494 143 146 149
-0.024970 -0.042092 0.007066 213 224 192
0.047274 -0.012724 0.030626 171 131 48
0.060851 0.034993 0.020736 165 129 51
0.003136 -0.001421 -0.083494 171 133 54
0.064568 0.028138 -0.000034 154 123 55
0.003006 -0.001369 -0.083494 106 113 119
-0.054696 0.028267 0.012426 153 158 165
-0.018101 0.018085 0.021916 175 168 158
0.070715 0.014555 -0.007374 134 115 90
-0.003608 0.022729 0.017626 169 163 165
0.040646 -0.060167 0.027566 155 124 45
0.003172 -0.001412 -0.083494 185 143 72
0.008942 -0.010319 0.070746 163 153 139
-0.184515 0.044013 0.289906 6 12 10
-0.000345 -0.021699 0.054736 145 134 125
0.057778 -0.000183 -0.007684 173 137 59
-0.019939 0.050356 0.046996 155 157 163
0.059795 0.040751 0.008176 163 127 59
-0.074501 0.034858 0.001296 171 179 196
0.003014 -0.001375 -0.083494 0 6 4
0.003094 -0.001402 -0.083494 125 117 91
-0.004347 -0.012542 0.072036 146 139 129
-0.057488 0.015746 0.012426 25 18 12
0.003059 -0.001421 -0.083494 133 149 97
0.003127 -0.001408 -0.083494 173 133 50
0.003055 -0.001401 -0.083494 106 108 92
-0.092931 -0.013481 0.109926 4 7 6
0.066106 -0.013037 -0.016174 164 169 178
0.003061 -0.001401 -0.083494 110 112 94
0.002994 -0.001328 -0.083494 169 177 194
0.004384 0.034578 0.025296 154 153 155
0.003030 -0.001384 -0.083494 29 27 19
0.023908 -0.051011 0.071386 126 116 84
0.002996 -0.001318 -0.083494 164 173 194
-0.032143 -0.010089 0.011446 16 19 18
0.016172 0.045845 0.048386 161 156 152
0.063704 0.038474 -0.002224 153 163 168
0.003089 -0.001323 -0.083494 143 143 145
0.049170 -0.024361 0.032766 172 130 46
0.013436 0.069588 0.046996 123 122 124
0.002994 -0.001404 -0.083494 90 102 104
0.002994 -0.001335 -0.083494 145 147 155
0.067987 0.002924 -0.012174 147 155 172
-0.237676 0.063252 0.516406 8 12 7
0.003089 -0.001400 -0.083494 121 114 93
0.016882 0.010934 0.047456 186 172 164
0.044289 -0.010352 0.053216 169 127 43
0.058649 -0.030122 0.001676 179 137 57
-0.040185 -0.009338 0.050276 50 35 25
0.050404 0.047118 0.009316 158 123 50
0.029694 -0.025154 0.073336 183 139 53
0.030254 -0.051366 0.044316 176 132 46
0.003068 -0.001413 -0.083494 198 195 163
0.003110 -0.001394 -0.083494 183 136 53
-0.063767 0.001658 0.005336 103 113 120
0.003058 -0.001422 -0.083494 133 147 96
-0.012818 0.028424 0.027896 168 164 167
0.032702 -0.007607 0.074006 167 151 130
0.003166 -0.001388 -0.083494 178 139 65
0.003119 -0.001410 -0.083494 165 128 46
0.009006 0.004649 0.050756 179 172 164
0.003056 -0.001413 -0.083494 190 190 157
-0.034957 -0.046311 0.007726 111 131 112
-0.061045 0.016938 0.005336 13 19 19
-0.040305 0.002130 0.041746 20 24 19
-0.022568 0.039715 0.030276 159 161 167
0.003072 -0.001320 -0.083494 147 149 155
0.066446 0.004212 -0.009634 163 170 176
0.065693 -0.009274 -0.017374 164 173 185
0.003146 -0.001375 -0.083494 170 130 47
-0.074498 0.011402 -0.001324 124 136 142
-0.077594 0.035404 0.005126 172 181 193
0.003049 -0.001413 -0.083494 184 186 154
0.056817 0.042797 0.017356 160 123 50
-0.020815 0.011276 0.037276 20 21 15
0.063769 0.014147 0.017356 166 130 50
0.064880 -0.014625 -0.003444 174 137 62
-0.002550 0.033174 0.024046 155 154 158
0.003076 -0.001401 -0.083494 121 120 105
0.024032 -0.080902 0.118296 180 165 135
-0.011945 0.008887 0.046996 31 17 0
0.003025 -0.001350 -0.083494 13 20 14
-0.057842 0.025687 0.000716 150 149 156
0.003127 -0.001402 -0.083494 170 130 45
0.031413 -0.025584 0.052716 185 139 53
0.003083 -0.001391 -0.083494 121 115 100
0.066198 -0.002704 -0.009924 161 130 60
0.003032 -0.001359 -0.083494 9 15 13
0.062098 0.044208 0.010966 159 123 55
-0.013131 0.035687 0.031326 159 158 165
0.003066 -0.001347 -0.083494 185 176 167
0.003153 -0.001408 -0.083494 179 137 57
-0.038861 -0.027820 0.056816 95 97 88
0.003180 -0.001425 -0.083494 177 139 73
0.003099 -0.001425 -0.083494 129 133 76
-0.033176 -0.015322 0.058966 161 161 157
-0.074594 0.006359 0.004496 100 110 115
-0.009430 -0.005566 0.070106 137 133 126
-0.075507 -0.026191 0.004916 81 98 101
0.003031 -0.001354 -0.083494 12 18 16
0.053041 0.053570 0.036506 163 127 49
0.027407 -0.036518 0.041746 204 153 58
0.003153 -0.001406 -0.083494 181 138 61
0.010562 -0.050006 0.056816 142 134 108
-0.052953 -0.034213 -0.000224 113 127 133
-0.027661 0.009342 0.032396 19 28 21
-0.068123 -0.037289 0.004496 121 132 141
0.003030 -0.001325 -0.083494 167 171 183
-0.022508 -0.018689 0.057886 121 113 110
-0.070010 0.021241 -0.000414 20 26 24
0.003140 -0.001388 -0.083494 173 133 50
-0.055633 0.029672 0.007066 159 158 165
0.409308 -0.234316 0.428046 182 141 65
0.059418 0.016462 0.003676 163 127 49
-0.031171 0.001697 0.047916 8 9 3
0.059663 0.035591 0.034976 166 129 47
-0.074577 0.037501 0.001096 150 158 175
0.003093 -0.001396 -0.083494 122 115 94
0.003041 -0.001381 -0.083494 3 6 5
0.048855 0.047545 0.053726 145 115 67
0.003180 -0.001315 -0.083494 116 100 79
0.002996 -0.001412 -0.083494 114 127 138
-0.066597 0.011981 0.003266 13 16 17
-0.073706 -0.041424 0.000146 82 120 114
0.040635 0.016344 0.043016 190 172 152
-0.056032 0.004870 0.006406 1 4 3
0.050529 -0.056067 0.035736 161 125 45
0.003067 -0.001422 -0.083494 130 142 89
-0.050306 0.044103 0.008406 167 175 190
0.061982 0.026957 0.032396 160 123 48
0.048232 0.040092 0.042586 167 130 46
0.003044 -0.001408 -0.083494 120 122 104
0.064743 0.010192 0.000906 168 133 60
-0.024995 0.032400 0.015476 142 146 158
-0.006492 -0.021154 0.076026 136 134 126
-0.049585 -0.015701 0.000716 5 11 11
-0.005656 0.026913 0.019866 138 137 139
-0.058998 -0.158770 0.435156 122 121 104
-0.022335 0.012988 0.026256 19 20 14
0.054342 0.047627 0.010016 159 124 51
0.042605 0.032630 0.040086 164 150 131
-0.027785 0.008969 0.034226 25 29 22
0.085607 0.031968 0.003266 125 107 85
0.053915 0.010123 0.024666 170 129 51
-0.055791 -0.008016 -0.009924 100 109 119
0.066585 0.019144 -0.003614 160 164 159
-0.059597 0.021658 0.006186 97 67 51
0.068780 0.004590 -0.011904 126 112 104
-0.045533 -0.036438 0.009786 166 176 183
-0.066910 0.031900 0.004496 151 153 161
0.002567 0.025854 0.021916 121 117 122
0.003134 -0.001423 -0.083494 168 132 52
0.061308 0.033198 0.005756 160 127 60
0.003050 -0.001330 -0.083494 161 166 175
0.067133 0.029221 -0.002924 144 150 161
-0.062232 0.036519 -0.001864 164 172 191
0.003076 -0.001415 -0.083494 229 229 194
0.003031 -0.001319 -0.083494 164 170 183
0.003009 -0.001317 -0.083494 164 172 189
0.041899 -0.049027 0.028236 165 128 46
0.001564 0.031452 0.024356 158 154 157
-0.023476 0.052269 0.058426 159 161 167
0.064113 -0.009829 -0.020074 169 178 190
-0.032514 -0.012442 0.006846 0 7 6
-0.071225 0.001810 -0.001324 103 113 118
-0.066331 0.019672 -0.002044 15 21 21
-0.020354 -0.013050 0.060616 92 81 74
0.069369 0.046914 0.003066 130 112 90
0.037343 -0.026616 0.034976 177 132 49
0.024101 -0.069895 0.105046 144 132 101
0.066798 0.011162 -0.010784 147 152 161
0.041609 0.002870 0.068236 186 162 137
0.032228 0.072944 0.076706 150 148 140
0.032177 -0.058262 0.036116 122 128 68
-0.075423 -0.041990 0.001876 65 101 95
0.003059 -0.001405 -0.083494 119 119 99
0.070311 0.024418 -0.006904 134 115 88
0.003079 -0.001327 -0.083494 145 147 153
-0.016502 -0.029766 0.053726 112 111 96
-0.050358 -0.007908 -0.007214 1 5 0
0.003078 -0.001336 -0.083494 153 152 156
0.003138 -0.001399 -0.083494 173 133 48
0.067680 0.025794 -0.004964 115 109 113
0.003049 -0.001324 -0.083494 157 162 171
-0.008492 -0.025154 0.073336 111 109 97
0.003044 -0.001315 -0.083494 155 160 167
0.067338 -0.030741 -0.014174 174 134 67
0.077146 0.039268 0.007066 132 115 90
0.031488 -0.014192 0.080946 164 122 40
0.052516 0.059719 0.045196 164 127 52
0.015880 -0.023242 0.047456 123 116 95
0.043398 -0.049700 0.026256 164 129 46
0.030511 0.017146 0.008406 168 159 142
0.003165 -0.001331 -0.083494 134 115 88
0.003001 -0.001344 -0.083494 32 24 21
0.003173 -0.001318 -0.083494 126 110 87
0.010494 0.017704 0.038066 191 177 162
-0.034427 0.035367 0.010246 162 167 176
0.003096 -0.001395 -0.083494 123 115 91
0.015765 -0.024751 0.067616 121 112 95
0.035648 0.054150 0.047916 153 147 134
0.003028 -0.001362 -0.083494 11 17 17
0.108442 0.045809 0.028566 128 112 91
0.003077 -0.001389 -0.083494 118 117 102
0.003111 -0.001331 -0.083494 156 149 132
0.062005 0.017652 0.023116 167 129 52
0.030620 -0.020003 0.078796 177 135 53
-0.020666 -0.021312 0.061176 16 12 3
-0.045887 -0.020158 0.084646 5 14 7
0.003001 -0.001316 -0.083494 164 172 189
0.018762 0.065994 0.049796 148 148 144
-0.071062 0.016663 -0.001504 16 16 16
0.003092 -0.001403 -0.083494 127 119 93
-0.010389 0.021856 0.027566 190 180 168
-0.043933 -0.017371 0.052226 34 29 25
0.003173 -0.001411 -0.083494 183 141 68
0.003174 -0.001318 -0.083494 123 108 82
0.003072 -0.001414 -0.083494 230 226 190
0.003079 -0.001321 -0.083494 142 144 150
0.003032 -0.001330 -0.083494 166 173 181
0.003026 -0.001376 -0.083494 8 14 14
-0.058103 0.029770 0.034976 19 25 23
0.003089 -0.001402 -0.083494 125 119 95
0.061052 0.045534 0.055256 168 131 49
0.003181 -0.001409 -0.083494 171 138 71
0.003027 -0.001347 -0.083494 12 18 16
0.050920 0.061677 0.054226 165 128 55
0.060953 -0.026724 -0.015804 179 136 61
0.003144 -0.001414 -0.083494 176 136 55
-0.049618 -0.032938 0.007946 172 192 218
0.003045 -0.001319 -0.083494 156 162 173
0.053506 0.002910 0.031686 172 128 42
0.058307 0.019034 0.020156 164 127 45
-0.051052 0.048667 0.011446 166 174 189
0.003177 -0.001418 -0.083494 175 137 69
0.056035 -0.010706 0.007506 173 133 52
0.003073 -0.001410 -0.083494 168 164 137
0.070730 -0.024603 -0.004634 177 140 67
0.064556 0.019246 -0.000224 161 128 59
-0.053774 -0.009675 -0.012174 107 117 124
0.003079 -0.001391 -0.083494 120 117 101
0.003078 -0.001423 -0.083494 131 140 88
0.003100 -0.001338 -0.083494 162 158 151
0.003165 -0.001409 -0.083494 185 142 67
0.056715 0.002021 0.011686 170 130 47
0.006245 0.052758 0.020736 142 142 144
-0.074947 0.029664 0.004286 144 143 154
0.003046 -0.001400 -0.083494 97 99 86
-0.066177 0.005751 0.007066 95 102 108
0.051834 0.052314 0.035356 164 128 50
0.003134 -0.001395 -0.083494 171 131 46
-0.068106 -0.028564 0.025296 77 80 83
0.003040 -0.001323 -0.083494 160 166 177
0.003163 -0.001407 -0.083494 184 143 67
0.065247 0.027796 0.007726 159 127 55
0.062778 -0.002755 -0.000034 174 136 59
-0.020685 -0.008245 0.057346 119 122 125
0.064548 0.048530 0.007726 152 120 55
-0.032804 -0.012361 0.006186 0 8 9
0.061382 0.012557 0.001096 166 131 58
0.067008 0.037194 0.000146 142 148 159
0.003038 -0.001356 -0.083494 11 14 13
0.003026 -0.001363 -0.083494 8 16 13
0.038352 -0.057693 0.038466 109 115 82
-0.043420 -0.039364 0.003676 166 177 188
0.003131 -0.001320 -0.083494 158 123 50
-0.057748 -0.005521 0.001486 88 95 99
0.003064 -0.001410 -0.083494 164 163 135
0.054292 -0.029491 -0.010504 182 140 60
-0.061435 0.002765 -0.002394 109 120 129
0.002997 -0.001318 -0.083494 161 171 189
0.003015 -0.001337 -0.083494 155 154 161
0.059074 -0.008486 0.009546 171 129 47
0.010441 0.035538 0.034226 162 158 161
-0.026503 -0.016134 0.056296 5 5 5
0.052814 0.059215 0.034226 158 123 50
0.065074 -0.005109 -0.011494 172 137 66
0.003028 -0.001364 -0.083494 8 14 12
0.003128 -0.001403 -0.083494 170 130 45
-0.009085 0.029002 0.016806 159 159 163
-0.033847 -0.009609 0.010966 2 5 4
0.043098 -0.048642 0.024986 163 128 45
0.021137 0.047313 0.007286 143 143 137
-0.009877 0.020746 0.035356 185 175 161
-0.002203 -0.038565 0.072036 118 116 97
-0.044519 -0.028138 0.065806 91 93 82
0.003080 -0.001402 -0.083494 123 121 100
-0.070562 -0.029729 0.027236 28 32 25
0.000761 0.002785 0.065216 151 153 144
0.042725 -0.011427 0.050756 170 128 44
0.062612 0.031965 0.008406 164 128 60
0.062971 -0.015827 -0.017134 168 132 66
0.041635 0.010591 0.052716 197 187 175
-0.065994 0.013617 -0.004294 118 129 129
0.005078 0.017431 0.049326 199 185 170
0.065911 -0.011885 -0.013514 169 136 69
0.063493 -0.024986 -0.016894 180 143 70
0.058730 0.047870 0.024046 161 126 55
-0.018090 0.007326 0.036506 21 22 13
0.057153 0.064941 0.049326 160 124 46
0.003857 0.017062 0.021616 194 179 167
0.066161 0.025455 -0.005944 144 150 161
0.050497 0.024377 0.036116 168 128 45
0.003091 -0.001395 -0.083494 121 114 95
0.048615 -0.025548 0.044756 172 130 48
0.063834 0.049759 0.014956 155 122 55
0.003125 -0.001403 -0.083494 170 130 45
0.068184 0.013106 -0.000964 166 130 62
0.003174 -0.001391 -0.083494 170 134 68
0.051749 -0.013232 0.047916 168 128 47
-0.022769 0.040688 0.011206 155 160 167
0.002997 -0.001425 -0.083494 130 147 110
-0.127604 -0.160753 0.340836 141 141 117
0.030136 -0.047749 0.077396 205 154 57
-0.050907 -0.020097 0.026586 3 6 5
0.003072 -0.001327 -0.083494 152 154 160
-0.011499 0.019930 0.048386 185 174 165
0.003075 -0.001408 -0.083494 146 142 115
0.037530 -0.028008 0.038866 178 134 48
0.003162 -0.001355 -0.083494 162 130 58
0.040310 0.057647 0.053216 152 145 128
0.049179 0.076453 0.066406 134 115 86
0.003148 -0.001391 -0.083494 175 135 52
0.003040 -0.001317 -0.083494 157 163 174
-0.032145 -0.047630 0.014696 107 140 125
0.003159 -0.001409 -0.083494 180 141 67
-0.062423 -0.015610 -0.004794 15 17 25
0.003098 -0.001422 -0.083494 129 135 75
0.003003 -0.001381 -0.083494 89 98 108
-0.009265 -0.013167 0.074006 107 115 100
0.054237 0.015083 0.027896 168 127 49
0.054598 0.019053 0.030976 168 128 47
0.065202 0.015076 -0.019854 129 111 89
-0.060921 0.009950 0.007286 85 91 102
0.003033 -0.001357 -0.083494 9 15 13
-0.036117 -0.042788 0.011206 201 205 180
0.052976 0.040932 0.031686 165 129 51
0.002989 -0.001339 -0.083494 92 89 86
0.029316 -0.019479 0.083146 168 127 49
0.003050 -0.001392 -0.083494 87 88 77
-0.053282 -0.037068 0.005976 122 134 138
0.010062 -0.038946 0.030976 131 123 97
-0.069563 -0.005691 -0.007054 11 13 19
-0.109888 -0.001653 0.148396 6 12 12
0.003013 -0.001337 -0.083494 151 153 159
0.066584 -0.021889 -0.013124 177 139 71
-0.067670 -0.001345 -0.001504 93 99 101
0.003126 -0.001409 -0.083494 169 132 50
-0.060196 -0.007210 -0.003954 100 107 115
0.002990 -0.001407 -0.083494 90 102 106
-0.031348 -0.016822 0.004916 3 70 74
-0.033309 -0.001190 0.014186 2 5 4
0.058387 0.041662 0.001876 160 127 58
0.003085 -0.001404 -0.083494 130 124 100
0.003160 -0.001389 -0.083494 174 137 62
-0.026275 0.030010 0.014186 140 145 152
-0.013826 0.007424 0.046096 79 66 55
0.040866 -0.001966 0.055256 179 134 53
0.003080 -0.001317 -0.083494 143 143 147
0.117191 0.052339 0.034606 122 106 85
0.003072 -0.001327 -0.083494 150 152 158
0.054783 0.029492 0.034606 166 126 45
-0.062052 0.003130 0.007506 101 111 116
0.003079 -0.001332 -0.083494 151 151 155
0.055323 0.056750 0.083896 159 150 131
-0.012944 0.008286 0.046996 143 131 113
-0.022919 0.044507 0.043016 160 162 170
0.003164 -0.001386 -0.083494 175 137 60
-0.045247 -0.036724 0.009786 164 174 181
-0.065684 -0.003939 -0.003094 54 59 64
0.061306 0.037415 0.036116 166 128 49
0.003139 -0.001396 -0.083494 171 131 46
0.003108 -0.001397 -0.083494 186 140 50
-0.063529 0.035879 -0.007524 161 171 189
-0.074979 -0.041633 0.001676 64 98 93
0.003012 -0.001410 -0.083494 112 126 132
0.003083 -0.001331 -0.083494 147 147 149
0.005979 -0.016812 0.076706 184 171 158
-0.053832 0.004858 0.004286 2 5 4
0.067534 0.012093 -0.003954 146 119 68
0.003160 -0.001392 -0.083494 178 136 67
0.052553 0.072585 0.055256 159 124 51
0.052793 -0.010944 0.034606 166 126 45
-0.072670 0.024048 0.003066 89 63 50
0.003093 -0.001392 -0.083494 122 115 96
-0.061012 0.025982 -0.001504 147 146 153
-0.060165 -0.018675 0.000716 41 45 40
0.058132 -0.005225 -0.015314 177 140 65
-0.047828 0.028377 0.003676 198 200 208
0.052374 -0.026794 0.003266 174 134 51
0.003047 -0.001386 -0.083494 56 64 61
0.003158 -0.001425 -0.083494 177 136 60
-0.055088 0.045960 0.008176 162 170 185
0.054156 0.031717 0.043876 168 128 45
0.031054 -0.054771 0.064036 223 159 55
-0.041370 0.033972 0.008856 166 172 183
-0.023548 0.036277 0.019866 137 143 154
0.032487 0.064870 0.057886 150 148 140
0.003170 -0.001335 -0.083494 133 114 87
0.052774 -0.030942 -0.001144 179 137 53
-0.040607 -0.006745 0.052226 3 4 0
-0.114608 -0.007595 0.132306 7 10 11
0.003129 -0.001397 -0.083494 169 129 44
0.043953 -0.036064 -0.015434 176 134 61
0.003030 -0.001410 -0.083494 158 171 182
0.003142 -0.001388 -0.083494 169 129 48
0.050574 0.031735 0.050276 167 136 57
0.003124 -0.001407 -0.083494 170 130 45
0.078380 -0.020735 0.012916 174 136 59
0.056960 0.008133 0.017626 168 131 47
-0.020115 0.029372 0.016006 143 143 147
-0.071333 -0.025215 0.007946 9 12 13
0.002999 -0.001407 -0.083494 93 105 107
0.003083 -0.001316 -0.083494 140 140 144
0.003135 -0.001395 -0.083494 173 133 48
-0.010009 0.009574 0.045646 28 26 16
-0.061690 0.035148 -0.006104 165 175 193
0.033725 0.067714 0.069476 152 150 142
-0.071735 -0.018160 0.009316 115 124 134
0.052980 0.012988 0.026256 165 129 49
-0.058222 0.019576 0.012426 61 36 16
0.055334 -0.055248 0.038866 167 130 48
0.033100 -0.004291 0.065216 164 151 129
0.003137 -0.001374 -0.083494 166 126 41
0.067860 0.000393 -0.007984 138 111 74
0.062602 -0.018057 -0.001684 178 137 59
0.002988 -0.001361 -0.083494 140 144 156
0.065413 0.021954 0.010726 162 127 52
-0.060861 -0.020984 0.004706 59 62 61
-0.053334 0.038850 -0.000414 168 173 189
0.003139 -0.001421 -0.083494 173 135 56
-0.064332 -0.021846 0.002076 49 54 63
0.059918 0.047516 0.012916 161 129 57
0.062230 0.016915 -0.001504 164 128 60
0.058579 -0.001638 0.013416 166 125 47
-0.055250 -0.005977 -0.008144 98 108 113
-0.047606 -0.024288 0.012916 199 200 196
0.003017 -0.001319 -0.083494 167 172 188
0.003076 -0.001400 -0.083494 118 117 100
0.033768 -0.050043 0.038066 146 116 39
0.006574 0.053390 0.021026 144 144 146
0.003097 -0.001317 -0.083494 147 146 146
0.024359 0.064900 0.043016 145 145 139
-0.066344 -0.018301 -0.007374 171 183 199
0.003103 -0.001333 -0.083494 155 151 142
0.003051 -0.001403 -0.083494 109 111 95
0.054635 0.007315 0.033856 169 129 48
0.008706 -0.011503 0.070746 164 154 140
0.031983 -0.009435 0.076706 171 155 132
0.061162 -0.027850 -0.015314 184 143 67
0.003035 -0.001326 -0.083494 167 171 183
0.002987 -0.001373 -0.083494 115 123 138
0.003143 -0.001397 -0.083494 171 131 46
0.003113 -0.001315 -0.083494 145 139 124
-0.023336 -0.047461 0.008626 135 149 98
-0.039619 -0.025014 0.019296 74 72 60
-0.065240 -0.006499 -0.003614 18 24 24
0.002999 -0.001333 -0.083494 146 151 158
0.051490 0.047664 0.014696 162 127 56
0.057180 0.016188 -0.000774 166 130 52
-0.025064 -0.041448 0.017356 158 157 129
0.053722 -0.012235 0.008626 168 128 45
0.061499 0.029676 -0.000034 163 128 57
0.059345 -0.012730 -0.002044 176 139 57
-0.047885 -0.026277 0.013166 139 145 156
0.034225 0.040874 0.033486 154 147 130
0.003076 -0.001408 -0.083494 142 138 113
0.002577 0.048582 0.067016 153 152 154
-0.061776 -0.019931 -0.000034 111 120 132
0.012568 0.003978 0.054736 163 159 150
0.041150 0.048528 0.047456 155 146 127
0.003028 -0.001389 -0.083494 6 12 10
0.058423 0.033673 0.006626 161 129 57
-0.063939 0.016778 0.003266 13 19 17
0.046084 -0.028689 -0.002574 175 136 48
0.003093 -0.001388 -0.083494 121 114 95
0.003108 -0.001342 -0.083494 162 152 138
0.003078 -0.001324 -0.083494 146 145 152
-0.045664 -0.033254 0.013166 163 168 173
0.003066 -0.001408 -0.083494 136 134 111
-0.027278 -0.033160 0.050276 108 109 96
0.048772 0.009536 0.045196 171 151 131
0.026488 -0.019950 0.034226 183 137 51
0.060211 0.018578 0.022816 162 125 43
0.061570 -0.032075 -0.020614 177 139 71
-0.029170 -0.049283 0.011686 133 147 100
-0.046562 -0.031445 0.011206 162 169 175
0.053412 0.041352 0.022216 163 126 51
-0.036543 -0.042524 0.013676 186 187 160
-0.036130 -0.007457 0.027236 2 6 1
0.003085 -0.001319 -0.083494 144 144 148
-0.067519 -0.033778 -0.005294 116 132 142
0.064632 0.018333 -0.007684 158 163 172
0.054690 -0.020969 0.032766 170 128 44
-0.067616 0.035568 -0.002574 145 153 172
0.025120 -0.064701 0.096846 136 125 91
-0.030018 0.027536 0.055776 175 168 158
-0.061857 0.001413 -0.001864 104 114 121
0.031243 -0.020367 0.041746 178 133 50
0.003138 -0.001397 -0.083494 171 131 46
0.051864 -0.023351 0.049326 171 129 45
0.069881 0.013409 -0.008444 130 113 86
0.002992 -0.001318 -0.083494 161 171 189
0.059070 -0.011960 -0.000224 174 136 57
0.015768 0.009806 0.048386 202 193 188
0.061542 -0.017790 0.002866 176 135 57
-0.064632 0.031827 -0.001684 171 179 194
0.010445 0.005679 0.050756 181 174 164
-0.048274 -0.029135 0.009316 161 176 189
0.090327 0.038860 0.016806 128 109 84
0.003152 -0.001399 -0.083494 177 137 56
0.035534 -0.022036 0.047456 179 135 49
-0.038371 0.007122 0.038866 59 61 52
0.003069 -0.001414 -0.083494 225 221 185
-0.024485 0.026414 0.013676 169 168 175
0.058461 0.036513 0.030626 165 127 50
0.004395 0.027817 0.026256 161 160 162
0.003044 -0.001368 -0.083494 3 7 2
-0.019739 -0.000705 0.051736 17 21 16
-0.057020 -0.009392 -0.004124 100 110 115
-0.027107 0.041556 0.019586 156 161 168
0.064226 0.041095 0.003676 159 128 58
-0.067744 0.006588 0.005546 82 92 95
0.027939 0.014377 0.036886 195 174 157
-0.031023 -0.016178 0.005126 1 52 55
-0.049140 -0.033189 0.009086 160 176 195
0.003134 -0.001415 -0.083494 173 136 54
0.058277 0.000859 0.000906 172 135 53
0.003178 -0.001342 -0.083494 127 110 85
0.046151 -0.007719 0.038866 169 126 49
-0.016299 0.029037 0.014436 164 167 170
-0.066614 -0.039762 0.002466 137 157 172
0.016113 0.032317 0.034976 163 158 154
0.062548 0.042687 0.018176 163 128 57
0.002988 -0.001391 -0.083494 29 49 60
0.003065 -0.001409 -0.083494 149 148 120
0.003116 -0.001337 -0.083494 159 150 131
0.025836 -0.023614 0.038466 186 140 54
-0.067101 -0.018266 0.022516 0 12 18
0.003064 -0.001403 -0.083494 122 122 102
0.011607 0.029544 0.028236 165 161 164
0.003024 -0.001371 -0.083494 11 17 15
0.064317 0.037163 0.033126 163 126 51
0.034186 0.053397 0.045196 156 150 137
-0.068680 0.009327 -0.000774 141 153 157
0.003037 -0.001365 -0.083494 16 19 18
0.065087 -0.016504 -0.015934 171 134 71
0.003035 -0.001320 -0.083494 160 166 179
0.003084 -0.001339 -0.083494 152 151 153
0.057635 0.023737 0.015476 165 129 49
-0.036254 -0.011078 0.046096 16 11 23
0.027455 -0.019287 0.086176 141 115 73
-0.027006 0.039721 0.018176 157 162 169
-0.014217 0.045541 0.016276 150 152 160
-0.060881 0.015448 -0.000034 12 18 18
0.052845 0.041023 0.030976 163 127 49
-0.066275 0.003156 0.021026 1 4 3
0.003156 -0.001380 -0.083494 173 135 56
0.003040 -0.001331 -0.083494 163 167 179
0.003052 -0.001333 -0.083494 161 166 175
0.003066 -0.001407 -0.083494 141 136 114
0.003093 -0.001403 -0.083494 130 119 94
-0.138692 0.042316 0.235636 8 11 10
0.060748 0.039123 0.003466 157 125 53
0.002989 -0.001423 -0.083494 117 141 102
0.049878 -0.021303 0.015746 169 129 46
0.002217 0.057624 0.051246 146 146 148
0.002991 -0.001342 -0.083494 43 34 29
0.036713 -0.048800 0.037276 160 124 44
-0.028424 0.030813 0.046546 180 173 165
0.054371 -0.010753 -0.003954 175 137 58
0.068551 0.036980 0.029936 164 127 52
0.052544 -0.011766 0.044756 169 127 45
0.003160 -0.001414 -0.083494 184 141 64
-0.010610 0.020375 0.043876 187 177 165
0.003163 -0.001380 -0.083494 175 136 62
-0.078529 -0.039130 0.046096 90 101 97
-0.054107 0.010584 0.011206 13 19 19
0.063579 -0.016381 0.000906 174 136 59
-0.062853 -0.023128 0.008626 16 20 15
-0.027341 0.030189 0.015216 134 136 146
0.003162 -0.001412 -0.083494 182 139 64
-0.462643 -0.233126 0.516406 108 120 126
-0.011747 0.020797 0.060616 180 171 162
0.072686 0.008910 -0.006744 134 115 90
0.003085 -0.001390 -0.083494 121 116 98
-0.040211 -0.032045 0.058426 99 100 89
0.003065 -0.001407 -0.083494 134 134 112
0.007426 0.053767 0.018456 143 143 145
0.004231 -0.054409 0.026586 74 82 30
-0.022411 -0.033974 0.057346 112 104 90
-0.038724 -0.092056 0.449976 115 114 99
-0.069099 -0.001702 -0.006424 114 124 131
0.087065 0.015257 0.003676 132 113 84
0.003058 -0.001318 -0.083494 154 159 166
0.066673 -0.016305 -0.017724 165 173 188
0.003142 -0.001410 -0.083494 178 136 52
0.022687 0.026435 0.030976 165 158 150
0.003009 -0.001349 -0.083494 14 20 18
0.056114 0.019872 0.027896 166 128 49
0.027806 0.063416 0.051246 146 147 138
0.051730 -0.027666 0.003066 175 135 50
-0.065788 -0.017310 0.000336 118 124 135
-0.001285 -0.014560 0.082406 152 145 137
-0.059088 0.035573 0.086956 11 14 13
0.049322 -0.035258 0.000146 175 135 52
-0.034247 -0.007740 0.009086 3 6 5
-0.025530 -0.052664 0.027566 97 131 111
0.022723 0.012734 0.053216 204 187 173
0.064962 -0.023880 -0.009784 184 142 71
0.003177 -0.001338 -0.083494 127 110 85
0.059303 -0.030125 0.002076 181 139 59
-0.063210 0.018706 0.013926 4 5 1
-0.237676 0.059570 0.516406 7 11 6
0.048847 -0.051038 0.034226 167 129 50
0.043628 0.074502 0.055256 145 140 122
0.048594 0.025223 0.034976 166 129 47
0.001836 0.011986 0.047916 177 174 169
0.055543 0.065730 0.054736 164 127 52
-0.012066 -0.010639 0.068236 124 122 110
0.003178 -0.001368 -0.083494 131 113 91
-0.065144 -0.007915 -0.004294 12 20 19
-0.072655 -0.020071 -0.002754 13 18 23
0.003123 -0.001412 -0.083494 167 130 48
0.043165 0.037323 0.028906 164 128 50
0.065916 -0.014843 -0.015934 148 121 86
0.003152 -0.001421 -0.083494 181 140 64
0.003079 -0.001398 -0.083494 119 117 98
0.002990 -0.001397 -0.083494 3 6 7
-0.001914 -0.014962 0.078096 151 144 136
-0.035326 -0.010648 0.045646 48 39 32
-0.060826 0.010033 0.007946 135 145 148
-0.071675 0.057688 0.056296 167 173 184
0.003181 -0.001346 -0.083494 127 109 87
0.003075 -0.001318 -0.083494 144 147 150
0.003073 -0.001329 -0.083494 152 154 160
-0.025429 -0.026131 0.059506 93 91 83
-0.097134 -0.105422 0.189036 138 141 118
0.002992 -0.001415 -0.083494 127 147 158
-0.027030 0.020232 0.046546 167 160 150
0.003090 -0.001322 -0.083494 146 146 148
0.014653 -0.038010 0.140056 117 110 93
0.002990 -0.001407 -0.083494 90 102 106
0.068176 -0.023536 -0.013384 175 138 75
0.059493 0.014035 0.010966 164 128 48
-0.037505 -0.011319 0.061176 8 9 5
0.058253 0.056189 0.057886 164 128 50
0.019165 0.050269 0.071386 157 154 149
0.104440 0.044024 0.027566 128 112 91
-0.041733 -0.040108 0.001486 164 177 186
-0.033482 -0.025737 0.051246 98 100 91
0.064722 0.070733 0.044756 158 123 52
0.014555 0.066351 0.041746 146 145 145
-0.072192 0.005439 0.006626 104 111 115
-0.064614 0.025689 -0.002754 142 141 148
0.003000 -0.001317 -0.083494 161 171 187
-0.044681 -0.027890 0.014186 168 175 181
0.003091 -0.001406 -0.083494 137 129 103
0.052854 -0.031400 0.003876 176 134 50
-0.059528 -0.149278 0.491026 116 113 97
0.011168 -0.008513 0.072686 160 151 134
-0.036060 -0.045247 0.006406 113 141 126
0.003109 -0.001340 -0.083494 160 151 134
0.003137 -0.001394 -0.083494 173 133 48
0.067251 0.022841 -0.007054 133 115 95
0.003055 -0.001423 -0.083494 133 147 100
-0.063908 0.011390 0.006626 13 16 19
-0.012837 0.049527 0.007506 148 150 158
0.004471 0.025605 0.008856 158 157 159
-0.074794 0.011683 -0.001144 63 68 75
-0.058280 0.031276 0.010486 159 158 165
0.007560 0.023840 0.021616 136 130 134
0.062348 -0.025286 0.009316 177 137 54
-0.056343 0.049212 0.007946 161 166 182
0.002990 -0.001340 -0.083494 90 80 78
0.059724 0.000270 -0.002574 172 135 62
-0.059571 0.011577 0.001486 13 19 19
0.048890 -0.009599 0.041746 170 130 47
-0.066156 -0.015410 -0.007834 13 18 27
-0.020888 0.045261 0.045646 158 160 166
0.003160 -0.001421 -0.083494 183 141 68
0.051568 -0.028154 0.002076 176 134 50
-0.000675 0.027464 0.017896 159 158 162
0.020719 -0.011081 0.083896 175 167 155
0.022738 -0.050328 0.075346 127 117 87
0.003064 -0.001325 -0.083494 152 154 162
-0.039087 0.030150 0.016536 171 176 185
0.003048 -0.001329 -0.083494 161 166 175
0.003134 -0.001405 -0.083494 175 135 52
0.068988 0.000533 -0.015434 134 115 88
0.003144 -0.001409 -0.083494 177 135 51
0.003117 -0.001387 -0.083494 175 133 51
0.048102 -0.026146 0.032766 172 130 46
0.003175 -0.001335 -0.083494 129 110 85
0.003070 -0.001340 -0.083494 159 158 165
0.066219 0.043920 0.005546 160 155 135
-0.150387 0.016440 0.185116 12 18 18
0.003083 -0.001408 -0.083494 156 149 118
0.067641 -0.006377 -0.015314 161 170 182
0.003115 -0.001332 -0.083494 156 147 128
0.045320 -0.009632 -0.007524 169 129 44
0.003135 -0.001403 -0.083494 175 135 52
0.009231 0.018769 0.038866 192 178 163
0.003112 -0.001358 -0.083494 192 172 152
-0.005067 0.026634 0.026906 169 165 166
0.027207 -0.059373 0.080946 129 115 80
0.070476 0.003043 -0.001864 169 133 65
0.003160 -0.001423 -0.083494 185 144 68
0.003058 -0.001420 -0.083494 127 148 108
0.003005 -0.001377 -0.083494 106 113 119
0.002997 -0.001319 -0.083494 161 170 191
0.003147 -0.001318 -0.083494 159 126 57
-0.110791 -0.101385 0.279026 101 103 90
-0.073674 0.004542 0.001676 103 113 116
0.003134 -0.001405 -0.083494 175 135 50
-0.062891 0.018506 0.013676 4 5 1
-0.042078 -0.023217 0.013416 135 112 91
-0.035819 -0.043628 0.010486 199 214 185
0.003180 -0.001333 -0.083494 123 105 83
-0.137520 -0.132454 0.265476 131 134 113
-0.042286 -0.096740 0.305466 114 113 96
0.034521 0.066224 0.042586 144 140 131
0.003165 -0.001316 -0.083494 126 108 86
-0.066121 -0.002083 -0.003444 64 70 70
-0.059619 -0.013066 0.002266 13 19 19
0.003088 -0.001332 -0.083494 150 150 152
0.003048 -0.001318 -0.083494 157 162 171
0.034817 -0.014164 0.083896 172 128 42
-0.058723 0.012537 0.013676 3 5 0
0.003178 -0.001337 -0.083494 125 107 85
-0.057955 0.025526 0.013166 117 115 107
0.063786 -0.014605 -0.008444 173 134 60
0.003148 -0.001402 -0.083494 180 135 54
0.058137 0.036433 0.020736 167 131 53
-0.057431 0.042195 0.003466 169 174 190
-0.062788 -0.017390 0.014186 0 11 25
-0.071653 -0.011486 -0.003954 5 11 11
-0.053007 -0.037117 0.005756 121 133 139
-0.074770 0.035780 0.004086 168 178 194
0.066874 -0.019135 -0.017724 161 171 178
0.003139 -0.001393 -0.083494 169 129 48
-0.043467 -0.046269 0.009086 116 148 137
-0.036474 0.025482 0.015746 152 152 154
0.063563 0.026567 0.003876 160 128 56
0.047668 0.068090 0.060056 127 105 81
0.003145 -0.001364 -0.083494 171 131 48
0.066812 0.032196 -0.000774 149 156 162
0.003073 -0.001352 -0.083494 189 176 165
0.049900 -0.036049 0.005126 176 134 50
0.067051 -0.002375 -0.009194 163 130 63
0.002994 -0.001321 -0.083494 164 173 194
0.071576 -0.020986 -0.002044 178 139 67
-0.013424 -0.009803 0.065806 115 116 105
0.034457 -0.035004 0.058966 189 142 48
-0.035573 0.030794 0.002266 163 170 178
0.020141 -0.057526 0.036506 105 127 100
-0.028731 0.024806 0.009546 172 171 171
0.003167 -0.001315 -0.083494 127 109 89
-0.031890 -0.013563 0.004916 0 66 72
0.003036 -0.001387 -0.083494 3 6 5
-0.051064 0.031380 0.026906 159 159 163
-0.059943 -0.042718 0.005126 65 92 87
0.071792 -0.031448 -0.010924 172 136 70
0.079816 0.032490 0.005336 136 117 92
0.003101 -0.001321 -0.083494 146 146 140
0.062974 -0.010018 0.002076 173 132 54
0.003125 -0.001423 -0.083494 165 130 47
0.036361 -0.052426 0.035356 119 96 37
0.002995 -0.001322 -0.083494 164 173 194
-0.005831 0.017702 0.051246 194 181 168
-0.007224 0.027151 0.021326 132 128 133
0.003152 -0.001365 -0.083494 166 130 52
0.003036 -0.001319 -0.083494 164 170 181
0.070645 0.042660 0.000526 133 115 93
-0.005742 0.024781 0.022816 171 165 167
-0.055360 -0.047740 0.007506 136 153 112
0.003027 -0.001361 -0.083494 11 17 15
0.062530 0.044666 0.024666 150 117 48
-0.051125 -0.037053 0.004916 168 179 188
0.003156 -0.001397 -0.083494 178 140 61
-0.011628 0.023553 0.018456 194 187 179
-0.040321 -0.037645 0.004706 166 176 183
-0.056848 0.021231 0.010726 107 83 60
-0.058848 0.035742 0.087736 14 17 16
0.003089 -0.001325 -0.083494 149 149 151
0.003112 -0.001403 -0.083494 176 136 51
0.018526 0.040623 0.031326 157 155 147
0.003081 -0.001327 -0.083494 144 147 150
0.271791 -0.165767 0.286206 183 142 66
0.036783 -0.011448 0.066406 174 132 50
0.003087 -0.001331 -0.083494 150 150 152
0.059573 -0.012442 0.000526 173 135 56
0.063961 -0.014236 -0.007214 174 135 61
0.056651 -0.030821 -0.000414 179 137 55
-0.054392 0.029964 0.010016 160 159 166
0.003078 -0.001402 -0.083494 122 120 99
0.003064 -0.001424 -0.083494 129 143 92
0.028570 0.018991 0.030626 170 159 150
0.003135 -0.001386 -0.083494 170 128 44
-0.034105 -0.047549 0.009086 135 150 105
0.061143 0.027232 0.017626 161 127 49
-0.027388 -0.014616 0.058426 6 7 3
0.065513 -0.002894 -0.011624 154 121 63
0.072269 0.031655 0.001096 133 116 89
-0.013112 -0.003612 0.051736 12 11 15
0.073663 0.008378 -0.007214 136 117 92
-0.008574 0.023103 0.021916 192 181 172
-0.065438 -0.004062 -0.003094 56 61 66
0.045916 0.017004 0.040906 174 160 145
0.003166 -0.001418 -0.083494 185 143 70
-0.036139 -0.045544 0.005336 121 141 108
-0.022280 0.075981 0.110936 154 153 160
0.003027 -0.001382 -0.083494 18 18 12
-0.067927 -0.039719 0.003266 137 154 168
-0.016836 0.026918 0.018736 168 167 169
0.032236 0.095145 0.123906 155 152 147
0.003074 -0.001401 -0.083494 120 119 104
-0.001850 -0.020420 0.076026 135 108 71
-0.113180 0.012563 0.160526 15 21 19
0.003148 -0.001421 -0.083494 177 136 60
-0.066398 -0.044350 0.001876 109 126 96
0.003100 -0.001424 -0.083494 128 132 73
0.003047 -0.001321 -0.083494 156 161 170
0.016767 0.032337 0.031326 160 153 147
-0.038448 0.028745 0.010246 174 176 186
0.064706 0.014189 0.017626 164 128 48
-0.028099 -0.014155 0.055776 93 93 97
0.053696 -0.023623 -0.011354 181 140 64
-0.058702 -0.008819 -0.002394 100 110 115
-0.067728 -0.036821 0.003676 118 129 138
0.003132 -0.001379 -0.083494 169 129 44
0.006443 0.025387 0.012666 159 158 160
0.003087 -0.001320 -0.083494 142 145 146
-0.068624 0.009242 0.002666 151 161 168
0.003182 -0.001325 -0.083494 119 106 84
0.003092 -0.001424 -0.083494 131 136 81
-0.072234 -0.045600 0.002266 126 147 107
0.003110 -0.001347 -0.083494 163 153 139
-0.056320 0.014205 0.012916 33 26 18
0.003112 -0.001345 -0.083494 162 153 136
-0.029732 0.004079 0.046996 6 6 2
0.003031 -0.001326 -0.083494 168 172 184
-0.050707 -0.035794 0.065216 90 91 80
-0.046445 0.032070 0.009086 175 180 189
0.003144 -0.001399 -0.083494 174 132 50
0.003090 -0.001424 -0.083494 131 139 83
0.061039 -0.010170 -0.006904 174 136 59
0.003172 -0.001322 -0.083494 128 112 89
0.003083 -0.001406 -0.083494 138 132 106
0.059640 -0.027518 -0.020184 183 144 72
-0.039702 -0.048040 0.097716 105 106 93
0.003125 -0.001394 -0.083494 171 131 46
0.003109 -0.001423 -0.083494 123 128 66
0.003167 -0.001397 -0.083494 176 137 65
0.003087 -0.001406 -0.083494 142 135 106
-0.062572 -0.046307 0.002866 130 147 108
-0.101235 0.041670 0.128626 11 14 13
0.061848 0.039215 0.005126 162 129 60
-0.071690 -0.009916 -0.003784 87 89 99
-0.025836 0.029799 0.017896 164 166 172
-0.067329 0.016293 -0.004294 14 17 16
0.079317 -0.023867 0.008176 178 139 67
0.003164 -0.001370 -0.083494 174 137 66
0.057337 -0.004235 0.002076 175 135 52
0.013107 0.069886 0.047916 146 145 147
0.067078 0.003112 -0.000594 174 137 62
0.003080 -0.001398 -0.083494 120 118 99
0.003075 -0.001405 -0.083494 126 124 103
-0.051023 -0.015835 0.003876 5 11 13
0.067733 0.038411 0.001096 135 139 151
-0.050499 -0.035482 0.003676 168 179 190
-0.057753 -0.043464 0.001676 113 148 138
0.013432 0.000714 0.064036 152 143 134
0.025740 -0.013875 0.086956 169 162 145
0.064104 -0.015336 -0.004294 172 137 64
-0.070126 0.009532 -0.001144 147 159 165
-0.022100 0.035641 0.007726 156 161 170
0.077248 -0.012010 0.032396 172 135 53
-0.048342 0.036289 0.042166 165 165 167
0.015791 0.011656 0.050756 186 173 162
0.003145 -0.001364 -0.083494 169 129 48
-0.033506 -0.001720 0.043446 134 127 119
0.003071 -0.001395 -0.083494 114 113 98
-0.060102 0.048243 0.028236 167 171 183
0.003050 -0.001408 -0.083494 126 129 108
0.040017 0.000380 0.028236 185 139 53
0.003121 -0.001404 -0.083494 170 130 45
0.066029 -0.008274 -0.018184 153 157 171
0.053489 -0.000359 0.007946 166 129 45
0.027370 0.070513 0.095116 156 154 146
-0.025382 0.025339 0.007946 174 173 180
-0.067170 0.011116 0.000146 22 22 26
0.047998 -0.016480 0.043016 168 126 44
0.039523 -0.049150 0.083146 197 147 54
0.003081 -0.001391 -0.083494 119 116 100
0.042926 -0.051429 0.028236 161 128 45
0.002989 -0.001348 -0.083494 13 19 19
0.051819 0.028452 0.030626 168 128 45
0.003062 -0.001333 -0.083494 156 161 168
-0.001375 -0.058629 0.032036 130 139 85
-0.097794 -0.002377 0.089326 11 17 15
-0.050109 0.037454 0.006406 169 175 188
0.003026 -0.001348 -0.083494 12 18 16
0.003126 -0.001388 -0.083494 174 132 48
0.065705 -0.011796 -0.013384 166 133 66
0.003178 -0.001355 -0.083494 135 116 89
0.063426 -0.025533 -0.018184 177 139 71
0.001631 0.016073 0.019586 192 177 165
0.064463 -0.006427 -0.006584 175 136 62
0.003047 -0.001343 -0.083494 160 159 159
-0.077051 -0.024882 0.004086 5 13 14
-0.075149 -0.197230 0.516406 125 123 102
-0.058843 0.013156 -0.006104 16 19 22
0.003181 -0.001328 -0.083494 124 108 85
0.059543 0.039429 0.004706 164 129 58
0.003058 -0.001346 -0.083494 182 175 167
0.024282 0.062320 0.104096 158 155 150
0.052437 0.023825 0.046546 166 126 45
0.003072 -0.001423 -0.083494 130 142 89
-0.050363 0.023386 -0.009634 151 150 159
0.012947 0.022635 0.038466 202 187 175
-0.034052 0.013467 0.040086 54 68 59
0.005097 -0.058802 0.027896 127 135 81
0.064707 -0.020947 -0.013784 179 142 69
0.049658 -0.009407 0.041746 172 130 46
0.060091 -0.010169 -0.000224 177 136 58
0.003065 -0.001321 -0.083494 148 153 160
0.072625 0.034675 -0.000034 132 115 90
-0.040153 -0.023446 0.014436 109 90 77
0.056999 0.003364 0.004086 168 128 47
0.067619 -0.024410 -0.017374 158 129 78
-0.013071 0.051548 0.060616 157 157 161
0.003004 -0.001409 -0.083494 104 116 120
0.064674 0.020167 -0.010924 133 115 93
0.003134 -0.001399 -0.083494 173 133 50
-0.048694 -0.017862 0.000526 18 18 12
-0.005756 -0.047309 0.024986 219 213 175
0.058919 -0.025379 0.001096 178 137 59
0.042815 0.003249 0.058426 178 136 65
0.064278 0.048512 0.073336 165 128 44
0.003096 -0.001316 -0.083494 146 146 142
-0.053514 -0.023048 0.012666 128 114 95
0.062495 0.037379 0.009546 160 127 58
0.003065 -0.001317 -0.083494 152 154 162
0.003068 -0.001325 -0.083494 150 152 158
0.003033 -0.001320 -0.083494 164 170 183
0.003138 -0.001417 -0.083494 175 134 56
0.003054 -0.001325 -0.083494 157 162 171
0.003072 -0.001335 -0.083494 155 155 159
0.066424 0.019526 0.000906 163 131 59
-0.036796 0.002428 0.023116 1 4 3
0.064556 0.018351 -0.000224 161 129 57
0.050560 0.054504 0.035356 162 127 54
0.003131 -0.001329 -0.083494 164 127 52
-0.031104 -0.015940 0.005336 7 63 64
-0.059967 0.008113 0.009786 154 160 160
0.003120 -0.001402 -0.083494 174 134 49
-0.023282 -0.061141 0.252896 117 116 101
0.033867 -0.055755 0.033486 91 102 72
0.003044 -0.001372 -0.083494 1 4 3
0.064688 -0.009877 -0.015804 124 110 91
0.003021 -0.001379 -0.083494 8 11 10
-0.061766 0.009106 0.016536 27 30 31
-0.055013 0.035208 -0.008894 167 175 192
0.057337 -0.021450 -0.001684 177 135 53
-0.059571 -0.045459 0.001486 133 150 109
-0.058843 0.019292 0.013166 62 39 20
-0.129644 -0.001656 0.151316 8 14 12
0.003127 -0.001413 -0.083494 167 129 50
0.047410 -0.001535 0.051246 180 135 52
0.066953 -0.023604 -0.017954 148 123 89
0.064500 0.041193 0.003876 156 125 55
-0.063321 -0.067791 0.146966 105 107 91
0.003099 -0.001333 -0.083494 160 157 152
0.031456 0.078252 0.109926 156 153 148
0.003024 -0.001383 -0.083494 28 28 22
0.051648 0.030875 0.052716 162 131 63
-0.063039 0.024091 -0.004634 121 121 125
0.051229 0.036996 0.043876 166 128 49
0.046594 0.046242 0.008176 155 123 49
0.054579 0.022465 0.031326 165 127 48
0.003111 -0.001342 -0.083494 158 151 134
-0.063237 0.000431 0.012666 3 7 2
0.003077 -0.001421 -0.083494 131 140 86
0.069162 0.008551 -0.007684 162 172 179
0.003104 -0.001401 -0.083494 202 151 56
0.002987 -0.001322 -0.083494 160 168 185
-0.115178 -0.015615 0.168776 6 10 5
0.012540 0.057908 0.043016 149 149 149
0.048202 0.053114 0.049326 161 127 49
0.003142 -0.001399 -0.083494 174 134 49
0.019266 0.030801 0.042586 165 160 156
0.003133 -0.001415 -0.083494 171 134 52
0.003159 -0.001392 -0.083494 175 134 58
-0.060504 0.045083 0.007286 165 173 188
0.003032 -0.001356 -0.083494 11 17 17
0.028274 -0.058865 0.078096 217 168 88
0.003167 -0.001401 -0.083494 181 142 72
-0.058418 -0.046652 0.007286 112 140 127
0.003071 -0.001399 -0.083494 116 113 97
0.032212 0.010835 0.044316 197 180 164
0.048846 0.018950 0.032396 169 127 45
-0.000805 0.033949 0.025936 155 154 158
0.059268 -0.005698 0.005126 176 136 55
-0.078024 -0.092316 0.152796 148 151 126
0.003110 -0.001341 -0.083494 160 151 134
-0.056849 -0.047481 0.006186 132 149 110
0.003042 -0.001332 -0.083494 164 171 179
0.003144 -0.001385 -0.083494 171 129 45
0.034866 0.066205 0.044756 147 143 134
-0.031961 0.031800 0.022816 167 169 177
0.065336 0.002116 -0.000034 172 135 64
0.047619 0.052551 0.055776 147 133 116
-0.067359 -0.019229 -0.006904 11 17 19
-0.019816 0.010681 0.036886 22 23 17
-0.070649 -0.042560 -0.001684 97 127 119
-0.265223 0.050366 0.516406 17 21 16
-0.047400 0.030183 0.005756 181 185 197
0.003164 -0.001393 -0.083494 174 135 61
0.105641 0.055045 0.036116 133 116 91
0.054144 0.060940 0.036506 158 123 52
-0.050728 0.026352 0.012426 35 38 37
0.065330 0.018308 -0.005944 157 162 169
-0.034026 -0.045415 0.012176 74 98 84
-0.062057 -0.040397 0.004496 142 159 171
-0.005480 0.012007 0.052226 172 169 166
0.003115 -0.001351 -0.083494 167 158 141
0.039411 -0.045500 0.023426 166 129 45
0.065941 0.006696 -0.011764 160 169 179
-0.018894 -0.011319 0.061176 119 122 121
