ply
format ascii 1.0
element vertex 1224
property float x
property float y
property float z
property uchar blue
property uchar green
property uchar red
end_header
-0.026441 -0.054224 -0.043168 251 252 249
-0.041378 -0.010640 0.015142 133 144 182
-0.018503 -0.056910 -0.002778 177 140 109
-0.061348 -0.046396 -0.035498 127 113 101
-0.038586 0.035741 -0.013838 116 99 84
0.055448 0.003597 0.014422 45 53 55
-0.026845 -0.055000 -0.039148 127 64 25
0.075686 0.031337 -0.021208 182 175 165
-0.027349 0.062579 0.005022 82 72 56
-0.045026 -0.038897 -0.017628 192 165 147
-0.006559 -0.044114 -0.015758 63 30 7
-0.032703 -0.056738 -0.041658 167 123 101
0.007029 -0.024013 0.040912 144 150 157
-0.040934 0.036167 -0.024588 89 75 44
-0.045874 0.022116 0.018812 147 124 120
-0.086104 0.028181 0.007602 101 106 102
-0.039001 -0.063708 -0.049078 159 87 27
-0.052878 0.041307 -0.024998 77 49 20
-0.276242 -0.014850 0.255922 130 129 126
-0.044640 0.043653 -0.030478 102 55 9
-0.043696 -0.044420 0.093852 71 73 78
-0.078952 0.011824 -0.029348 119 114 104
-0.014373 -0.077071 -0.031598 154 65 0
0.061949 0.090799 0.058822 60 66 66
0.088041 0.012614 -0.047188 20 30 18
0.065346 0.047567 -0.021208 7 12 8
-0.037919 -0.067772 -0.050648 244 185 0
-0.036351 0.012881 -0.014328 189 148 124
-0.031619 -0.026020 -0.022918 170 148 126
0.039664 0.004272 -0.002208 125 133 135
-0.015709 -0.028364 -0.009308 194 162 116
0.078809 0.009104 -0.033398 23 30 21
-0.036185 -0.056952 -0.028968 87 84 74
0.066510 0.042691 -0.020328 162 156 149
-0.045135 -0.064408 -0.051668 233 213 65
-0.049195 -0.022626 -0.043758 93 72 42
-0.083797 0.043429 -0.040728 108 109 106
0.082113 0.028594 -0.033758 189 182 172
0.111527 0.005785 -0.034108 53 76 73
0.080807 0.011465 -0.049078 13 22 13
-0.025191 -0.060729 -0.034808 138 67 0
0.101221 0.039159 -0.050898 27 137 179
-0.038818 -0.034517 -0.024178 99 101 106
0.015188 0.016433 0.107142 24 31 61
0.114508 -0.000162 -0.025818 92 45 0
0.040980 -0.034095 -0.004468 161 168 172
-0.081948 0.051077 -0.004468 98 99 96
-0.085219 0.033437 -0.042268 118 119 116
-0.006174 -0.051413 -0.046628 150 82 3
-0.114846 0.050527 -0.012368 119 121 115
-0.070028 0.011390 -0.031958 119 118 110
-0.046072 -0.011547 -0.027808 109 109 109
-0.088410 -0.066627 -0.024588 117 117 117
0.060596 0.000392 0.022652 35 38 41
0.032640 0.053069 0.067222 131 146 152
0.004068 0.076243 0.034412 95 49 0
-0.004660 -0.043024 -0.018088 211 167 125
0.048610 -0.013518 0.065982 137 144 148
-0.090156 0.005456 -0.033048 103 82 45
0.026279 0.055912 0.080462 124 139 145
0.076526 0.011108 -0.030858 14 22 10
-0.042324 0.024437 -0.020768 79 67 63
0.086177 0.014893 -0.046348 12 43 48
0.057997 0.092264 0.042862 61 67 67
0.023018 0.028206 0.107142 129 146 153
-0.009398 0.031276 0.020322 105 84 54
0.100340 0.025529 -0.055538 54 132 168
0.024568 -0.051426 0.121972 159 167 174
0.056251 0.028976 0.000722 10 15 11
0.067326 0.008505 -0.028578 73 34 0
-0.014831 -0.039138 -0.003348 53 31 17
0.063859 0.056012 -0.001628 9 15 8
-0.036647 -0.055535 0.003152 214 172 137
0.067468 0.004147 -0.007738 83 38 0
0.001570 0.010749 0.001322 92 60 30
-0.041959 -0.051980 0.012312 249 211 164
-0.055202 0.013539 -0.031958 120 119 111
0.069900 0.039300 -0.017168 174 166 159
0.075453 0.028773 -0.038498 182 175 165
-0.020456 -0.041763 -0.006118 137 123 119
-0.086159 0.059865 -0.009828 78 78 72
-0.089362 -0.010142 -0.029348 133 118 103
-0.095832 0.028241 -0.030478 134 131 121
0.109495 0.042039 -0.027808 7 64 86
0.088113 -0.002029 0.010262 47 53 52
-0.042624 0.005863 -0.039788 134 103 82
-0.028282 0.067210 0.003152 124 109 89
-0.042712 0.036831 -0.032318 106 55 0
-0.178827 -0.028733 0.116212 128 127 124
-0.022284 -0.059200 -0.030858 130 54 0
0.067517 0.009698 -0.032318 75 35 0
0.061425 0.090000 0.090742 49 60 59
-0.049636 -0.050368 0.001932 248 228 175
-0.021857 -0.019972 0.016592 217 181 161
0.054512 0.031748 -0.009828 12 17 13
-0.024909 0.066222 0.005662 92 76 64
-0.022912 -0.069754 -0.033048 210 145 104
-0.003150 0.037141 0.013712 87 74 47
-0.026736 -0.055725 -0.039468 123 58 43
-0.059842 -0.063880 -0.040728 131 120 109
-0.043707 -0.003453 -0.036518 102 66 27
-0.043204 -0.002149 -0.042268 124 65 0
0.094978 0.049429 -0.028198 0 66 81
-0.097705 0.057795 0.004392 83 83 77
0.064579 0.063790 0.074972 104 113 112
0.008325 0.108238 0.087712 60 69 67
0.095925 0.015940 -0.055998 18 20 14
-0.037881 0.020458 -0.021638 142 125 122
-0.042680 0.023774 -0.025818 76 68 61
0.001073 0.046334 0.005662 45 31 14
-0.075210 -0.050091 -0.030478 112 118 117
-0.014553 0.045401 0.015142 121 56 0
-0.004763 -0.010179 -0.003908 96 77 61
-0.095738 0.012871 -0.017168 112 92 73
0.050911 0.025587 -0.028198 14 20 13
0.028257 -0.008785 0.103692 131 137 144
0.052571 0.092322 0.061152 64 70 70
-0.014803 0.055454 0.015142 110 92 73
-0.032123 0.057014 -0.002778 71 64 66
-0.119670 -0.092926 0.030032 107 113 112
0.096066 0.011112 -0.056458 47 53 46
-0.069648 -0.060842 0.009582 192 169 131
-0.019328 0.012481 0.016592 159 101 59
0.089242 0.010055 -0.032318 12 19 15
0.065280 0.003321 -0.017628 81 33 0
0.096922 0.023383 -0.027018 13 84 99
0.304562 -0.014850 0.255922 188 188 188
-0.022795 -0.066212 -0.035838 139 58 25
0.001923 -0.043697 -0.014808 184 149 113
0.139797 -0.083866 0.008922 173 173 174
0.046743 -0.029131 -0.020768 167 174 178
0.008486 -0.049942 -0.015288 157 165 167
-0.013166 -0.029902 -0.006658 110 72 25
0.056108 0.040888 0.005662 15 16 13
0.004990 0.062449 0.031762 72 51 26
0.085716 0.001072 -0.014808 80 76 64
0.101240 0.052953 -0.013348 6 71 91
-0.046209 0.049246 -0.009308 241 236 185
0.089350 -0.000231 0.001932 71 103 74
-0.094062 0.045646 -0.039148 21 17 113
-0.091340 -0.066114 -0.003348 104 110 109
-0.038642 0.025510 -0.014808 89 73 63
0.054717 0.057918 0.057672 102 111 110
0.081888 0.027633 -0.026618 193 181 172
-0.090175 -0.002715 -0.037518 126 110 84
-0.090724 0.014757 -0.037848 96 52 0
-0.091446 0.009078 0.009582 109 111 105
0.121840 0.000135 -0.033048 50 50 51
-0.081319 0.028194 -0.040728 119 120 117
-0.033628 0.020154 0.018062 190 159 145
0.082757 0.009621 -0.042868 29 33 47
0.100004 0.025889 -0.051408 50 106 125
-0.017575 0.065645 0.009582 82 70 48
0.063009 0.003835 0.068472 139 146 150
-0.053005 -0.044928 -0.018538 132 117 102
0.107358 0.006907 -0.035498 42 161 202
0.088507 0.016662 -0.047188 20 79 89
0.023207 0.083796 0.058822 54 63 61
-0.096566 0.057495 0.003772 92 91 88
0.056567 0.003379 -0.000468 67 34 11
-0.057563 -0.056294 -0.041968 101 78 53
0.052095 0.007152 -0.001048 61 44 23
-0.044886 -0.063191 -0.054118 231 212 61
-0.053348 -0.007761 -0.038828 93 67 38
-0.077504 0.039060 0.000722 63 64 56
-0.042890 0.047184 -0.032318 108 59 11
-0.077738 -0.007330 -0.011358 113 118 114
-0.019185 0.047382 0.014422 77 100 90
-0.081843 0.048320 -0.028198 94 98 97
-0.042202 0.000723 -0.041658 122 63 0
-0.054445 -0.038850 -0.014328 210 173 157
0.042948 0.024105 0.053212 114 123 127
-0.032928 0.007366 -0.020768 180 120 58
0.072188 0.004512 0.006302 76 40 0
-0.292493 -0.110641 0.224822 126 125 122
-0.045368 -0.005193 -0.031228 52 67 73
0.076724 0.001728 -0.011358 89 54 13
0.143571 -0.056134 0.008252 190 188 188
-0.083415 0.018815 0.004392 107 108 100
0.075098 0.026459 -0.024588 154 147 137
-0.006092 -0.010845 -0.003908 71 59 42
-0.031059 -0.024676 -0.019888 197 144 88
-0.039963 -0.041368 -0.003348 118 110 160
0.052189 0.028685 -0.022068 13 19 12
-0.041925 -0.020427 -0.046348 133 72 1
-0.017067 0.053333 0.013712 116 92 72
-0.012482 -0.062133 -0.027408 134 60 0
-0.033736 -0.031229 -0.022918 94 97 100
-0.067788 0.022512 -0.027408 109 109 103
0.055264 0.049811 0.004392 13 13 13
0.096422 0.010780 -0.057578 57 59 53
0.365243 -0.007402 0.255922 184 183 180
-0.047002 0.045581 -0.027408 84 54 22
-0.032836 -0.022550 -0.030108 136 98 85
-0.061165 -0.064771 -0.039468 110 100 91
-0.015864 0.015980 0.020322 145 99 69
-0.030410 -0.073484 -0.041658 164 80 2
-0.004807 -0.046525 -0.018538 213 164 116
0.075594 0.009091 -0.038828 18 27 18
-0.007865 -0.042945 -0.019438 137 64 0
-0.021043 -0.000226 0.013712 149 131 121
-0.141721 -0.084273 0.041882 118 119 116
0.078874 0.002842 0.039012 29 39 34
0.026846 -0.080829 0.029182 142 150 152
0.088999 0.012391 -0.065858 26 29 21
-0.074756 -0.006306 -0.031598 125 121 114
0.089957 0.009720 -0.054838 42 49 40
0.060010 0.051736 0.089222 110 119 118
-0.019686 -0.026852 -0.006658 173 121 69
0.084723 0.028226 -0.035148 15 31 43
0.096748 0.031821 -0.046068 21 59 79
-0.025087 -0.008444 -0.000468 102 127 165
-0.058183 0.049302 -0.018538 99 76 46
-0.017185 -0.072274 -0.036178 155 69 0
-0.009716 -0.054180 -0.018988 127 90 54
-0.024452 0.061678 0.008922 56 51 41
-0.052001 -0.016935 0.018062 245 201 171
-0.032846 0.062078 -0.003348 90 88 82
0.068894 0.040510 -0.017168 124 118 116
-0.044400 -0.009663 -0.044928 115 66 11
0.037005 0.093659 0.045852 64 70 69
0.072207 0.039541 -0.020328 168 162 155
-0.006536 -0.015509 -0.003908 115 113 107
-0.051186 -0.056879 -0.049338 105 82 64
0.065521 0.040470 -0.007198 11 17 17
-0.022846 -0.056752 -0.023338 95 93 81
0.097713 0.030364 -0.055298 29 141 181
0.082234 0.012959 -0.040728 24 28 27
0.107138 0.005600 -0.029348 224 221 218
-0.041339 0.002691 -0.040728 120 63 0
-0.041629 -0.055122 0.015142 248 202 153
-0.042534 0.032011 -0.032318 110 57 1
-0.079392 0.040638 -0.047188 104 109 105
-0.036573 -0.061365 -0.046068 162 95 48
-0.001620 -0.066090 -0.018538 126 59 0
-0.044633 0.016793 -0.040098 46 37 26
-0.051913 0.044709 -0.025408 75 48 17
-0.040971 -0.009923 -0.021208 193 175 165
0.061576 0.087378 0.040912 58 66 68
-0.021233 -0.053426 0.005022 255 223 174
-0.042939 0.049244 -0.028198 102 55 2
0.131026 -0.024348 0.035312 187 193 192
0.111380 0.001567 -0.022918 153 164 163
0.065594 0.003299 -0.024178 81 33 0
-0.038233 -0.066166 -0.047188 165 92 35
-0.021546 0.036748 -0.006118 106 89 61
0.023317 -0.021358 0.077682 129 135 142
-0.061901 -0.058340 -0.036518 101 77 55
-0.018230 -0.070400 -0.030478 162 144 134
-0.082568 0.063108 0.003772 97 98 95
-0.089408 0.007254 -0.035498 113 95 63
-0.082508 0.035147 -0.030858 114 115 112
0.049095 0.061243 0.093852 98 106 108
-0.089371 0.004499 -0.041658 119 100 70
0.068710 0.080869 0.080462 98 104 103
-0.056771 -0.030230 -0.007738 149 135 113
-0.108292 0.007711 0.034412 111 113 107
-0.040573 -0.048747 -0.044638 147 113 81
-0.081586 0.029898 -0.034458 115 116 113
-0.024273 -0.068350 -0.037188 107 81 66
-0.101782 0.014002 0.016592 116 117 109
0.069620 0.003563 -0.022498 92 44 0
0.117908 -0.005387 -0.035148 172 170 164
-0.033061 -0.064421 -0.043168 144 79 40
-0.023435 0.011254 0.010942 199 143 103
-0.122857 -0.073953 0.008922 124 123 120
-0.084609 0.013204 -0.028198 110 101 90
0.009156 0.054629 0.071032 112 125 131
-0.038577 -0.007911 -0.020328 134 148 165
0.070544 -0.012130 0.039012 157 164 168
-0.086701 -0.004367 -0.020328 127 122 112
-0.024809 -0.065684 -0.038178 138 89 60
-0.125705 -0.097688 0.037142 106 112 111
0.077062 0.023268 -0.026218 190 182 175
-0.088789 -0.021927 -0.004468 124 125 122
-0.029513 -0.065593 -0.036848 143 70 1
0.083496 0.024257 -0.038828 12 20 13
-0.090651 0.012743 -0.027808 85 47 0
-0.100081 0.029012 0.003152 113 112 104
-0.037037 0.003052 -0.018088 55 54 51
-0.052005 -0.013132 0.003772 249 201 157
-0.048194 0.025389 -0.034808 77 47 15
-0.055602 -0.028097 -0.012368 157 134 109
0.116458 0.000826 -0.031958 47 58 7
-0.014752 0.024078 0.005662 54 37 34
0.046686 -0.010084 0.016592 140 148 150
-0.048842 0.024690 -0.037188 78 51 18
-0.040375 -0.050850 0.015142 243 190 154
-0.080290 -0.065491 -0.018538 77 63 51
-0.022721 0.055769 0.015862 137 128 115
0.033406 -0.023179 -0.105398 181 187 187
-0.382124 -0.127813 0.255922 169 167 161
-0.027950 -0.065509 -0.042568 255 255 236
-0.013807 -0.020671 0.005662 174 138 118
0.062979 0.002409 0.021872 141 147 147
-0.091876 -0.005449 -0.016698 129 122 112
-0.040736 -0.057313 -0.059328 218 202 56
-0.017832 -0.053395 -0.001628 224 173 132
0.095209 0.024815 -0.055538 60 85 102
-0.080439 0.030786 -0.036518 115 116 113
-0.091956 0.005733 -0.017628 136 129 119
0.038305 0.095307 0.055422 64 73 71
-0.093441 -0.007573 -0.034108 131 114 86
-0.065746 0.009436 -0.021208 130 116 99
0.122685 -0.054625 -0.030478 186 183 180
-0.019562 -0.062952 -0.032318 142 63 0
0.024211 0.034279 0.100322 72 81 85
-0.079979 0.053991 -0.013348 99 99 93
0.045169 0.066366 0.100322 95 103 105
-0.038458 0.010206 -0.039788 125 121 107
-0.081207 0.038107 -0.033398 91 95 94
0.099921 0.008971 -0.042868 154 169 170
-0.018919 -0.001662 0.011622 92 88 81
-0.083100 0.047842 -0.030108 109 109 109
-0.036449 0.001115 -0.012858 101 86 71
0.060920 -0.000541 0.021092 38 37 41
0.038117 0.008713 0.033522 118 125 129
-0.082046 0.041754 -0.043468 107 108 105
-0.042399 -0.058067 -0.050128 150 82 30
-0.037705 0.024112 -0.002778 153 111 84
-0.033578 0.006025 -0.019438 239 219 187
-0.015931 -0.056672 -0.016698 82 79 69
-0.086054 -0.031884 0.001932 93 69 47
-0.030647 0.059779 -0.005578 87 76 70
0.025267 -0.066420 0.105402 151 159 166
-0.001660 0.066718 0.004392 90 45 0
0.102423 -0.027520 -0.018988 189 189 190
0.074359 0.022780 -0.024178 147 137 128
0.083368 0.053190 -0.023758 6 13 9
0.066938 0.017931 -0.025818 87 49 2
-0.001438 0.024105 0.007602 31 22 4
-0.080746 0.026789 -0.031958 114 113 110
-0.016205 0.019052 0.013012 252 198 151
-0.031899 0.053053 0.020322 165 140 115
-0.046219 -0.059366 -0.061818 102 82 68
-0.036435 -0.001693 -0.009828 107 93 81
-0.047362 -0.054139 -0.051668 112 91 75
-0.038972 0.035930 -0.013348 113 98 83
-0.004101 -0.049423 -0.021208 42 35 25
0.007274 0.053445 0.062342 96 100 105
0.090668 0.015751 -0.064368 13 19 12
0.059755 0.093172 0.097042 60 71 70
0.069827 0.023953 -0.008788 5 6 0
0.085395 -0.001144 0.051052 118 127 126
0.063796 0.004281 -0.027408 81 38 0
0.103567 -0.028167 -0.016228 190 190 190
-0.034815 -0.002607 -0.008268 119 107 98
-0.036241 0.025909 -0.012858 117 99 89
-0.005460 -0.067064 -0.018088 131 57 0
0.010231 -0.094910 0.035312 134 144 146
-0.043908 -0.056158 -0.055298 209 190 73
-0.003150 -0.083501 -0.015288 188 152 0
-0.051322 -0.013049 -0.046348 91 67 40
-0.089451 0.012010 -0.030108 74 46 4
-0.080820 0.032011 -0.032318 115 116 113
-0.049354 -0.011561 -0.011868 244 227 224
-0.030067 0.031495 0.008252 101 72 85
-0.038218 -0.067973 -0.048808 237 183 9
-0.095787 -0.064884 -0.024178 141 140 137
-0.005216 0.045072 0.022652 145 114 74
0.089259 0.019669 -0.034108 16 84 94
0.003435 0.014371 0.005662 112 65 5
-0.036316 0.001404 -0.013838 104 90 78
0.053973 0.027848 0.003152 110 119 117
-0.053731 -0.036607 -0.045498 98 74 47
-0.020907 -0.017906 0.013012 255 226 194
0.007574 -0.027315 -0.000468 153 154 151
0.089549 0.016509 -0.050898 22 77 85
-0.034778 0.012563 -0.023758 177 170 171
0.138123 -0.038507 -0.001628 185 186 183
-0.036219 -0.023872 -0.029348 243 149 61
0.087135 0.054899 -0.020328 4 11 7
-0.080172 0.027732 -0.036848 118 119 116
0.029182 0.044089 0.090742 78 82 87
-0.030370 0.059014 -0.001048 85 76 71
-0.014749 0.057356 0.011622 99 77 55
-0.037819 0.010482 -0.031228 157 148 130
-0.025988 -0.065275 -0.041658 166 97 50
0.087586 0.033730 -0.046348 7 64 86
0.075460 -0.030367 0.255922 138 145 149
0.048235 0.077512 0.090742 105 114 113
-0.043138 -0.001862 -0.040098 125 64 0
0.094232 0.007630 -0.027408 60 69 67
-0.081220 0.034836 -0.041038 114 119 115
0.062861 0.000121 0.092292 136 143 147
-0.003112 0.010679 0.007602 61 38 13
0.026151 0.105263 0.073642 47 60 59
-0.095540 0.028704 -0.006658 114 110 103
-0.067440 0.034590 -0.011358 91 71 44
-0.094647 0.014091 0.013012 116 117 109
-0.091419 -0.006845 -0.031598 116 97 67
-0.018697 0.013371 0.017322 143 87 40
0.081446 0.024003 -0.040418 15 21 14
-0.038221 0.061659 -0.007738 70 91 93
-0.043917 -0.023211 -0.044638 135 72 0
0.068950 0.026741 -0.010858 7 12 8
-0.088564 0.008471 -0.033048 103 84 47
-0.100533 0.045100 0.003772 88 88 82
0.013622 -0.016532 0.107142 144 150 157
-0.057464 -0.021091 -0.034458 98 74 47
-0.099637 0.023218 -0.030858 103 78 33
-0.106802 0.064871 0.029182 95 97 91
0.039265 -0.010683 0.105402 126 133 137
0.077249 0.023832 -0.026218 185 179 167
-0.042976 0.046605 -0.029348 103 55 5
-0.070446 -0.059727 -0.024178 97 71 49
-0.045350 -0.025605 -0.044638 136 72 2
-0.055783 0.025761 -0.026618 71 49 17
0.068365 0.010025 0.081882 139 138 142
0.078936 0.044121 -0.026218 188 180 173
-0.043549 -0.050761 -0.042868 80 71 53
0.016557 -0.091342 0.048942 135 145 147
0.097723 0.005766 -0.022068 183 190 194
0.056296 -0.001653 0.076322 131 140 144
0.094645 0.033499 -0.051408 102 106 95
-0.042949 0.023635 -0.022068 120 99 88
-0.092450 -0.050942 -0.008788 116 121 117
-0.027642 -0.030505 -0.020768 101 99 93
0.055698 0.089135 0.046872 64 70 70
0.097385 0.038163 -0.052658 29 138 174
0.028663 0.048743 0.098672 123 136 142
0.154874 -0.051186 0.064752 187 191 190
-0.002736 -0.083057 -0.021208 185 151 0
0.018419 -0.045143 0.076322 156 164 171
0.026562 -0.087289 0.035312 140 150 152
0.091389 0.003185 -0.018538 164 182 194
-0.088423 -0.014697 -0.040728 109 92 69
-0.081996 0.025714 -0.031958 135 136 133
0.054439 0.091644 0.084762 61 70 69
0.084214 0.007803 -0.024588 14 20 13
0.161096 -0.044954 0.040912 194 192 192
-0.078303 -0.005965 -0.029728 127 121 114
0.089095 0.017782 -0.054838 2 64 80
0.028533 -0.111340 0.132152 140 149 153
-0.038719 -0.055964 -0.049338 93 31 0
0.060125 0.003014 0.015862 135 143 145
0.018069 -0.088310 0.048942 138 147 151
-0.087662 0.012706 -0.042268 94 51 0
-0.171242 -0.039058 0.108912 125 126 123
0.114365 -0.000591 -0.034458 184 183 175
0.077506 0.032821 -0.022918 179 171 164
0.067502 0.016047 -0.025818 86 43 0
0.069837 0.004944 -0.031958 86 46 0
0.083881 0.000656 0.037142 10 10 11
0.084127 0.027505 -0.031958 185 171 167
0.058053 0.010863 -0.008788 71 34 0
-0.049537 -0.063841 -0.053398 107 86 70
-0.036521 -0.028711 -0.028578 108 102 100
-0.074494 -0.051816 -0.031958 115 120 116
-0.043826 0.010233 -0.041038 154 136 131
-0.042089 0.039978 -0.024998 89 61 37
0.094981 -0.003635 0.018062 154 158 157
0.048837 0.100539 0.079062 68 74 74
0.096431 0.037229 -0.051408 98 113 114
0.095456 0.008040 -0.041968 61 65 70
0.095902 0.031885 -0.050128 88 90 84
-0.066545 0.050778 -0.008788 62 45 24
0.097774 0.034245 -0.055538 34 136 178
-0.281042 -0.049067 0.162572 151 151 145
0.081206 0.044226 -0.029348 7 11 16
-0.033655 -0.026171 -0.025818 109 97 88
-0.052912 -0.045986 0.003152 247 203 159
0.047627 0.033536 0.162572 116 123 127
0.084096 0.027039 -0.038178 10 42 52
0.111595 -0.061643 -0.013348 188 186 186
-0.034977 0.028059 0.000722 183 138 112
0.078561 0.033225 -0.026218 183 176 166
-0.031162 0.039826 -0.008268 120 88 56
-0.039045 -0.056393 -0.045498 143 76 34
-0.033409 -0.068857 -0.044638 251 191 151
-0.084967 -0.019096 -0.002208 124 127 119
-0.082308 0.013777 -0.026618 120 117 107
-0.043012 -0.049362 -0.050388 150 78 0
0.021369 -0.093129 0.080462 143 150 154
-0.092920 0.076330 0.029182 90 94 93
-0.007265 0.011589 0.017322 170 133 102
-0.063122 0.005421 -0.026218 134 118 101
-0.037304 -0.037866 -0.018988 227 201 191
0.046175 -0.054802 0.022652 159 167 169
0.100019 0.000969 -0.012368 48 80 44
0.073182 -0.007145 0.040912 148 157 161
0.069208 0.050337 0.018062 10 15 11
0.091920 0.036515 -0.052168 81 80 77
-0.029117 -0.065050 -0.036518 152 74 0
0.100997 0.004762 -0.019888 155 167 177
-0.063400 -0.063877 -0.036848 106 97 92
0.101316 0.028639 -0.038828 0 11 20
-0.025115 0.065942 0.002532 148 122 100
0.000547 0.051612 0.010262 34 25 7
-0.004297 -0.077386 -0.021208 190 154 0
-0.030473 0.066718 0.004392 85 73 64
-0.081155 0.035565 -0.039148 117 118 115
-0.094232 -0.000209 -0.018538 127 121 109
0.053273 0.041599 0.005662 101 110 109
-0.091960 0.009333 -0.041348 130 104 68
0.093116 0.000885 -0.011358 4 14 9
-0.055705 0.042663 -0.022498 70 47 17
-0.046782 -0.016825 -0.044928 85 65 46
-0.037105 0.021223 -0.018988 134 111 102
-0.024841 -0.051859 0.009582 120 102 90
-0.101778 0.028314 -0.002208 96 92 85
-0.005691 -0.050830 -0.022498 41 34 24
-0.089146 -0.010526 -0.033398 105 86 56
-0.087173 -0.060880 -0.016228 114 118 117
-0.352403 -0.053953 0.255922 150 145 140
0.002628 -0.048265 -0.012858 182 146 112
-0.015395 0.047240 0.017322 96 50 1
-0.085870 0.018419 -0.042268 106 84 36
0.106704 0.033887 -0.050648 27 95 117
0.015791 -0.022160 0.081882 143 151 158
-0.089413 0.001827 -0.036848 116 92 56
-0.041705 -0.057069 -0.002208 255 255 242
0.095380 0.010316 -0.031958 36 43 34
-0.010926 -0.073663 -0.027808 142 60 0
-0.004513 -0.082120 -0.017628 190 154 0
-0.096498 0.012876 -0.016228 117 97 78
-0.045457 0.015885 -0.039788 69 58 38
0.035759 -0.072398 0.181852 149 157 164
-0.040953 0.037132 -0.024998 182 111 8
0.003924 0.039414 0.010942 96 48 0
-0.031953 -0.054314 -0.022498 207 175 138
-0.024383 0.063210 -0.006118 181 146 110
-0.011600 0.016215 0.013712 127 83 55
-0.039533 -0.057114 -0.048008 147 105 78
0.029435 0.093524 0.080462 52 61 59
0.063483 0.069188 0.003772 6 15 6
0.022001 -0.103879 0.043852 122 132 134
-0.043387 -0.022031 -0.042868 137 74 1
-0.038359 -0.018124 -0.033758 248 231 184
0.036447 -0.155189 0.190872 130 141 140
-0.003300 0.067657 0.004392 96 49 3
-0.042556 -0.061430 0.008252 218 182 138
-0.301600 -0.135870 0.187812 187 184 181
-0.012259 -0.076614 -0.028578 147 61 0
0.100378 -0.001964 0.000722 74 106 75
-0.042028 -0.000607 -0.023338 57 56 53
-0.050003 -0.047179 -0.026218 255 210 155
-0.108388 0.024325 0.001322 101 95 83
-0.046325 -0.056690 -0.050898 67 44 26
-0.086570 0.028210 -0.039468 131 130 127
0.088244 0.033668 -0.035838 6 63 80
-0.001389 -0.051408 -0.016698 106 111 107
0.093369 0.033626 -0.051158 84 85 77
-0.044957 -0.008468 0.008252 255 255 220
0.089986 0.001498 -0.016228 37 113 133
0.086246 0.042115 -0.039468 4 67 85
0.078199 0.003223 -0.028198 78 79 66
0.055135 0.027382 0.003152 17 11 9
0.058945 0.088082 0.062342 57 66 65
-0.013664 0.049698 0.010942 32 39 35
-0.030618 -0.070699 -0.041968 161 78 29
-0.013608 -0.026575 -0.010348 110 61 6
-0.090783 0.021556 -0.036848 100 84 53
0.069902 0.007289 -0.028198 74 33 0
-0.037174 -0.005049 -0.014328 237 193 163
0.035463 -0.052456 -0.004468 158 165 169
-0.037655 0.053193 -0.005578 148 116 99
-0.037524 0.024086 0.012312 94 77 83
-0.040309 0.059273 -0.006118 76 100 100
0.065346 0.047958 -0.021208 1 7 6
-0.031726 -0.059657 -0.001048 246 226 178
-0.031451 -0.059785 0.019562 220 172 140
-0.046622 -0.056577 -0.053638 99 131 129
0.027883 0.053207 0.069742 127 142 148
0.052811 0.006886 0.003152 22 22 16
-0.006562 -0.061702 -0.032318 134 58 0
0.063322 0.041122 -0.006118 10 15 11
-0.043254 -0.050310 -0.043758 80 72 51
-0.015806 0.011475 0.015142 255 197 149
0.012192 0.105226 0.072332 50 58 60
0.101726 0.000133 -0.008788 45 77 41
0.023200 -0.022514 0.081882 137 143 150
-0.044031 -0.043692 -0.049078 142 76 0
-0.050540 -0.017094 0.001322 248 226 180
0.098796 0.053588 -0.021638 6 52 68
-0.028167 0.003217 -0.005028 181 154 136
-0.021133 0.030167 0.000132 48 31 55
-0.097705 0.058499 0.004392 84 84 78
0.007386 -0.052212 -0.020328 158 162 162
-0.047127 0.007841 -0.039148 79 64 44
-0.009229 0.032506 0.003152 255 254 227
0.112054 0.002251 -0.018088 76 122 131
0.103861 0.029412 -0.053398 27 101 133
-0.026421 -0.026615 -0.015288 255 255 249
-0.039930 0.016161 -0.036518 177 170 171
-0.039960 -0.008729 0.013012 179 149 146
0.060395 0.009701 -0.019888 75 39 0
0.114181 0.005876 -0.041348 62 80 85
-0.043636 -0.015854 -0.040098 124 72 27
0.039945 0.031771 0.077682 107 116 120
-0.102025 -0.088575 -0.003908 161 158 155
-0.060768 0.052823 -0.014808 72 49 24
0.009015 -0.037581 -0.007738 155 161 168
0.099561 0.000011 -0.009828 56 85 50
-0.003292 -0.073293 -0.026618 187 153 0
-0.045828 -0.010602 -0.044638 105 81 59
0.261913 -0.065020 0.112512 186 183 180
-0.048871 -0.051229 -0.050648 98 77 52
0.067688 0.034437 -0.016698 181 175 168
-0.052402 -0.047969 -0.046628 97 75 48
0.011273 0.041942 0.107142 103 113 115
0.022339 0.089549 0.127992 28 38 40
-0.091041 -0.014588 -0.033048 107 86 56
-0.094200 0.005889 -0.038828 120 100 73
-0.034576 0.010518 -0.021638 195 159 139
0.043722 0.090211 0.084762 58 67 66
-0.036296 -0.064648 0.020322 196 165 130
0.002552 0.018068 0.000132 99 49 0
0.013799 -0.073846 0.121972 153 162 166
0.053731 0.060617 0.090742 101 110 109
-0.049526 -0.012891 -0.022498 245 254 253
-0.007723 0.004310 0.010262 67 33 15
0.071473 0.038721 -0.018538 184 179 169
-0.081760 0.018803 0.001322 103 105 99
0.001113 0.035936 0.005022 43 31 14
0.005214 -0.025975 -0.009828 146 76 9
-0.069458 0.035563 -0.009308 88 69 46
-0.008400 -0.071491 -0.030858 141 61 0
-0.083509 0.033928 -0.034458 113 118 114
0.094329 0.029227 -0.042568 10 18 11
0.065441 0.003261 0.013712 57 60 52
-0.000200 -0.083448 -0.021208 160 97 0
-0.127254 -0.074448 0.010942 126 127 124
-0.067696 -0.049239 -0.028968 123 108 93
0.055752 0.063996 0.073642 103 112 111
0.007285 -0.047470 -0.016228 162 166 165
-0.037280 -0.068881 -0.045218 163 89 29
-0.130205 -0.091965 0.018812 186 179 180
-0.029191 -0.052399 -0.031228 110 104 92
0.082736 0.016488 -0.051408 18 83 94
-0.055859 -0.047595 0.001932 250 219 166
0.058516 0.017176 -0.009308 86 52 1
-0.048864 -0.010089 -0.044058 93 67 38
0.003543 -0.061883 -0.006118 156 162 162
0.115328 -0.003622 -0.039468 59 76 38
-0.034129 -0.022072 0.011622 251 197 164
-0.096162 -0.002587 0.012312 114 115 112
-0.084561 0.025934 -0.037518 167 161 159
0.114059 -0.003528 -0.040098 70 70 39
-0.256904 -0.107040 0.160002 131 131 125
0.206875 -0.008360 0.118112 180 185 181
0.022083 0.094306 0.121972 37 50 49
-0.065835 0.062335 -0.006118 65 46 25
0.073769 0.063494 0.086232 105 114 112
0.012350 0.050826 0.093852 110 123 129
-0.018404 0.029988 0.002532 55 41 29
-0.089118 -0.001153 -0.039788 128 110 84
-0.003558 -0.068154 -0.015288 137 65 5
-0.030517 0.003640 -0.008268 183 152 131
0.031347 0.014831 0.103692 119 127 134
-0.084355 0.036913 -0.024178 117 118 115
-0.041521 -0.026617 -0.024998 113 106 101
-0.081342 0.013696 -0.025408 117 114 104
0.094682 0.027836 -0.039148 10 17 13
-0.091063 -0.007451 -0.034808 125 109 78
0.111702 -0.001949 -0.034108 197 203 202
0.036339 0.102326 0.062342 62 71 70
0.078922 0.003731 0.044842 30 40 35
-0.014384 -0.068154 -0.028968 133 58 14
-0.069746 0.017538 -0.013838 76 52 32
-0.038500 0.022388 -0.005028 184 144 122
-0.089414 -0.014365 -0.040728 112 95 72
-0.037315 0.008163 -0.029348 184 177 178
-0.087344 -0.062418 -0.017628 113 117 116
-0.042055 -0.020924 -0.045788 136 73 0
-0.091437 0.041956 -0.038178 90 95 91
-0.031723 0.003544 -0.013348 177 148 127
-0.023121 0.055835 0.016592 124 121 111
-0.037285 -0.003823 -0.009828 129 105 90
-0.016457 0.068396 0.000722 116 91 58
0.061422 0.043450 0.065982 110 119 118
-0.014465 -0.070165 -0.028578 157 110 84
0.094020 0.002647 -0.015288 140 187 206
-0.010683 -0.010859 0.001932 92 82 73
-0.022781 -0.075488 -0.029728 156 70 0
-0.102238 -0.090192 -0.003348 181 180 177
-0.065807 -0.031260 -0.025818 96 72 45
0.068095 0.039487 -0.015758 116 112 112
-0.094757 -0.007315 -0.033048 130 114 88
0.097349 -0.022904 -0.007198 184 188 188
-0.030580 -0.058070 -0.039468 142 85 22
-0.033744 -0.050395 0.016592 148 130 120
-0.041400 -0.009164 0.014422 190 165 166
-0.046300 -0.001700 -0.042568 75 56 40
-0.079865 -0.073290 -0.024588 109 113 112
0.067209 0.043481 0.005022 8 14 7
-0.038940 0.064699 -0.005028 67 93 94
0.020820 -0.003206 0.092292 143 150 159
-0.008285 0.071035 0.015142 138 118 84
0.056103 0.100370 0.061152 64 70 70
-0.093346 0.022521 -0.009308 117 113 106
-0.027580 -0.028980 -0.016228 98 94 94
0.093859 0.028829 -0.049868 12 19 15
0.063874 0.033266 -0.010348 7 13 6
-0.037332 0.038457 -0.003908 110 90 76
0.060249 0.056713 0.081882 96 106 108
0.066172 -0.030367 0.255922 131 138 142
-0.024025 -0.016917 0.013712 156 151 128
0.096130 0.031966 -0.049338 88 90 79
-0.032747 -0.058672 -0.050128 147 75 13
-0.006605 0.021441 0.015862 140 109 81
-0.044848 -0.013922 -0.043168 130 68 0
0.115152 0.005037 -0.033398 125 120 71
0.037157 -0.030639 0.061152 143 150 154
0.013230 -0.038289 0.048942 151 157 164
-0.042987 -0.000030 -0.023338 49 52 55
-0.025807 -0.058537 -0.047188 145 69 0
-0.047759 -0.009370 -0.042868 92 69 39
-0.016310 -0.052698 -0.006118 221 173 131
0.030330 -0.105130 0.039012 126 135 134
-0.089291 -0.014206 -0.041038 117 100 77
-0.022504 -0.061575 -0.027408 78 30 0
-0.043765 -0.025101 -0.044928 138 73 0
0.015944 0.092645 0.073642 52 62 64
0.086694 0.015170 -0.041658 0 30 33
0.060601 0.008040 0.093852 129 136 140
0.096269 0.006246 -0.025818 211 223 231
-0.010528 -0.060285 -0.025818 153 84 3
-0.032365 -0.045122 0.058822 57 56 53
-0.041481 -0.052114 -0.049868 251 252 230
-0.093986 -0.083738 -0.009308 140 140 140
0.035370 0.094233 0.062342 52 61 60
0.145732 -0.042171 0.008252 188 187 184
-0.045034 -0.063361 -0.054358 227 207 59
0.025418 -0.090269 0.054312 141 150 154
-0.001800 0.066564 0.012312 60 49 29
-0.004130 0.009347 0.008252 130 105 72
-0.040163 -0.052059 -0.040418 89 84 67
0.001605 -0.078810 -0.024588 160 95 0
0.002334 -0.051839 -0.018088 34 41 32
0.081578 0.010887 -0.051158 20 29 20
-0.029383 -0.028041 -0.017628 103 97 90
-0.009461 -0.003363 0.003152 58 54 47
-0.087939 -0.005383 -0.041968 136 119 96
-0.041706 0.019518 -0.037848 143 146 138
0.076594 -0.013801 0.105402 150 157 161
0.120688 0.004714 -0.035148 69 114 133
0.051738 0.079227 0.087712 117 123 122
0.103557 0.034627 -0.052658 26 83 105
0.058707 0.089098 0.105402 99 105 105
0.068890 0.039709 -0.017628 125 118 113
0.066117 0.085377 0.101992 100 109 108
0.005558 0.072629 0.081882 68 77 76
-0.065122 -0.038839 -0.026618 96 71 46
-0.045368 0.037508 -0.031228 99 53 11
-0.085192 0.024198 -0.036178 137 132 127
-0.036229 -0.055490 -0.045788 251 227 225
0.093327 0.020755 -0.054598 96 92 78
-0.034934 0.005943 -0.025408 246 239 207
0.003925 -0.011659 0.046872 142 146 151
0.030512 0.092605 0.123952 36 49 48
-0.048211 -0.029558 -0.044928 104 83 67
-0.105106 0.049214 -0.006118 112 113 110
-0.081912 0.026258 -0.033398 133 130 127
-0.025190 -0.070754 -0.037518 255 220 206
-0.011925 0.068262 0.002532 112 90 56
0.038673 0.089703 0.110702 37 48 47
-0.129969 -0.094601 0.017322 195 187 185
0.065223 0.029885 -0.024588 185 177 170
-0.040779 0.023008 0.010942 153 122 108
-0.031479 -0.068587 -0.042268 255 255 244
-0.052775 -0.016020 -0.040098 94 70 43
-0.040439 -0.065928 -0.050128 241 184 0
0.098806 -0.042225 0.074972 171 180 184
0.041379 0.091694 0.051052 59 68 67
-0.043823 0.058003 -0.017628 62 80 77
0.063513 0.027316 -0.012368 15 21 14
-0.053537 -0.039255 -0.023338 125 134 125
-0.054585 -0.036777 -0.044638 98 73 48
-0.045020 -0.008843 -0.031958 44 78 96
-0.015439 -0.053612 0.000132 229 171 129
-0.021633 -0.011158 0.006952 112 111 103
0.059606 0.009504 -0.019888 78 42 0
-0.013238 -0.062254 -0.020328 152 83 2
0.101667 -0.037825 -0.033048 190 188 188
-0.015605 0.036980 0.020322 109 82 49
-0.094487 0.029402 -0.007198 115 110 105
-0.100973 -0.084368 -0.006658 135 135 136
0.091542 0.011353 -0.045498 13 14 11
-0.045156 -0.063374 -0.053158 230 211 60
-0.030291 -0.061532 -0.041968 148 72 0
0.117644 -0.002640 -0.001628 53 87 58
0.047625 0.011838 0.065982 123 130 134
0.025781 -0.009811 0.145412 142 150 157
-0.047208 -0.000555 -0.022918 30 44 52
0.020207 0.107439 0.095442 51 59 61
-0.001235 -0.059203 -0.013838 74 45 19
0.019402 0.100681 0.093852 49 60 59
0.066589 0.072358 0.028332 10 17 13
0.054734 0.006878 -0.002778 70 31 0
-0.038672 0.067187 0.004392 69 89 89
0.077608 0.012012 -0.030858 11 22 14
0.018051 -0.092214 0.021092 120 130 132
-0.036770 0.055453 0.021092 116 100 83
-0.091217 -0.042059 -0.004468 121 122 119
0.000758 -0.083893 -0.012858 157 99 0
0.062824 0.042744 -0.016228 170 168 162
0.086234 0.013591 -0.056228 17 24 15
-0.082796 0.041623 -0.037188 97 45 0
-0.006481 0.065823 0.012312 113 73 17
0.039892 0.024958 0.062342 112 121 125
-0.030912 0.053220 0.022652 103 90 75
-0.030805 0.036272 -0.005028 170 128 93
-0.083199 0.014910 0.002532 104 106 100
0.083530 -0.000860 0.046872 36 46 48
-0.044673 -0.023124 -0.032688 212 135 78
-0.083802 0.062108 0.005022 97 98 95
0.067687 0.036648 -0.009828 33 36 28
0.017243 0.057521 0.083312 119 131 139
-0.040017 -0.051626 -0.040728 89 84 67
0.061065 0.084037 0.039012 52 62 57
-0.040365 0.053003 0.003152 156 128 113
-0.042907 -0.011611 -0.013348 255 255 237
-0.046896 -0.010566 0.017322 120 119 139
0.096453 0.048505 -0.028198 1 63 84
-0.040146 -0.052498 -0.040098 93 89 70
-0.087006 0.048505 -0.028198 98 98 99
-0.048653 0.029243 -0.038178 86 72 48
-0.035388 -0.032034 -0.024178 93 97 97
-0.014669 0.058362 0.009582 84 70 53
0.176500 -0.064096 0.030892 187 184 181
-0.033662 -0.020173 0.014422 241 210 189
0.059865 0.006940 -0.017628 84 44 4
0.023520 0.102073 0.087712 47 56 55
0.094966 0.025392 -0.041968 11 86 97
-0.041851 0.050327 -0.028578 103 54 6
-0.001453 -0.048274 -0.020328 169 118 29
-0.033614 -0.025448 -0.025408 222 201 171
-0.041208 0.035154 -0.034458 109 58 2
-0.085421 0.013383 -0.000468 113 113 107
-0.040140 0.051973 -0.007198 137 113 86
-0.256574 -0.073881 0.150122 143 140 137
-0.055632 -0.046231 -0.041658 108 97 86
0.074881 0.025616 -0.031228 176 165 159
-0.025666 -0.030455 -0.019438 81 83 88
-0.094598 -0.007830 -0.037518 139 125 103
-0.066987 -0.043958 -0.059958 127 126 123
-0.081856 0.048498 -0.031228 112 112 112
0.118223 -0.060605 -0.013348 179 183 182
-0.083440 0.032369 -0.043168 115 120 116
0.061912 0.059116 0.072332 103 112 111
-0.090395 0.022355 -0.036518 115 113 101
-0.084732 0.017317 -0.043168 94 70 21
0.056607 0.020025 -0.003908 23 12 1
-0.035810 0.056965 -0.007198 74 84 79
-0.041494 -0.050962 -0.050128 79 76 66
-0.046945 -0.030230 -0.043468 137 74 1
0.042959 0.053319 0.134272 97 104 108
-0.073770 0.037331 -0.003348 66 50 33
0.054037 0.027919 0.005022 111 120 119
-0.029723 0.005927 -0.008788 255 255 236
0.094874 0.045966 -0.027018 4 73 93
0.100175 0.025809 -0.042568 2 49 61
0.100876 -0.028679 0.014422 183 187 187
0.122695 -0.007155 -0.020768 179 176 173
-0.012499 0.013495 0.016592 179 124 93
0.054222 0.025636 -0.004468 7 12 8
0.054543 0.011045 -0.005578 84 47 11
0.096354 0.031787 -0.049078 21 22 14
0.006302 -0.052897 -0.017168 122 87 71
0.112034 0.001765 -0.015758 125 134 118
0.060746 0.003875 -0.015288 74 33 0
-0.039342 -0.053766 -0.047458 207 194 145
-0.089450 0.067294 0.021872 90 94 93
-0.039974 -0.064307 -0.052168 235 182 0
-0.089825 -0.012894 -0.041348 139 122 99
-0.043285 -0.055704 -0.049608 185 139 102
-0.045538 -0.032493 -0.047458 129 70 4
-0.042781 0.004587 -0.039468 122 62 0
-0.083362 -0.080762 -0.020328 169 167 167
0.094579 0.018305 -0.052168 38 56 54
-0.049854 -0.022986 -0.043168 96 73 43
0.011424 -0.089386 0.051052 138 147 151
-0.017853 -0.069129 -0.019888 141 62 0
0.047982 0.019203 0.228592 123 131 138
-0.076296 0.046192 -0.030478 109 108 105
-0.023728 -0.069513 -0.036178 118 86 74
0.116584 0.001092 -0.033758 48 93 98
0.077691 0.028550 -0.066048 1 61 82
-0.065231 -0.027835 -0.022068 99 75 48
0.106751 0.008177 -0.039148 30 147 179
-0.022751 -0.063000 -0.034808 142 65 0
0.016284 0.046590 0.087712 115 128 134
0.015403 0.103680 0.064752 64 70 70
0.089709 0.014298 -0.048808 17 25 18
-0.000817 0.020245 0.002532 36 21 6
0.049812 -0.027429 -0.012858 166 172 179
0.002391 -0.065527 -0.012368 176 140 94
0.066144 0.027237 -0.005028 3 10 6
0.057424 0.035220 0.018812 108 117 116
-0.030557 0.021532 0.013012 245 194 160
0.061610 0.082603 0.071032 48 57 56
-0.255487 -0.079102 0.160002 133 132 129
-0.075981 -0.069025 -0.022498 138 124 112
-0.018387 -0.028785 -0.004468 190 126 74
0.057951 0.046492 0.010262 10 15 11
-0.012570 0.004911 0.000722 110 79 60
-0.002693 0.065066 0.017322 84 70 46
-0.012005 -0.023211 0.009582 228 179 145
-0.000717 0.044556 0.010942 35 23 6
-0.119067 -0.071844 0.002532 128 127 124
-0.047408 -0.037124 -0.046068 104 67 26
0.099375 0.005733 -0.017628 136 137 145
0.073716 0.023771 -0.021638 93 71 64
-0.088537 -0.086119 -0.015758 189 187 187
-0.048593 0.031981 -0.031958 77 47 15
0.013456 -0.003460 0.043852 138 146 153
-0.085429 0.025192 -0.013838 108 107 99
-0.043940 -0.059400 -0.045498 150 82 30
-0.040096 -0.017178 0.015862 255 255 249
0.088992 -0.002090 0.009582 79 102 84
0.106660 0.000536 -0.007198 50 85 46
0.004083 -0.031180 -0.012858 162 122 66
0.061580 0.063028 0.017322 12 19 15
-0.015787 0.045693 0.016592 105 50 0
0.063299 -0.000682 0.019562 32 38 37
-0.089408 0.012467 -0.024998 113 95 69
-0.009391 -0.071612 -0.027018 134 58 0
-0.093119 -0.003128 -0.030478 120 103 75
-0.098990 0.019224 -0.032688 111 90 53
0.065451 0.003745 -0.002778 96 57 12
-0.083725 0.045203 -0.032688 94 98 97
0.102143 0.030953 -0.054118 50 116 145
-0.044318 0.038975 -0.032688 92 53 8
0.069811 0.002576 0.025852 25 36 34
0.082069 0.031735 -0.035498 54 56 68
0.048715 -0.014048 0.047902 139 146 150
0.030424 -0.009358 0.097042 128 134 141
0.171003 -0.044262 0.030892 190 187 184
-0.023911 0.034910 0.001322 193 147 119
0.063939 0.084425 0.054312 53 64 63
0.381961 -0.230845 0.255922 167 165 165
-0.043776 0.050816 -0.005028 108 100 84
-0.080247 0.027629 -0.033048 116 115 112
0.094563 0.033626 -0.051158 102 105 92
-0.060581 0.026743 -0.022068 115 96 75
-0.015859 -0.014317 0.002532 143 126 111
0.074540 0.040723 -0.020768 189 181 174
0.006888 0.086135 0.033522 72 72 61
-0.000137 0.043553 0.009582 41 28 13
-0.081959 0.055714 -0.008788 93 94 91
0.054311 0.006837 0.074972 128 137 141
-0.079923 0.045191 -0.027808 117 115 115
0.067894 0.056840 -0.013838 1 8 4
0.003530 0.054888 0.014422 94 46 0
-0.007239 -0.072928 -0.028968 141 60 0
-0.015440 -0.001608 0.006952 122 117 112
0.047924 0.066177 0.114352 96 104 106
-0.081176 0.044328 -0.032318 110 110 110
-0.043848 -0.017442 0.017322 255 254 247
-0.036104 0.005578 -0.008268 131 115 98
0.061098 0.086686 0.038072 50 55 58
-0.022615 0.006342 -0.003348 254 255 249
-0.024114 -0.066252 -0.033758 255 255 231
0.026781 -0.021705 0.077682 130 136 143
0.090761 0.029039 -0.037848 2 19 26
-0.074298 -0.021481 -0.015758 95 69 47
0.022795 0.047128 0.110702 62 69 73
-0.027510 -0.023366 -0.006658 230 209 184
-0.052749 -0.046603 -0.048548 99 74 49
-0.091121 0.003736 -0.033758 117 95 61
-0.044563 -0.062215 -0.045218 155 82 25
0.066932 0.011611 -0.024588 87 47 0
0.060712 0.004997 -0.025408 78 38 0
-0.045146 0.005955 -0.027408 43 49 42
-0.086209 0.013916 -0.037188 107 82 35
0.039084 0.024404 0.061152 112 121 125
-0.044713 -0.064210 -0.052658 231 211 63
0.069849 0.030484 -0.020328 159 151 149
0.057330 0.071460 0.020322 11 18 14
-0.036534 0.005794 -0.008268 118 99 83
0.023991 0.099404 0.061152 48 60 62
0.069169 0.002265 0.013712 50 60 55
0.071798 0.004224 0.000722 99 61 14
0.068311 0.036308 -0.012368 179 174 169
0.116034 0.003622 -0.033398 129 134 109
-0.012936 -0.046109 -0.009308 119 95 68
-0.042215 0.001156 -0.037848 103 67 33
0.099202 -0.000926 -0.006658 53 89 53
-0.070092 -0.065922 -0.039148 107 111 110
0.047525 0.071062 0.086232 100 105 108
0.041970 0.054568 0.087712 127 140 146
0.019014 0.095040 0.130052 34 49 50
-0.006789 0.028514 0.022652 111 87 60
-0.029290 -0.036375 0.018062 77 79 84
-0.081232 -0.014115 -0.036178 140 134 127
0.094485 0.001452 -0.011868 4 26 31
-0.055228 -0.041163 -0.008268 222 194 170
-0.042376 -0.021262 -0.041968 140 92 35
-0.016921 -0.060850 -0.025818 150 80 1
-0.032107 0.024373 0.009582 90 66 85
0.088208 0.008448 -0.053638 40 48 41
-0.047838 -0.028284 -0.017168 134 126 119
-0.056731 -0.037843 -0.016698 171 143 119
0.178423 -0.037100 0.030892 185 184 181
-0.099846 0.081979 0.036222 97 98 95
-0.026844 -0.024794 -0.018088 255 255 236
-0.089449 -0.000752 -0.033048 115 96 66
-0.026960 -0.055442 -0.039788 128 90 70
-0.036498 -0.006007 0.001932 230 177 148
0.022065 0.099082 0.061152 51 63 65
-0.045672 -0.024918 -0.045218 131 72 1
-0.038052 0.035008 -0.001048 66 62 73
-0.081580 0.044946 -0.029728 104 104 104
-0.037804 -0.053596 -0.045788 240 234 220
-0.040090 -0.018807 -0.041968 245 230 202
-0.080961 0.028849 -0.029348 112 113 110
0.125283 -0.058821 -0.006118 187 187 187
-0.020913 -0.028296 -0.005028 196 137 79
0.059005 0.015441 -0.010348 82 48 0
-0.020921 0.014043 0.021092 141 83 43
-0.007940 -0.079908 -0.021638 191 130 18
-0.024735 -0.035604 -0.022068 84 86 91
-0.093576 0.003115 -0.020328 126 115 102
-0.039406 0.054922 0.003772 96 78 68
-0.045861 -0.054573 -0.022918 241 213 157
-0.030751 -0.058563 0.018812 239 181 141
0.115798 -0.000487 -0.025408 42 22 17
0.100403 0.009444 -0.057358 56 61 57
-0.041383 -0.000755 -0.041658 126 65 0
-0.089155 0.014338 -0.037518 114 87 40
-0.094769 0.016302 0.002532 120 119 111
-0.042862 0.037518 -0.031598 103 51 0
-0.004553 0.041389 0.021092 123 105 73
-0.088689 0.013567 -0.037848 105 65 9
-0.050540 -0.015386 0.021092 136 148 177
0.080228 0.025217 -0.028198 203 189 185
0.099950 0.034177 -0.054598 52 118 147
0.020857 -0.106390 0.084762 132 144 146
-0.089707 0.001836 -0.037848 121 99 67
0.002320 0.072074 0.008922 122 61 2
0.040617 0.087228 0.103692 34 42 44
-0.032738 -0.023394 0.019562 255 255 239
-0.067584 -0.074523 -0.035498 106 88 76
-0.040685 0.005862 -0.043758 180 186 179
-0.003293 0.015581 0.006952 87 66 41
-0.012246 0.048229 0.016592 108 58 13
-0.081423 0.030829 -0.038828 112 112 112
-0.015922 0.063341 0.015862 64 55 42
0.074845 0.048364 0.098672 114 120 120
0.098752 0.012834 -0.050648 38 45 41
-0.050491 -0.012991 -0.000468 237 198 155
-0.082095 0.039929 -0.038828 108 90 78
0.113067 -0.001200 -0.033758 135 122 121
0.035376 0.075456 0.105402 73 84 83
-0.004986 -0.060908 -0.009828 79 51 22
0.037558 -0.114355 0.132152 144 151 155
0.053448 0.009508 -0.005578 78 41 5
0.143656 -0.056062 0.008922 191 189 189
-0.018423 -0.059436 -0.026618 154 82 20
0.110186 0.000650 -0.009828 58 92 49
-0.087126 -0.002585 -0.022068 127 122 112
0.080521 0.021432 -0.021638 6 42 48
0.101429 0.009307 -0.055298 56 61 57
-0.047430 -0.050597 0.022652 240 194 152
-0.036274 0.055327 0.016592 205 162 124
-0.007930 -0.031698 -0.018988 124 51 0
-0.030204 0.057602 0.011622 170 137 109
0.081662 0.036984 -0.052658 0 61 79
0.015614 0.080674 0.108912 32 43 42
-0.103542 0.013013 0.024242 116 115 112
-0.006039 -0.081317 -0.027018 140 58 0
-0.017107 0.019401 0.006952 161 119 92
0.050216 0.010200 -0.000468 20 26 19
0.013711 -0.057493 0.000132 150 159 163
-0.018230 -0.070014 -0.029728 172 123 109
0.083251 0.023526 -0.030478 4 21 22
-0.025809 0.029756 0.002532 79 54 102
-0.047243 -0.055060 -0.047728 154 82 2
-0.095403 0.043686 -0.036848 91 96 92
-0.070637 -0.058963 -0.024178 96 72 50
-0.351784 -0.194225 0.255922 188 182 180
0.071212 0.043863 -0.020768 182 177 172
0.072046 -0.080647 0.112512 160 167 171
-0.037874 0.053193 -0.005578 150 115 99
0.000153 -0.040852 -0.015758 176 144 112
-0.082366 0.042974 0.001932 95 100 96
-0.084738 -0.039520 -0.010348 116 122 121
0.064759 0.063907 -0.001628 12 18 11
-0.019422 -0.001287 0.013012 106 100 88
0.084076 0.009982 -0.047728 26 35 26
0.047940 0.066844 0.108912 93 103 105
-0.091878 -0.007736 -0.028968 105 88 51
0.100126 0.054995 -0.019438 0 16 32
-0.091298 -0.002951 0.002532 117 119 113
0.065218 0.045840 -0.002208 7 13 6
-0.083778 -0.063547 -0.013838 112 117 113
0.056777 0.010942 -0.006118 73 35 1
0.086981 0.028922 -0.035148 10 49 59
-0.067201 0.003646 -0.019438 122 106 94
-0.053528 -0.039691 -0.019888 131 143 138
-0.089335 -0.035042 0.001322 117 119 113
0.083909 -0.001440 0.055422 131 140 144
-0.049229 0.045394 -0.027408 75 48 17
0.100731 0.040761 -0.034458 8 65 87
0.004622 0.075045 0.018812 109 57 5
0.063905 0.003585 -0.018538 78 33 0
-0.055057 -0.046403 -0.046628 96 71 46
-0.024289 -0.055674 -0.033758 188 150 137
0.090981 0.029040 -0.043758 12 63 78
0.063145 0.039075 -0.000468 10 16 9
-0.013651 0.004208 -0.001048 190 125 52
-0.131880 -0.075242 0.016592 127 126 123
0.075312 0.024117 -0.024178 154 146 139
-0.035097 -0.068021 -0.046908 166 91 27
0.025615 -0.036106 0.092292 148 156 163
-0.017114 0.024788 0.005662 82 69 63
0.022080 0.027136 0.112512 133 150 157
0.071966 0.040921 -0.021638 175 169 162
0.015596 -0.090255 0.046872 137 147 149
-0.041131 -0.059104 -0.020328 94 94 83
0.034909 0.093288 0.061152 51 60 59
-0.089701 -0.010873 -0.040418 130 117 90
0.086051 -0.015608 -0.071828 182 179 176
-0.035332 0.025514 -0.009308 161 124 95
0.072559 0.009662 -0.030858 18 22 11
0.065958 0.043065 -0.007738 103 104 101
0.094116 0.052574 -0.026218 12 25 24
0.019319 0.058835 0.081882 126 139 145
-0.005131 -0.049146 -0.020768 64 37 6
-0.079819 0.027765 -0.032688 113 112 109
0.028574 0.015869 0.162572 131 138 147
-0.025308 -0.063357 -0.045498 154 78 4
-0.030304 0.061129 -0.000468 85 76 71
-0.072861 -0.013237 -0.020768 118 123 119
0.059220 0.100721 0.063542 68 74 74
0.025787 0.085676 0.089222 45 54 53
-0.013190 -0.060810 -0.021638 154 85 4
-0.063685 -0.033109 -0.033758 94 67 41
0.094602 -0.038874 0.065982 171 180 184
0.001146 -0.002522 -0.002778 95 56 32
-0.039162 0.013227 -0.037848 134 131 121
-0.008591 -0.042533 -0.018538 133 65 0
-0.086330 0.003713 -0.044058 122 101 71
-0.011197 0.060393 0.014422 65 61 49
0.087655 0.024944 -0.044348 10 15 11
0.031789 -0.010526 0.095442 130 136 143
0.201033 -0.044975 0.086232 192 191 188
-0.054211 0.023312 -0.027808 73 47 25
-0.017009 0.002770 0.003772 155 124 103
0.103396 0.032163 -0.036518 10 16 9
0.092768 0.019428 -0.058678 71 85 88
-0.092358 0.011321 -0.024178 79 38 0
-0.011361 -0.027253 -0.009828 255 255 220
-0.087596 0.032334 -0.040728 119 124 120
-0.009684 0.065082 0.012312 134 122 98
0.018260 0.043272 0.081882 113 126 132
0.046977 0.055286 0.255922 110 119 123
-0.027120 -0.057671 -0.037848 161 90 39
-0.045128 -0.047690 -0.050898 150 81 0
-0.359876 -0.035599 0.248662 156 152 145
0.114858 -0.001773 -0.034108 118 111 113
-0.038918 -0.006862 -0.019438 45 79 116
0.099506 0.006438 -0.027808 199 203 208
-0.007043 -0.049668 -0.022498 140 81 15
-0.028796 0.051757 0.020322 147 115 85
-0.052589 -0.016851 -0.040418 100 73 47
-0.043888 -0.056117 -0.049338 117 84 70
0.101911 0.013615 -0.054358 44 49 45
-0.107222 -0.083775 -0.008788 193 186 187
-0.088126 0.017434 0.008922 111 111 105
-0.078602 0.053987 0.003772 90 94 93
0.036309 -0.006163 0.092292 126 133 137
-0.028055 0.030749 0.005022 93 64 97
0.028298 0.053497 0.074972 125 139 147
-0.037044 -0.057685 -0.052418 155 83 23
0.079387 -0.002482 0.098672 143 150 154
-0.061643 0.025876 -0.022918 95 73 46
-0.101361 0.001460 0.010942 122 121 113
-0.040026 -0.060119 -0.052908 156 86 28
0.116491 0.006048 -0.037188 63 150 173
-0.044356 -0.015659 0.017322 189 187 204
-0.184286 -0.043296 0.127992 124 124 124
-0.036187 -0.069426 -0.046908 167 91 23
-0.007693 0.022622 0.016592 132 103 77
0.088903 0.004100 -0.020328 89 157 174
-0.034188 -0.040068 -0.010858 116 111 151
-0.016180 0.005062 -0.004468 229 191 157
0.065316 0.070304 0.022652 10 17 13
-0.005887 -0.047505 -0.019438 74 38 4
0.182567 -0.068852 0.039012 189 182 183
-0.044896 -0.024059 -0.046068 133 69 0
0.064644 0.066907 0.048942 98 107 105
-0.035899 -0.034953 -0.021208 98 100 110
-0.085149 0.053749 0.009582 95 99 98
0.005816 -0.032486 -0.008788 67 30 14
-0.092352 0.015935 -0.035498 106 85 42
-0.024281 -0.063758 -0.035498 144 68 0
0.046259 0.056079 0.154982 101 108 112
-0.088224 0.021615 -0.038178 111 108 98
-0.003411 -0.050689 -0.049608 150 81 0
0.187205 -0.063329 0.095442 190 188 188
0.080164 0.033818 -0.035498 105 110 113
-0.013444 0.043879 0.014422 165 85 17
0.023001 0.054759 0.084762 122 136 144
-0.041212 0.016869 -0.038178 173 174 171
-0.075300 -0.052063 -0.029348 113 118 114
-0.037366 0.003577 -0.019888 79 68 55
-0.016795 0.067125 0.001322 116 77 32
0.080663 0.017177 -0.025818 12 76 92
-0.049613 -0.034024 -0.045788 96 72 45
-0.049234 0.053493 -0.007198 71 73 62
-0.038476 -0.013689 0.013012 151 165 202
-0.083770 0.056237 -0.001628 97 98 95
-0.037741 -0.056708 -0.010348 248 229 179
-0.034341 -0.014237 0.008922 227 201 199
0.065898 0.053209 -0.002778 16 23 14
0.025069 -0.056133 0.101992 152 160 167
0.076589 0.032769 -0.024998 183 176 166
-0.049360 0.000245 -0.021208 44 57 63
-0.010951 -0.076850 -0.026618 145 61 0
-0.031390 0.029235 -0.010348 64 51 45
-0.020815 -0.028343 -0.004468 199 141 81
0.012522 -0.045377 -0.030478 153 160 164
-0.008375 0.031654 0.005662 134 85 12
-0.051122 -0.052076 0.023442 250 214 168
-0.085752 0.025507 -0.024588 137 133 126
0.033179 -0.023011 -0.105198 181 187 187
-0.020975 0.067083 0.003772 147 115 83
-0.023327 -0.018180 0.015142 223 188 160
-0.023410 0.002545 0.000132 87 82 86
-0.046300 -0.005770 -0.042568 99 78 53
0.098728 0.007015 -0.034108 142 153 157
-0.091227 -0.063521 -0.016228 116 121 117
