ply
format ascii 1.0
element vertex 1203
property float x
property float y
property float z
property uchar red
property uchar green
property uchar blue
end_header
-0.003395 -0.003973 -0.038734 149 155 155
0.022422 0.019073 0.005576 125 113 95
-0.060504 0.018448 0.024366 1 4 3
-0.003352 -0.004006 -0.038734 165 165 165
-0.003416 -0.003966 -0.038734 140 147 153
-0.003311 -0.003998 -0.038734 160 160 156
0.037430 -0.008208 0.016666 130 126 119
-0.000956 0.014433 0.013046 53 86 42
0.029193 -0.014165 0.032036 137 137 133
-0.003415 -0.004008 -0.038734 146 156 163
-0.021079 0.009012 0.030976 135 133 125
0.053815 -0.023443 0.020826 150 150 150
-0.026884 -0.031314 0.021026 165 168 169
-0.017074 0.019851 0.006276 128 114 95
0.023834 0.019933 0.003946 153 156 157
-0.023022 0.010129 0.025786 140 137 132
0.012479 0.011031 0.018276 99 87 67
-0.003365 -0.003969 -0.038734 152 152 152
0.002336 0.012445 0.015696 78 69 48
0.050423 -0.011490 0.021116 90 80 78
0.018712 0.020834 0.004956 113 101 83
-0.008081 0.005442 0.031506 153 151 143
0.027793 -0.005098 0.044906 158 158 158
-0.003369 -0.003970 -0.038734 152 156 151
-0.026462 0.019517 0.008386 126 114 98
0.043013 0.014197 0.015936 149 155 155
-0.003238 -0.003980 -0.038734 148 148 142
-0.003252 -0.003945 -0.038734 157 162 167
-0.046035 0.022298 0.019166 130 118 71
-0.007279 0.014111 0.007166 42 62 29
-0.003237 -0.004007 -0.038734 146 147 143
0.010327 0.019874 0.006716 106 97 76
-0.003395 -0.003956 -0.038734 155 161 163
-0.003326 -0.004012 -0.038734 172 172 168
0.015692 0.018648 0.008086 120 108 90
-0.023837 0.012788 0.018896 126 108 86
-0.006395 -0.004356 0.051606 166 162 155
-0.003415 -0.003968 -0.038734 142 148 150
0.027226 -0.022730 0.037706 134 134 130
-0.013837 0.008164 0.018806 130 112 90
0.026194 0.011026 0.017926 128 112 91
-0.003364 -0.003992 -0.038734 159 162 161
-0.003354 -0.003975 -0.038734 155 152 147
0.004976 0.018170 0.009236 95 87 61
0.000769 0.005225 0.028346 134 115 90
-0.003236 -0.003974 -0.038734 133 131 123
-0.003394 -0.004021 -0.038734 155 161 163
-0.016601 0.020858 0.005846 129 115 96
-0.003261 -0.003944 -0.038734 156 159 160
0.016620 -0.015953 0.035716 80 79 64
0.012029 0.013083 0.014296 113 100 78
0.019037 0.016738 0.008326 115 103 85
-0.003415 -0.003930 -0.038734 0 6 6
-0.003383 -0.003992 -0.038734 157 160 159
-0.003392 -0.003958 -0.038734 149 155 157
-0.003316 -0.004022 -0.038734 168 168 168
-0.003395 -0.004002 -0.038734 152 160 161
-0.008886 0.019759 0.006496 107 91 68
0.005703 0.002882 0.030716 143 123 101
-0.013581 -0.000025 0.036316 77 42 25
0.016851 0.017394 0.006496 116 107 88
0.029490 -0.006129 0.025786 122 122 124
-0.003418 -0.004000 -0.038734 145 150 157
-0.030056 0.017769 0.011916 148 148 144
-0.053395 0.022106 0.027506 9 12 11
-0.020755 0.012087 0.015616 137 121 100
-0.003291 -0.004017 -0.038734 164 167 168
0.020510 -0.006614 0.040296 74 65 70
-0.038204 0.023865 0.012826 1 4 3
0.037927 -0.005561 0.013626 150 150 144
-0.003232 -0.004022 -0.038734 146 153 159
-0.003404 -0.003989 -0.038734 145 150 157
0.048276 -0.011135 0.023626 149 147 139
-0.038005 0.014256 0.021406 132 132 134
0.010031 0.013141 0.013476 110 97 75
-0.003359 -0.003973 -0.038734 160 160 156
-0.012450 0.008405 0.019526 118 100 78
0.005907 0.001354 0.033136 154 145 124
-0.019197 0.013767 0.015136 134 121 99
0.030349 -0.005410 0.029326 165 165 159
-0.003366 -0.003985 -0.038734 159 159 159
0.021375 0.019047 0.005526 121 109 91
0.029220 -0.013378 0.020266 85 85 79
0.009808 0.012923 0.013546 109 96 74
-0.003310 -0.004015 -0.038734 167 167 167
-0.003344 -0.003985 -0.038734 165 162 157
-0.003413 -0.003957 -0.038734 100 100 104
-0.003393 -0.003964 -0.038734 146 151 156
0.057520 -0.028832 0.026576 143 146 145
0.040208 -0.011695 0.018536 160 165 170
-0.003357 -0.003987 -0.038734 161 162 156
0.018193 -0.026620 0.039796 153 153 147
-0.003395 -0.003954 -0.038734 162 168 170
-0.003248 -0.003965 -0.038734 157 155 147
-0.003378 -0.003968 -0.038734 147 150 149
0.054816 0.001944 0.020266 72 63 70
-0.048567 0.012077 0.027276 27 31 26
0.023420 0.017679 0.008806 115 98 80
0.029014 -0.003941 0.046436 159 159 159
-0.057234 0.009584 0.027986 158 160 166
-0.003364 -0.004004 -0.038734 164 165 161
-0.023492 0.010851 0.026346 131 120 113
0.011719 0.013658 0.014066 114 101 77
-0.003419 -0.003938 -0.038734 9 12 11
0.009120 -0.014382 0.064346 149 146 141
0.022158 0.015785 0.009176 80 68 50
0.033098 -0.019097 0.017586 145 145 147
-0.003362 -0.003968 -0.038734 152 153 149
-0.003384 -0.004008 -0.038734 160 166 168
0.044414 -0.017903 0.021406 167 172 177
-0.003280 -0.003971 -0.038734 142 143 139
-0.003406 -0.003976 -0.038734 143 148 153
0.006711 0.000327 0.032586 149 140 121
-0.033827 0.002641 0.023416 107 105 97
-0.003304 -0.004005 -0.038734 163 163 159
-0.033807 0.004567 0.017246 12 19 13
-0.049050 0.024213 0.018716 75 76 65
0.018416 0.008619 0.021406 97 98 94
-0.003407 -0.003998 -0.038734 147 152 157
0.023208 0.020046 0.004746 152 152 152
0.007633 0.003526 0.028826 109 102 92
0.039511 -0.013406 0.014296 145 150 155
0.024663 -0.019644 0.035866 123 123 117
0.027095 -0.036673 0.026806 166 169 170
0.014801 -0.005551 0.041836 62 53 44
-0.031824 0.009724 0.026696 90 88 80
-0.001947 0.009467 0.021896 109 98 75
0.011855 0.015785 0.009356 112 99 77
0.052653 -0.007362 0.019706 61 59 40
-0.003337 -0.004001 -0.038734 168 168 162
-0.003418 -0.004004 -0.038734 149 156 160
0.025339 -0.023356 0.028826 143 143 139
0.044306 0.006379 0.025896 153 156 157
-0.003139 0.005467 0.027866 143 124 107
-0.003376 -0.004011 -0.038734 161 167 169
0.011800 -0.004962 0.044346 139 129 115
-0.003305 -0.004002 -0.038734 161 162 158
-0.003408 -0.003960 -0.038734 124 130 130
-0.003387 -0.004018 -0.038734 155 160 165
-0.060403 0.021008 0.026236 1 4 3
-0.003412 -0.003976 -0.038734 145 152 156
0.053607 -0.000418 0.028826 118 118 112
0.032548 -0.022697 0.023206 80 82 90
-0.003381 -0.003929 -0.038734 131 130 134
-0.003416 -0.003982 -0.038734 146 151 156
0.052115 0.000092 0.019706 99 89 75
0.000414 0.005212 0.027506 128 108 86
0.019186 -0.039249 0.038656 159 159 159
-0.003316 -0.004005 -0.038734 170 167 162
-0.005350 0.005772 0.033976 158 156 148
-0.003274 -0.003990 -0.038734 142 143 139
-0.003368 -0.004016 -0.038734 164 170 172
0.051782 0.002074 0.031246 131 134 133
0.012138 -0.013280 0.037236 69 65 54
-0.003313 -0.003990 -0.038734 154 151 148
0.030448 -0.015592 0.010116 158 161 164
-0.029686 0.006248 0.027626 60 30 12
-0.003398 -0.004009 -0.038734 150 158 159
-0.003410 -0.004007 -0.038734 153 160 166
0.027614 0.016209 0.007446 134 120 103
-0.015915 -0.021884 0.024366 163 163 159
0.028393 -0.013234 0.025566 139 139 135
-0.003233 -0.003918 -0.038734 139 145 147
-0.003253 -0.003942 -0.038734 158 164 164
0.056334 -0.026570 0.064346 144 145 141
-0.003407 -0.003996 -0.038734 146 151 156
0.071175 -0.015663 0.038336 143 144 140
0.013473 0.014023 0.013476 109 96 72
-0.044863 0.025816 0.015216 6 10 3
-0.064672 0.005367 0.038976 136 142 144
0.039309 0.009889 0.018626 155 160 165
0.033574 0.018613 0.008926 153 159 159
0.043139 0.014073 0.016586 156 164 165
0.007166 -0.021991 0.040126 121 118 113
-0.039800 0.015960 0.022096 60 65 55
-0.000460 0.012292 0.019986 102 91 68
-0.057316 0.021037 0.022396 4 7 6
0.012041 0.018417 0.005626 109 101 77
-0.003334 -0.003994 -0.038734 167 164 159
0.023855 -0.031570 0.039466 111 110 110
0.005868 -0.013429 0.042536 149 144 140
0.029775 -0.024245 0.026346 142 145 144
-0.003321 -0.004004 -0.038734 169 169 165
-0.003361 -0.003990 -0.038734 160 163 162
-0.016681 0.015517 0.012756 133 117 96
-0.016487 0.016867 0.009986 130 114 93
-0.003327 -0.004002 -0.038734 167 167 161
0.032782 -0.007959 0.028226 117 120 119
0.009348 -0.023989 0.064916 152 149 144
-0.003400 -0.004005 -0.038734 150 153 156
-0.003278 -0.004014 -0.038734 162 162 164
0.017794 0.015935 0.010836 116 104 86
-0.020238 0.014400 0.015296 134 120 101
-0.003389 -0.003996 -0.038734 153 156 157
0.005375 0.009110 0.021116 101 88 64
-0.003334 -0.004011 -0.038734 168 169 165
0.036668 -0.023667 0.015856 125 131 133
-0.027374 -0.004254 0.027986 151 151 147
-0.001680 0.012099 0.015376 46 75 32
0.010676 -0.023836 0.038816 149 146 143
-0.003420 -0.003987 -0.038734 148 150 160
0.009512 -0.001835 0.037546 126 117 100
-0.003293 -0.004006 -0.038734 153 153 153
-0.003247 -0.003964 -0.038734 148 146 138
0.015813 0.016342 0.008926 121 109 91
-0.003417 -0.004002 -0.038734 144 151 157
-0.013412 0.011240 0.020456 130 112 92
0.012672 0.013622 0.013476 114 98 75
-0.003262 -0.004019 -0.038734 158 164 166
-0.059104 0.029552 0.021996 20 23 22
-0.014159 -0.002448 0.042366 163 161 153
0.008062 -0.025491 0.039636 112 107 103
-0.027263 -0.005328 0.114236 152 149 144
0.024657 -0.023720 0.044346 97 97 93
0.021354 -0.033445 0.047026 153 153 153
0.033309 0.018292 0.008866 154 162 163
0.007207 0.014277 0.011096 36 69 23
-0.003351 -0.004017 -0.038734 165 168 167
-0.003230 -0.003927 -0.038734 138 144 146
-0.003417 -0.003922 -0.038734 15 15 15
-0.015564 0.016416 0.016256 131 115 92
0.022115 -0.029598 0.047826 158 158 158
0.017477 0.004747 0.024146 143 123 103
-0.003258 -0.004014 -0.038734 156 159 160
0.017270 -0.026589 0.041836 147 148 144
-0.003389 -0.003955 -0.038734 163 169 171
0.034363 -0.030245 0.026346 160 163 166
-0.003411 -0.003968 -0.038734 140 146 148
-0.017851 0.008644 0.024796 142 140 132
-0.003334 -0.003984 -0.038734 160 157 152
0.011864 0.006306 0.022496 108 109 105
0.049281 0.012200 0.017166 147 153 155
0.028425 -0.026165 0.021506 114 120 122
0.031548 0.000718 0.033546 156 152 153
-0.003252 -0.003991 -0.038734 159 162 165
-0.003408 -0.003977 -0.038734 145 150 155
-0.003375 -0.004017 -0.038734 160 165 170
0.032580 -0.039266 0.036166 157 160 159
-0.003414 -0.003970 -0.038734 140 147 153
-0.053427 0.026884 0.020456 25 25 25
-0.003414 -0.003972 -0.038734 145 150 155
-0.003279 -0.004002 -0.038734 145 146 142
0.030415 -0.001493 0.037236 152 151 151
0.020247 0.013967 0.010246 59 35 12
-0.003420 -0.003960 -0.038734 22 24 32
-0.003234 -0.003974 -0.038734 118 118 112
-0.003386 -0.004012 -0.038734 158 161 162
-0.003274 -0.004015 -0.038734 157 160 161
0.003241 0.017999 0.006886 91 83 57
-0.003228 -0.003945 -0.038734 150 155 160
-0.021907 -0.002475 0.029696 160 157 152
-0.000195 0.015322 0.010056 51 83 34
0.052866 0.003500 0.023416 140 146 148
-0.003381 -0.004007 -0.038734 160 166 168
0.031858 0.008604 0.028226 152 153 149
-0.015207 0.015652 0.015776 131 115 92
0.009151 -0.007335 0.046246 127 116 107
0.015620 0.017525 0.008626 115 103 83
0.014722 -0.019871 0.044906 45 36 31
-0.003397 -0.004012 -0.038734 154 159 164
-0.046970 0.014072 0.027156 8 9 5
-0.033654 0.006470 0.024046 92 86 71
-0.003373 -0.003979 -0.038734 153 156 155
0.004987 0.007530 0.023006 123 109 90
0.021907 0.019167 0.005626 121 109 91
-0.003292 -0.004016 -0.038734 167 170 171
-0.033154 0.008889 0.028106 104 102 90
-0.055662 0.000898 0.018626 112 118 120
-0.026144 0.004507 0.029196 67 38 24
0.027682 0.021190 0.007336 150 156 158
0.024759 0.018507 0.006496 132 120 104
-0.003417 -0.003968 -0.038734 142 147 154
0.015799 0.013719 0.016016 94 81 59
0.028093 0.002244 0.035866 162 163 159
-0.026613 0.017859 0.010706 133 117 96
-0.027275 -0.031539 0.021316 164 167 168
-0.000460 0.014291 0.011986 46 79 35
0.035420 -0.023610 0.022196 84 87 86
-0.003299 -0.003965 -0.038734 155 152 149
0.009999 -0.015190 0.038336 88 83 81
-0.003364 -0.003992 -0.038734 159 163 158
-0.003300 -0.003998 -0.038734 155 156 152
-0.003418 -0.003985 -0.038734 145 150 157
0.006892 0.010198 0.018806 113 101 81
0.002081 0.017975 0.006546 56 81 35
-0.024414 0.015452 0.020266 135 121 102
0.024026 0.005467 0.027156 147 130 112
-0.003233 -0.003939 -0.038734 154 161 165
-0.033618 0.021440 0.009426 53 56 55
-0.015694 -0.007524 -0.012434 153 156 155
-0.020688 0.010476 0.025566 135 118 102
0.009381 0.010641 0.024146 117 103 84
-0.023815 0.015543 0.012826 134 120 101
0.009760 -0.018298 0.040466 94 90 91
0.017325 0.019141 0.005576 108 95 73
0.021737 0.012130 0.016336 113 99 80
0.035816 0.001181 0.025456 111 112 108
0.022644 -0.033626 0.045666 159 159 159
-0.003267 -0.004015 -0.038734 157 160 161
-0.029439 -0.018564 0.011036 155 161 161
-0.003340 -0.003999 -0.038734 166 166 162
-0.003229 -0.003945 -0.038734 150 155 160
-0.003370 -0.003990 -0.038734 158 161 160
-0.003363 -0.004018 -0.038734 163 166 167
-0.013207 0.003070 0.030466 73 47 32
0.018646 -0.007940 0.040126 58 49 44
-0.003335 -0.003992 -0.038734 167 164 161
-0.012909 0.011950 0.017496 126 110 89
-0.043384 -0.023313 0.026576 156 159 160
-0.048203 0.020317 0.023936 18 19 10
0.046634 -0.004806 0.031246 139 135 126
-0.003356 -0.004012 -0.038734 167 170 169
-0.003415 -0.004020 -0.038734 153 163 170
0.022552 0.006337 0.025016 146 130 109
0.026861 0.007720 0.018366 150 150 150
-0.054458 0.025814 0.019256 25 24 26
-0.003413 -0.003991 -0.038734 143 148 153
-0.003375 -0.003988 -0.038734 159 158 158
-0.003418 -0.003916 -0.038734 49 57 58
-0.003375 -0.003967 -0.038734 150 153 152
0.017558 0.015627 0.010636 117 103 86
-0.058035 0.010379 0.031376 156 162 164
-0.003315 -0.004011 -0.038734 165 166 162
-0.003404 -0.003989 -0.038734 142 149 155
-0.003392 -0.004022 -0.038734 156 163 167
0.024821 0.013689 0.011166 122 110 92
-0.003376 -0.004009 -0.038734 156 164 165
-0.003416 -0.003930 -0.038734 0 5 5
0.021696 0.001948 0.032306 141 128 115
-0.340445 -0.020555 0.350226 140 147 151
-0.003356 -0.004003 -0.038734 165 165 165
0.026121 -0.003178 0.044166 153 154 150
-0.036947 0.013666 0.020356 143 146 147
-0.003379 -0.003965 -0.038734 148 151 150
-0.015730 0.017205 0.013406 124 108 87
0.004174 0.015698 0.010246 92 81 56
-0.018674 0.005604 0.032716 113 105 102
0.004670 0.019003 0.004046 101 89 69
-0.029562 0.011367 0.022796 145 146 140
-0.003254 -0.004014 -0.038734 156 161 166
-0.003405 -0.004010 -0.038734 149 154 161
-0.003375 -0.004007 -0.038734 160 163 164
-0.003346 -0.004011 -0.038734 167 167 167
0.048821 0.019461 0.020546 83 83 85
-0.003416 -0.003983 -0.038734 147 152 159
-0.009926 0.008427 0.020926 51 54 29
-0.003267 -0.004015 -0.038734 158 161 162
0.034161 0.011396 0.020356 153 156 155
0.008300 0.013948 0.013256 88 76 49
0.036234 -0.024335 0.021026 100 103 102
-0.003306 -0.004005 -0.038734 165 165 161
-0.023022 0.010525 0.025786 141 134 128
-0.003402 -0.003976 -0.038734 147 152 157
-0.003382 -0.003980 -0.038734 149 152 151
-0.003413 -0.003953 -0.038734 92 98 96
-0.007500 0.013050 0.012476 31 51 18
-0.039219 0.008677 0.023516 106 109 112
-0.003404 -0.004014 -0.038734 149 154 161
0.003298 0.015774 0.010436 87 76 51
0.037848 -0.000425 0.030716 77 77 81
-0.003277 -0.004016 -0.038734 159 162 165
-0.003232 -0.003922 -0.038734 142 148 150
-0.042533 0.010807 0.023626 5 5 5
0.028389 0.017677 0.007856 135 123 105
0.051213 -0.004669 0.019796 71 63 51
0.001659 0.005586 0.025236 115 109 83
-0.032117 0.019047 0.012686 147 147 149
0.018888 0.007241 0.024046 96 96 92
-0.003414 -0.003989 -0.038734 147 154 160
-0.003275 -0.003996 -0.038734 143 144 140
0.029824 -0.013628 0.024906 145 145 141
0.026284 0.014056 0.009676 136 122 103
-0.048939 0.022036 0.022096 113 107 69
-0.003402 -0.004010 -0.038734 153 158 163
0.017953 -0.001893 0.039796 150 150 146
-0.035375 0.011305 0.026576 117 119 110
-0.003347 -0.003988 -0.038734 165 162 157
0.023887 0.008109 0.022096 138 122 101
-0.001807 0.008742 0.023836 118 102 81
-0.003299 -0.004018 -0.038734 168 168 168
-0.003280 -0.003992 -0.038734 140 137 132
-0.009921 0.016065 0.008446 119 105 86
-0.003386 -0.003987 -0.038734 149 155 155
0.054009 -0.027440 0.023416 146 146 146
-0.003295 -0.004006 -0.038734 153 154 150
-0.003372 -0.003964 -0.038734 150 156 154
-0.052187 0.012245 0.023626 24 28 23
-0.003323 -0.003974 -0.038734 153 149 142
-0.003419 -0.004003 -0.038734 147 157 164
-0.030888 -0.003398 0.032586 151 151 147
-0.004139 0.017606 0.008806 78 66 46
-0.003344 -0.004022 -0.038734 172 172 172
0.034522 -0.007083 0.029326 116 119 118
-0.008372 -0.000546 0.037546 90 56 44
-0.003318 -0.003997 -0.038734 165 162 159
-0.003414 -0.003981 -0.038734 148 153 158
-0.003370 -0.004002 -0.038734 159 163 158
-0.003317 -0.004006 -0.038734 169 169 165
-0.003393 -0.003985 -0.038734 149 155 157
-0.003389 -0.004005 -0.038734 156 158 164
-0.003374 -0.003962 -0.038734 152 155 154
0.039702 0.000095 0.027036 101 108 102
0.004737 0.012554 0.012896 44 75 29
-0.003362 -0.003970 -0.038734 152 152 148
0.024649 0.016736 0.004396 127 115 99
-0.050771 0.017081 0.027386 4 7 6
-0.003362 -0.003992 -0.038734 160 163 162
0.001384 0.018647 0.003996 54 73 31
-0.003232 -0.003997 -0.038734 145 146 140
-0.003250 -0.003975 -0.038734 126 124 114
-0.003374 -0.003966 -0.038734 153 156 157
-0.003229 -0.003955 -0.038734 141 144 147
-0.034232 0.000462 0.031246 150 150 150
0.015505 0.017784 0.007626 116 104 84
-0.032940 0.003931 0.024576 53 44 37
-0.003308 -0.003999 -0.038734 162 162 158
-0.003227 -0.004013 -0.038734 147 152 157
0.045205 -0.001733 0.033266 90 88 78
0.011488 0.010567 0.017496 96 80 59
0.039145 -0.000346 0.028226 112 118 116
-0.003329 -0.003979 -0.038734 155 152 147
0.009932 0.010532 0.020166 105 92 70
0.027427 0.010463 0.009606 150 156 156
0.052318 -0.007320 0.018986 78 71 52
-0.054493 0.001977 0.027746 136 142 144
-0.010474 0.010269 0.016016 48 64 30
-0.038885 0.009815 0.024796 148 152 147
-0.003386 -0.003986 -0.038734 150 156 156
0.039052 0.002952 0.026346 174 177 176
-0.003368 -0.003989 -0.038734 159 159 159
0.006355 0.010961 0.015776 104 96 72
0.050331 0.034182 0.030206 142 150 149
-0.004460 0.011172 0.017496 50 81 35
-0.003298 -0.004020 -0.038734 165 165 165
0.001033 -0.019770 0.036466 161 158 153
0.026666 0.020157 0.004346 154 160 160
0.028294 -0.026418 0.024576 146 147 143
-0.005664 0.012013 0.017416 91 80 57
0.016748 0.006223 0.026806 98 99 93
-0.039236 0.016000 0.020546 58 63 53
-0.003354 -0.004004 -0.038734 162 165 164
-0.003337 -0.003987 -0.038734 164 161 156
0.036177 -0.002029 0.030586 110 117 111
0.012051 0.002534 0.028226 134 112 88
-0.003304 -0.004022 -0.038734 168 168 168
0.052136 -0.004306 0.019166 88 76 60
-0.003353 -0.003973 -0.038734 154 151 148
-0.003355 -0.003977 -0.038734 156 156 150
-0.003379 -0.003983 -0.038734 152 155 156
0.051152 -0.011090 0.040126 98 96 84
-0.003371 -0.003989 -0.038734 156 159 158
-0.003403 -0.003961 -0.038734 134 140 142
0.028736 -0.024889 0.018276 85 88 87
0.027521 -0.018414 0.037856 124 124 120
0.030693 0.014579 0.009296 147 153 153
0.029732 0.016166 0.005626 134 125 106
-0.033939 0.020338 0.011916 83 82 86
0.048221 -0.006636 0.034256 125 123 113
0.006846 0.001162 0.033546 145 136 115
0.005524 0.008917 0.021506 108 92 69
0.014072 0.003344 0.028106 148 128 108
-0.029766 0.002108 0.031636 150 148 140
-0.002790 0.004399 0.033686 161 157 150
-0.046489 0.005234 0.021026 163 169 169
-0.021855 0.017064 0.011166 131 115 94
0.015977 0.019315 0.003656 113 101 81
-0.003416 -0.003988 -0.038734 146 151 158
-0.003368 -0.004009 -0.038734 165 165 167
0.011888 0.012647 0.015536 112 99 77
0.023685 0.011239 0.016176 128 112 91
-0.059583 0.009632 0.028226 147 152 157
-0.003420 -0.003967 -0.038734 138 145 151
-0.054872 0.007657 0.028106 167 175 176
0.046676 0.018598 0.018806 132 139 145
-0.024728 0.011058 0.024686 133 118 108
-0.037403 0.023724 0.011986 6 6 6
0.029173 0.010025 0.011506 156 159 160
-0.008531 -0.026017 0.030336 169 169 163
-0.003375 -0.003976 -0.038734 153 156 155
0.031310 -0.009490 0.025676 117 117 117
0.026068 0.012407 0.018186 129 113 90
-0.003377 -0.004010 -0.038734 158 161 164
-0.003224 -0.003998 -0.038734 148 147 147
-0.003410 -0.003990 -0.038734 146 151 158
-0.003352 -0.003996 -0.038734 165 166 162
-0.026903 0.021778 0.006996 130 118 100
0.042471 0.014151 0.015296 148 154 154
-0.060084 0.008472 0.029196 150 155 160
-0.003350 -0.003987 -0.038734 162 162 156
0.056706 0.004637 0.024046 137 140 141
-0.000219 0.015470 0.009676 52 83 37
-0.011761 0.016921 0.012126 115 99 78
-0.040398 0.018128 0.018276 13 17 12
-0.003402 -0.003997 -0.038734 148 153 158
0.003829 -0.009173 0.046436 140 131 122
-0.003226 -0.004014 -0.038734 142 147 152
0.046197 -0.003833 0.034406 111 109 99
0.022896 0.014170 0.011436 68 39 14
-0.027450 0.019099 0.009796 135 121 106
0.046563 -0.001521 0.032996 121 118 104
-0.006664 0.007316 0.025016 128 108 86
0.014434 0.015481 0.011436 113 100 78
-0.003226 -0.004015 -0.038734 140 147 151
0.020799 -0.024442 0.041666 121 117 118
-0.003407 -0.004005 -0.038734 150 155 160
-0.021826 0.003101 0.026806 76 46 28
0.018179 -0.028249 0.042006 151 151 145
0.033561 -0.021277 0.013696 91 94 95
-0.336381 -0.020384 0.346216 141 148 152
-0.003399 -0.004011 -0.038734 150 155 160
-0.038349 0.018253 0.015376 30 33 32
-0.026797 0.019709 0.008626 127 115 99
0.052383 -0.006340 0.023516 101 98 95
-0.003262 -0.004019 -0.038734 160 162 168
-0.003373 -0.003988 -0.038734 155 155 155
-0.071310 -0.039053 0.076796 155 161 159
-0.003363 -0.003998 -0.038734 162 165 164
0.015958 -0.021144 0.043616 75 71 64
-0.037271 -0.018363 0.018456 154 160 160
-0.003342 -0.004022 -0.038734 168 168 168
-0.007274 0.015985 0.005526 43 62 36
0.044586 -0.006200 0.034686 88 89 80
-0.046855 0.007155 0.025786 164 170 170
0.001218 0.016080 0.009176 69 71 37
-0.003340 -0.003999 -0.038734 167 167 161
-0.317531 -0.180277 0.330966 151 156 163
-0.003325 -0.003998 -0.038734 165 162 159
-0.003327 -0.004021 -0.038734 169 170 166
0.015286 -0.021485 0.043436 82 79 74
-0.003320 -0.003985 -0.038734 156 154 146
-0.019830 0.011744 0.021696 129 110 85
0.013037 -0.023164 0.040466 99 97 89
0.031528 -0.044076 0.043436 170 173 176
-0.003235 -0.003914 -0.038734 138 144 146
0.002983 0.011123 0.016996 53 85 34
-0.003393 -0.003956 -0.038734 155 161 163
-0.037621 0.021349 0.012546 2 5 4
0.007236 0.019224 0.005736 101 89 69
0.038536 -0.020608 0.015456 79 85 83
-0.008980 0.010817 0.016176 36 55 25
0.040918 -0.003276 0.033836 99 102 101
0.040971 0.000211 0.027276 98 104 104
-0.003404 -0.003995 -0.038734 145 152 156
-0.003271 -0.004010 -0.038734 165 165 167
-0.003231 -0.003950 -0.038734 148 153 158
0.013625 -0.011032 0.038176 56 49 39
-0.003384 -0.004006 -0.038734 151 157 157
-0.003239 -0.003972 -0.038734 139 139 133
-0.037367 0.015060 0.020456 147 147 147
-0.003272 -0.003993 -0.038734 141 141 135
-0.051286 0.020669 0.020166 22 29 23
0.018073 -0.009130 0.039796 156 137 135
-0.003399 -0.003919 -0.038734 120 110 69
-0.003398 -0.003968 -0.038734 142 147 152
0.030721 0.011764 0.010186 156 159 162
0.037652 0.014233 0.010766 153 158 163
-0.003395 -0.003979 -0.038734 151 154 157
-0.003240 -0.004013 -0.038734 151 156 161
0.016545 -0.002680 0.043436 147 147 143
0.023922 0.014386 0.009176 68 41 19
-0.031784 0.000620 0.020736 152 152 148
-0.003259 -0.004020 -0.038734 157 163 165
-0.003374 -0.004022 -0.038734 165 168 171
-0.003418 -0.003996 -0.038734 145 150 155
0.009902 0.018023 0.006936 94 88 64
-0.003386 -0.003985 -0.038734 149 155 155
-0.003407 -0.004003 -0.038734 149 156 164
-0.003334 -0.004015 -0.038734 171 171 171
-0.003388 -0.003956 -0.038734 161 167 167
-0.003278 -0.003989 -0.038734 137 137 133
-0.063542 0.013369 0.029576 140 146 148
0.040363 0.008705 0.029326 154 160 158
-0.030080 -0.001942 0.029946 91 91 85
0.014862 -0.030457 0.048026 159 159 153
-0.003360 -0.003975 -0.038734 155 156 152
-0.003405 -0.003971 -0.038734 141 146 151
-0.006803 0.012007 0.015066 91 79 59
-0.003398 -0.003967 -0.038734 142 148 150
0.011089 0.006357 0.022796 107 108 104
-0.003241 -0.003974 -0.038734 146 146 140
-0.003348 -0.003999 -0.038734 164 165 161
-0.003253 -0.004021 -0.038734 158 164 166
0.052719 0.004506 0.032716 147 153 155
-0.003279 -0.003998 -0.038734 143 144 140
-0.003336 -0.004004 -0.038734 166 166 160
-0.051224 0.018813 0.025676 17 20 19
-0.003925 -0.000225 0.036926 73 42 29
-0.003410 -0.003980 -0.038734 143 153 158
0.032802 0.016108 0.008206 157 163 163
-0.003402 -0.004019 -0.038734 150 155 164
-0.002835 0.012481 0.016096 56 87 43
-0.003243 -0.003976 -0.038734 150 147 142
0.026653 -0.009511 0.041836 118 118 114
0.051080 -0.001301 0.022796 110 111 102
-0.003393 -0.003978 -0.038734 145 150 157
0.030637 -0.005418 0.029696 153 153 153
0.005574 0.014915 0.011366 36 69 23
-0.003413 -0.003999 -0.038734 148 153 158
-0.003349 -0.003975 -0.038734 154 151 146
0.052533 0.005945 0.031246 147 153 155
0.004623 -0.009765 0.049466 149 142 132
0.013161 -0.022590 0.041666 78 75 70
-0.003369 -0.004008 -0.038734 163 166 167
-0.014035 0.005021 0.032446 90 69 54
0.045954 0.009344 0.020926 155 163 164
-0.003332 -0.004010 -0.038734 168 168 168
0.028746 0.002868 0.033976 167 168 164
0.044974 -0.012818 0.016746 147 147 143
-0.012447 0.004118 0.030336 70 37 22
0.001629 -0.020974 0.040466 160 157 152
-0.003385 -0.004000 -0.038734 156 159 162
-0.003368 -0.003969 -0.038734 150 154 149
-0.008597 0.016013 0.006996 48 58 31
0.069791 -0.015520 0.037386 143 143 143
-0.003278 -0.003990 -0.038734 139 139 135
0.039150 0.000211 0.027276 93 96 95
-0.003300 -0.003999 -0.038734 156 156 150
0.002032 0.009911 0.018716 56 88 39
-0.003362 -0.004015 -0.038734 165 168 167
0.021314 0.003133 0.034406 146 126 106
0.029034 -0.024768 0.018186 86 89 88
0.009735 0.014427 0.013256 105 89 66
-0.003300 -0.004016 -0.038734 164 165 161
-0.006413 0.002662 0.035416 83 46 30
-0.019376 0.020640 0.005576 132 115 97
-0.001390 0.001013 0.036316 149 142 136
0.051884 -0.006154 0.018626 84 74 62
-0.035650 0.000567 0.005156 142 147 152
0.002249 0.019161 0.004096 57 66 30
0.052382 -0.000391 0.023836 50 45 43
0.035242 -0.020406 0.015616 77 81 76
-0.003267 -0.003996 -0.038734 145 146 142
-0.003374 -0.004022 -0.038734 159 162 165
0.024931 0.018420 0.006886 128 116 100
-0.003272 -0.003954 -0.038734 158 161 160
-0.003242 -0.003968 -0.038734 150 150 144
-0.003372 -0.003978 -0.038734 155 158 157
-0.003346 -0.003970 -0.038734 153 148 144
0.050323 -0.013559 0.019706 147 147 143
0.021233 0.015448 0.010566 50 32 23
-0.064310 0.009863 0.028346 117 123 123
0.028295 -0.010468 0.025566 140 141 137
0.013457 0.020205 0.004196 105 94 71
-0.002371 0.013585 0.013846 52 83 37
-0.032911 0.022742 0.009236 53 53 55
-0.003242 -0.004002 -0.038734 147 154 160
-0.001785 0.001863 0.033976 154 150 143
-0.016200 0.009035 0.022496 137 119 99
-0.003233 -0.004022 -0.038734 153 155 161
-0.003335 -0.004010 -0.038734 168 168 168
0.008335 0.015922 0.010056 34 70 27
-0.053076 -0.011991 0.039466 146 152 152
-0.031685 0.020901 0.011636 144 147 148
0.019495 -0.010569 0.036926 59 52 46
-0.003342 -0.004005 -0.038734 168 168 164
-0.013634 0.008631 0.020166 122 102 80
-0.003340 -0.004019 -0.038734 169 169 169
0.037545 -0.020754 0.014596 82 85 86
-0.030446 0.008105 0.027746 60 31 19
-0.003254 -0.004013 -0.038734 161 167 169
-0.003238 -0.004021 -0.038734 157 164 170
-0.024091 0.011367 0.022796 133 114 97
0.052081 -0.026135 0.020926 145 145 145
0.007135 0.019743 0.004196 108 96 76
0.004020 0.018912 0.005266 102 94 70
-0.013861 0.019062 0.013256 132 116 93
-0.003386 -0.003986 -0.038734 151 157 157
0.014044 0.013635 0.013996 110 94 71
0.011048 0.005870 0.026466 105 106 102
-0.003305 -0.004022 -0.038734 168 168 170
-0.026892 -0.000298 0.031106 130 121 114
-0.019328 0.015843 0.013406 133 117 96
-0.036862 0.014842 0.021506 151 151 151
-0.003312 -0.004003 -0.038734 165 165 161
-0.003260 -0.003944 -0.038734 149 155 155
0.005133 0.019588 0.004396 100 89 66
-0.003242 -0.004010 -0.038734 154 160 162
-0.026163 -0.002801 0.035716 154 151 148
0.019174 -0.000256 0.031906 134 121 110
-0.014113 0.017102 0.012186 122 106 83
-0.011657 0.017009 0.011036 123 110 88
-0.003302 -0.004018 -0.038734 167 168 164
0.019037 -0.000206 0.032856 137 118 101
0.011376 0.001013 0.036316 157 155 145
-0.058919 0.001920 0.021896 89 89 89
-0.003241 -0.004015 -0.038734 157 164 170
0.285855 -0.141375 0.285946 148 154 156
0.052691 -0.007531 0.018106 111 104 98
-0.029291 0.011513 0.020456 146 147 143
-0.003231 -0.004013 -0.038734 150 157 161
-0.003402 -0.003990 -0.038734 145 152 156
-0.031494 0.001955 0.031106 160 156 157
-0.003271 -0.003990 -0.038734 144 143 143
0.043144 0.013867 0.015696 149 149 151
0.012075 -0.014520 0.036926 59 55 46
0.050588 0.022747 0.023316 143 149 149
0.034140 -0.000521 0.028826 106 112 110
-0.049224 0.026741 0.016586 19 25 25
-0.029403 0.010639 0.023316 147 148 144
0.016608 0.005352 0.026346 131 117 98
-0.003337 -0.003969 -0.038734 154 151 146
0.018310 -0.022954 0.044906 70 65 61
-0.053999 0.010246 0.029696 158 164 166
0.054182 -0.008364 0.019896 32 33 29
-0.003409 -0.004016 -0.038734 154 159 168
-0.021714 0.019371 0.006826 129 115 96
-0.029894 -0.001509 0.027386 125 122 117
0.018630 -0.015075 0.037546 87 78 73
0.051835 0.029516 0.025896 138 144 144
-0.053752 0.021072 0.025126 10 13 14
-0.003394 -0.004014 -0.038734 155 158 161
-0.022488 0.018714 0.009296 130 113 95
-0.003340 -0.003978 -0.038734 155 150 146
-0.003986 0.017750 0.008326 76 67 46
-0.003250 -0.003989 -0.038734 165 168 171
-0.003388 -0.003995 -0.038734 151 154 155
-0.003225 -0.004012 -0.038734 144 151 159
-0.004333 0.012574 0.015296 38 67 26
0.017108 -0.012373 0.035416 71 66 64
-0.003233 -0.004004 -0.038734 145 146 142
0.010425 0.013989 0.010306 109 96 72
-0.003238 -0.003940 -0.038734 155 162 166
-0.002171 0.020226 0.005946 81 73 49
0.003272 -0.014277 0.044346 148 145 140
-0.012374 0.018805 0.009176 122 106 85
-0.075003 0.010232 0.038816 111 117 119
-0.022997 -0.001693 0.034546 160 157 154
0.033497 -0.010804 0.025016 99 103 98
-0.020948 0.018346 0.011636 132 114 94
-0.003277 -0.004013 -0.038734 162 165 166
0.003564 0.015073 0.010186 91 83 59
-0.038822 0.022893 0.010186 83 73 30
-0.003340 -0.003985 -0.038734 163 161 153
-0.005945 0.017781 0.001766 28 50 19
-0.003339 -0.004015 -0.038734 167 170 169
0.063032 -0.032281 0.029576 146 151 156
-0.039230 0.010986 0.022396 94 95 86
-0.003390 -0.003971 -0.038734 148 156 157
0.027002 0.014820 0.010116 130 118 102
-0.326439 0.001010 0.313526 142 148 150
-0.010281 0.018462 0.006546 117 101 80
-0.020121 0.019494 0.004346 131 117 100
-0.003417 -0.003985 -0.038734 146 151 158
-0.003372 -0.004002 -0.038734 158 162 157
-0.024440 0.020185 0.004396 131 117 100
-0.001719 0.008486 0.023516 121 105 82
0.024369 0.012563 0.015536 117 101 80
-0.051077 0.019091 0.025346 5 11 9
0.008508 0.010114 0.023106 119 105 86
-0.003317 -0.003985 -0.038734 152 149 144
-0.003400 -0.003971 -0.038734 148 150 156
-0.003408 -0.004001 -0.038734 150 157 163
-0.045544 0.011685 0.021116 9 15 15
-0.003416 -0.003982 -0.038734 147 152 157
0.032555 -0.024718 0.020546 84 88 83
0.055016 -0.010510 0.021406 14 12 19
0.020745 -0.008674 0.018186 129 129 123
0.027085 0.005309 0.024686 159 159 159
0.041785 -0.006047 0.033266 115 115 115
-0.003402 -0.003967 -0.038734 143 149 151
0.009433 -0.001266 0.037076 152 142 130
-0.003328 -0.004015 -0.038734 171 171 171
-0.007451 0.019556 0.003856 41 41 17
-0.010675 -0.002718 0.040976 77 44 43
0.054188 -0.010858 0.021216 138 138 132
-0.003409 -0.003967 -0.038734 142 148 150
-0.036585 0.023458 0.009986 13 16 15
-0.003228 -0.003945 -0.038734 154 159 164
0.019494 -0.003943 0.039306 76 73 70
0.021370 0.009571 0.022796 100 101 97
0.015691 0.019924 0.007216 108 94 75
-0.003231 -0.003923 -0.038734 140 146 148
-0.003356 -0.004021 -0.038734 166 169 170
-0.041976 0.023690 0.013546 127 118 72
-0.008991 -0.002258 0.039636 153 149 142
-0.003287 -0.004019 -0.038734 167 170 169
-0.056859 0.020086 0.023836 4 7 6
0.013943 -0.013493 0.038016 48 44 37
-0.012702 0.007420 0.019986 131 115 92
-0.003241 -0.004001 -0.038734 86 89 90
-0.003237 -0.003952 -0.038734 149 155 157
-0.003388 -0.004015 -0.038734 157 162 167
-0.003369 -0.003974 -0.038734 157 157 157
-0.021524 0.012022 0.019986 126 108 86
-0.003393 -0.004006 -0.038734 151 157 159
0.027252 0.014761 0.008086 128 114 95
-0.003363 -0.003968 -0.038734 152 152 148
-0.003412 -0.003987 -0.038734 148 153 158
0.019111 0.009086 0.022296 97 98 94
0.021604 -0.018034 0.037706 95 95 91
-0.003361 -0.004006 -0.038734 165 165 165
0.031933 -0.001407 0.043796 167 167 167
-0.011637 0.017039 0.011846 114 98 77
0.013907 0.007010 0.026696 103 104 100
-0.007691 0.016098 0.005626 36 53 25
0.022401 0.005668 0.025126 148 134 115
-0.003263 -0.004022 -0.038734 157 163 165
-0.003358 -0.003979 -0.038734 160 160 156
-0.003290 -0.004022 -0.038734 160 163 164
-0.003340 -0.004006 -0.038734 169 168 168
-0.003364 -0.004006 -0.038734 167 168 164
-0.003353 -0.004010 -0.038734 164 167 166
0.002035 -0.012037 0.058946 155 151 144
-0.017809 0.020030 0.008686 136 120 99
-0.027528 0.001721 0.029576 148 145 140
-0.003340 -0.003982 -0.038734 163 160 157
-0.101267 -0.041344 0.078986 149 156 162
-0.003417 -0.004014 -0.038734 152 159 167
0.010755 0.017343 0.008386 98 87 62
-0.003360 -0.003986 -0.038734 165 166 160
-0.052493 -0.016189 0.026576 145 151 153
-0.003415 -0.003954 -0.038734 92 95 94
-0.003393 -0.003997 -0.038734 151 157 159
0.022529 0.016466 0.009046 52 35 21
-0.003388 -0.003967 -0.038734 147 150 151
0.011892 0.020072 0.005786 108 96 76
-0.003368 -0.003921 -0.038734 136 122 105
-0.003388 -0.003975 -0.038734 149 155 155
-0.003366 -0.004010 -0.038734 165 165 167
-0.003318 -0.003982 -0.038734 149 147 139
-0.000259 0.007380 0.022196 69 95 44
0.011979 0.019948 0.005056 105 92 70
-0.003347 -0.003984 -0.038734 165 162 157
-0.003389 -0.003962 -0.038734 146 152 152
-0.003417 -0.003963 -0.038734 126 131 136
0.027120 0.009700 0.019706 137 127 115
-0.048078 0.010935 0.024576 30 33 32
-0.003380 -0.003977 -0.038734 152 155 154
-0.003231 -0.003991 -0.038734 148 148 142
0.021000 0.011770 0.017166 111 94 76
0.044971 -0.002997 0.029946 139 135 126
-0.002956 0.015196 0.011096 35 56 16
0.051165 0.016119 0.017076 132 138 140
-0.003362 -0.003972 -0.038734 154 154 150
-0.003413 -0.003984 -0.038734 149 154 159
-0.003393 -0.003963 -0.038734 146 151 156
0.004078 0.017046 0.008206 93 82 59
-0.003248 -0.004011 -0.038734 156 161 166
0.013933 -0.017388 0.040126 116 118 109
-0.003325 -0.004012 -0.038734 169 169 165
-0.056462 0.007574 0.028826 163 170 174
-0.009089 0.018539 0.007566 100 86 67
-0.037345 -0.019667 0.020736 158 162 157
0.024142 0.001589 0.036316 159 159 155
0.042562 0.011871 0.016916 156 163 167
0.023264 0.009636 0.016176 126 109 91
-0.003234 -0.003948 -0.038734 150 156 158
-0.003255 -0.004007 -0.038734 151 156 161
-0.003402 -0.003989 -0.038734 145 152 156
-0.003345 -0.003991 -0.038734 162 162 158
0.025622 0.017245 0.006326 129 117 101
-0.003276 -0.003985 -0.038734 138 138 134
-0.003420 -0.003963 -0.038734 117 124 128
0.037424 -0.018333 0.010766 49 54 59
-0.003399 -0.003962 -0.038734 142 148 150
-0.009774 0.014175 0.011236 78 78 54
0.013544 0.013535 0.013696 110 94 71
-0.003384 -0.003991 -0.038734 155 158 159
-0.079981 -0.065305 0.076796 155 160 165
-0.003356 -0.003972 -0.038734 156 153 150
-0.003416 -0.004020 -0.038734 153 160 168
-0.061267 0.018006 0.023936 1 4 5
-0.003377 -0.004000 -0.038734 156 159 158
-0.003248 -0.004019 -0.038734 158 164 166
-0.051388 -0.027438 0.025236 148 155 159
-0.012025 0.016884 0.011846 115 99 78
-0.003253 -0.003947 -0.038734 157 163 165
0.009383 -0.014788 0.065206 146 143 138
0.009329 -0.024468 0.040806 101 97 90
-0.002261 0.012764 0.015376 55 86 40
0.015669 0.019773 0.006656 108 94 75
-0.039932 0.006544 0.021696 165 168 169
-0.003253 -0.003950 -0.038734 155 161 161
0.028812 -0.019321 0.035416 133 134 130
-0.003400 -0.004020 -0.038734 153 155 163
-0.003337 -0.004008 -0.038734 168 168 168
-0.003371 -0.003968 -0.038734 151 155 150
-0.035373 0.011880 0.019796 145 148 149
0.052495 0.002764 0.022796 104 101 96
-0.003331 -0.003984 -0.038734 156 153 148
-0.003331 -0.003982 -0.038734 155 150 146
-0.029485 -0.001295 0.016996 150 153 152
-0.003414 -0.003978 -0.038734 146 151 156
0.022140 0.017172 0.008326 112 95 77
-0.003336 -0.004013 -0.038734 167 167 167
-0.003348 -0.003981 -0.038734 158 155 150
-0.039479 0.021305 0.012616 112 107 74
-0.003941 0.011129 0.017336 52 82 43
0.026707 0.003617 0.038176 155 156 152
0.025114 -0.027458 0.038976 112 112 106
0.026132 0.005679 0.022696 157 158 154
-0.035884 0.005959 0.022096 90 91 80
0.030477 -0.052103 0.051386 166 166 168
-0.031144 0.009986 0.024686 139 138 138
0.028050 -0.003171 0.044906 157 157 157
-0.003374 -0.003987 -0.038734 160 161 157
0.036776 -0.020818 0.030336 142 142 142
0.027442 0.017302 0.007506 130 118 98
0.032952 -0.010854 0.024576 102 106 101
-0.012980 0.001323 0.032716 74 37 23
0.009472 0.013929 0.014146 105 92 70
-0.003265 -0.004005 -0.038734 86 90 85
-0.003262 -0.003989 -0.038734 141 144 143
0.023716 -0.029343 0.027386 146 147 143
0.022842 0.020659 0.005366 150 152 143
-0.003357 -0.003988 -0.038734 162 162 158
-0.003413 -0.003987 -0.038734 146 153 157
0.013108 0.004616 0.030076 100 101 97
-0.003229 -0.003950 -0.038734 148 153 158
-0.003249 -0.004016 -0.038734 155 162 166
-0.003402 -0.003958 -0.038734 138 141 142
-0.008427 0.018319 0.006116 82 77 55
-0.003357 -0.003976 -0.038734 154 154 150
-0.059104 0.025539 0.021996 35 38 39
-0.005397 -0.010445 0.031776 154 150 143
-0.020988 0.017406 0.013116 136 120 99
-0.003320 -0.004021 -0.038734 168 168 170
-0.003408 -0.003940 -0.038734 8 14 14
-0.031297 0.000058 0.035716 147 147 143
0.032365 -0.000857 0.035716 151 151 151
0.009825 -0.012786 0.042366 93 90 87
-0.003282 -0.004004 -0.038734 147 147 147
-0.015758 0.020530 0.006766 129 116 94
-0.003419 -0.003972 -0.038734 149 151 157
-0.003374 -0.004014 -0.038734 160 166 168
-0.013477 0.016295 0.012126 118 100 80
-0.003417 -0.004019 -0.038734 147 153 164
-0.003352 -0.003969 -0.038734 156 151 147
-0.003350 -0.004000 -0.038734 163 167 162
0.023283 0.013197 0.011296 96 69 47
-0.007484 0.018951 0.004196 32 47 22
0.038213 -0.022130 0.012686 123 126 129
-0.051009 -0.021446 0.023836 155 157 163
-0.003328 -0.003994 -0.038734 165 165 159
0.021428 0.015547 0.010056 51 30 17
0.019543 0.014195 0.011506 83 71 55
0.034589 0.004691 0.029826 148 147 147
-0.008428 0.007268 0.027626 138 120 100
-0.003300 -0.004011 -0.038734 165 165 165
-0.039100 0.007327 0.020926 115 115 109
0.031953 -0.033769 0.030846 158 161 162
0.008080 0.014505 0.009296 85 87 55
-0.003366 -0.003919 -0.038734 130 116 99
0.016693 0.014621 0.010186 107 94 72
-0.011974 -0.011813 0.045286 155 152 147
-0.003400 -0.004001 -0.038734 151 156 161
0.015744 0.013500 0.015856 98 81 63
-0.026579 0.013454 0.019346 127 109 89
-0.060211 0.023151 0.024256 12 18 16
-0.003346 -0.003986 -0.038734 165 162 157
-0.037467 0.017174 0.016916 58 62 57
-0.000930 -0.002330 0.036316 154 143 120
0.010269 0.001130 0.034686 155 151 144
-0.047426 0.022080 0.024476 135 124 72
-0.003305 -0.004013 -0.038734 166 166 166
-0.007610 0.013020 0.011916 35 54 24
-0.055717 0.014795 0.019076 6 12 10
0.041701 -0.016989 0.013626 145 146 142
-0.003278 -0.003972 -0.038734 138 138 134
0.021019 0.010435 0.014756 122 106 85
-0.003394 -0.003978 -0.038734 148 153 158
-0.003398 -0.004016 -0.038734 149 156 162
0.009236 -0.019799 0.039466 101 97 88
0.033791 -0.001123 0.029326 105 109 104
-0.045149 0.020250 0.021606 133 121 72
-0.003383 -0.004018 -0.038734 157 162 167
-0.003332 -0.004012 -0.038734 168 168 168
0.029110 -0.044515 0.045666 169 172 175
0.015492 0.016111 0.009606 115 103 83
-0.047179 0.022489 0.019986 126 117 69
-0.003262 -0.003946 -0.038734 152 155 154
-0.019834 0.013812 0.014526 137 123 106
-0.012997 0.018788 0.008986 132 116 95
0.001772 -0.012861 0.040806 149 147 139
0.023374 0.017746 0.009116 114 97 79
-0.003417 -0.003922 -0.038734 8 12 7
-0.008983 0.010237 0.021606 113 101 81
-0.003402 -0.003975 -0.038734 149 154 159
0.025114 -0.039362 0.039966 161 161 163
-0.003248 -0.003939 -0.038734 154 159 164
-0.003344 -0.003986 -0.038734 160 160 156
0.039837 -0.008108 0.014296 150 148 140
0.005140 0.017797 0.005476 106 94 76
0.033933 0.004357 0.028826 138 138 134
-0.003268 -0.003912 -0.038734 130 120 106
0.022613 -0.009600 0.024686 126 126 122
-0.018893 0.005275 0.032716 100 91 84
-0.003368 -0.004010 -0.038734 164 164 166
0.036636 0.015807 0.012686 153 159 161
-0.045078 -0.011227 0.015066 148 153 158
0.028694 0.010677 0.017586 143 144 140
-0.003403 -0.003994 -0.038734 147 154 160
-0.003314 -0.003999 -0.038734 163 163 157
-0.016762 0.020057 0.007336 130 114 93
-0.050843 0.017115 0.026236 4 8 3
-0.003344 -0.003989 -0.038734 167 164 159
0.049890 0.013607 0.016996 135 143 144
-0.003404 -0.003982 -0.038734 150 155 160
0.044967 0.012409 0.014756 147 152 157
-0.003278 -0.004017 -0.038734 160 166 166
-0.007527 0.002074 0.031246 79 44 27
-0.003274 -0.004001 -0.038734 146 146 146
-0.003140 0.006433 0.027506 128 109 84
-0.003298 -0.004017 -0.038734 167 168 164
-0.003366 -0.003978 -0.038734 159 160 156
0.042285 0.002090 0.027866 162 162 158
0.030838 -0.010000 0.024796 115 115 115
-0.003313 -0.003999 -0.038734 159 159 153
0.003888 0.018055 0.007446 93 82 59
-0.021686 0.013503 0.016666 139 123 102
-0.030798 0.020458 0.008386 146 146 148
-0.003327 -0.003988 -0.038734 160 160 156
-0.003398 -0.003969 -0.038734 145 151 153
-0.000990 0.017713 0.007626 36 70 21
0.051524 0.011501 0.021116 144 152 153
-0.012618 -0.001003 0.037856 80 43 27
-0.005197 0.008421 0.021796 61 90 49
0.002045 0.003597 0.034546 155 153 145
0.005376 0.019692 0.004956 104 93 70
-0.014068 0.020560 0.008866 125 108 90
-0.009827 0.017592 0.006766 110 94 73
-0.011734 0.018894 0.007276 121 104 86
-0.003342 -0.003969 -0.038734 153 150 145
-0.000156 0.005633 0.024256 94 104 63
-0.003253 -0.003952 -0.038734 160 166 168
0.014866 0.011922 0.016496 53 38 26
-0.030140 0.020858 0.005846 137 140 141
-0.007381 0.018247 0.004496 34 53 25
-0.060022 0.023246 0.024476 9 15 13
-0.020821 0.011868 0.022906 127 108 83
-0.013782 0.018324 0.012476 126 110 87
-0.003419 -0.003985 -0.038734 142 149 155
-0.049669 -0.031551 0.026126 156 161 168
-0.003395 -0.003983 -0.038734 147 153 153
-0.003264 -0.004021 -0.038734 156 162 162
-0.038109 0.023552 0.012686 1 4 3
0.018274 0.014379 0.012896 92 78 59
0.025983 0.001033 0.036616 162 163 159
0.051810 0.000606 0.018276 141 142 133
-0.000085 0.017923 0.008386 42 76 27
-0.033598 -0.006024 0.017496 150 153 154
-0.010173 0.018158 0.007216 117 100 82
0.006293 0.009294 0.021116 114 98 77
0.030398 -0.018613 0.016416 144 144 144
-0.003334 -0.004002 -0.038734 166 166 162
-0.003326 -0.003984 -0.038734 155 152 147
-0.003280 -0.003985 -0.038734 127 127 123
-0.003337 -0.003990 -0.038734 167 164 159
-0.003307 -0.004003 -0.038734 166 166 162
0.054689 0.003931 0.024576 141 144 147
0.054188 0.002591 0.021216 133 136 135
-0.028194 0.005395 0.028826 48 19 5
-0.011998 0.005838 0.026926 154 151 146
-0.058526 0.010407 0.033136 161 167 169
-0.003413 -0.003987 -0.038734 148 155 159
-0.003283 -0.003976 -0.038734 126 126 122
-0.003413 -0.003995 -0.038734 142 149 153
0.008225 0.008795 0.023626 113 99 82
-0.050453 0.023324 0.020826 56 51 47
0.035004 -0.031610 0.028706 157 160 161
-0.003404 -0.003999 -0.038734 153 158 165
0.051258 0.007315 0.025566 148 156 157
-0.018385 0.016557 0.013186 136 120 99
-0.003381 -0.003985 -0.038734 149 152 153
-0.036537 0.024201 0.011036 51 50 50
-0.003362 -0.004021 -0.038734 160 166 166
0.027694 0.021464 0.006936 149 155 155
-0.052461 0.015548 0.026006 2 8 6
-0.027987 0.012521 0.017676 127 113 94
0.025295 -0.009784 0.042186 99 96 91
0.022090 0.014476 0.009606 69 40 17
0.007216 -0.011136 0.049676 149 146 143
0.028888 -0.025138 0.023106 53 56 57
-0.057387 0.020119 0.026806 8 11 10
-0.003407 -0.003992 -0.038734 145 150 157
-0.008963 0.005478 0.031776 157 155 147
0.045464 -0.002766 0.031106 135 131 120
-0.003227 -0.003915 -0.038734 131 138 142
-0.003392 -0.003994 -0.038734 148 154 156
-0.007647 0.010981 0.019796 109 95 76
-0.003274 -0.003975 -0.038734 139 138 138
-0.029950 0.013546 0.017076 128 112 91
-0.003235 -0.003975 -0.038734 126 126 120
-0.003387 -0.003988 -0.038734 152 155 156
0.015407 0.012481 0.016096 86 72 53
0.013062 0.005271 0.029446 101 102 98
-0.003354 -0.003999 -0.038734 166 167 163
0.028180 0.011011 0.018536 125 113 93
-0.019499 0.017036 0.013186 136 119 101
-0.003335 -0.003999 -0.038734 169 166 161
-0.003256 -0.003947 -0.038734 159 162 163
-0.005331 0.003797 0.033266 142 137 133
0.033356 0.015912 0.008086 155 161 161
0.050873 -0.003054 0.019526 81 71 57
-0.003354 -0.003987 -0.038734 162 162 156
0.008967 0.010726 0.022096 115 101 82
0.016450 -0.012163 0.037706 64 60 51
-0.003284 -0.004021 -0.038734 169 169 173
0.006013 0.010113 0.017756 106 98 74
-0.003399 -0.003964 -0.038734 145 150 155
-0.003356 -0.004013 -0.038734 169 172 171
-0.029855 0.010399 0.023936 149 150 144
-0.003289 -0.003944 -0.038734 104 105 99
0.018298 -0.009697 0.039306 98 82 77
0.014892 0.019885 0.010186 115 103 85
0.042658 0.007764 0.029326 158 161 164
-0.003345 -0.003991 -0.038734 165 165 159
0.023636 -0.036685 0.038496 115 114 114
0.002575 0.000963 0.035566 149 143 130
0.008258 0.014972 0.009736 77 77 46
-0.003304 -0.004016 -0.038734 169 169 169
-0.003311 -0.004003 -0.038734 163 163 159
-0.022855 0.019385 0.006716 129 115 98
-0.003256 -0.004012 -0.038734 156 162 162
-0.009601 0.004878 0.030466 147 145 137
-0.003244 -0.003953 -0.038734 151 157 157
-0.003345 -0.004000 -0.038734 165 166 162
-0.006109 0.014221 0.012896 73 64 45
0.045341 -0.006124 0.032176 111 109 101
0.019410 0.008585 0.022596 101 102 98
-0.003396 -0.003984 -0.038734 149 154 159
-0.231244 0.000924 0.222356 141 147 149
0.044378 -0.015802 0.016746 150 150 146
0.027523 0.011305 0.016416 133 117 96
-0.003394 -0.004006 -0.038734 153 155 161
-0.003338 -0.004014 -0.038734 168 168 168
-0.024400 -0.030293 0.018986 163 166 165
0.034740 -0.022644 0.017846 78 82 77
0.048383 -0.013120 0.020356 148 148 142
-0.003324 -0.003989 -0.038734 163 160 155
0.023861 0.008827 0.023316 137 121 100
-0.003344 -0.003978 -0.038734 156 153 148
-0.003315 -0.003977 -0.038734 150 146 139
-0.003227 -0.003922 -0.038734 131 138 142
0.029526 0.015144 0.004546 157 158 154
0.014724 0.019688 0.007446 107 95 75
-0.003407 -0.003996 -0.038734 147 152 157
-0.003367 -0.004000 -0.038734 163 166 165
0.027667 0.008878 0.022196 142 139 134
-0.003364 -0.004020 -0.038734 165 168 171
-0.002672 0.020069 0.004546 77 73 48
-0.003389 -0.003987 -0.038734 149 155 157
-0.032342 -0.021360 0.016256 160 163 162
-0.003381 -0.004006 -0.038734 159 162 163
0.009919 -0.022196 0.039966 100 98 90
-0.003362 -0.004002 -0.038734 164 168 163
-0.023387 0.010575 0.026006 144 139 135
-0.003314 -0.003997 -0.038734 164 161 156
-0.003418 -0.003999 -0.038734 146 152 163
0.023518 -0.035736 0.038496 136 135 135
-0.003348 -0.003984 -0.038734 164 161 156
-0.003334 -0.003987 -0.038734 167 164 159
-0.003374 -0.003964 -0.038734 153 156 155
0.007468 0.018337 0.006716 80 74 50
0.004182 0.016682 0.008866 90 79 54
-0.011564 0.005766 0.025126 153 150 145
0.036973 -0.010508 0.014596 120 119 119
-0.010429 0.008166 0.020546 42 61 31
-0.003273 -0.003975 -0.038734 138 138 134
-0.003235 -0.004014 -0.038734 149 154 159
-0.003339 -0.004005 -0.038734 168 167 167
0.028508 0.010058 0.020456 141 141 135
-0.003334 -0.004001 -0.038734 165 165 161
-0.003418 -0.003958 -0.038734 18 21 20
-0.003351 -0.004011 -0.038734 164 167 166
-0.000017 0.017316 0.008326 52 84 35
0.003488 0.009388 0.018366 58 89 43
0.046766 0.008017 0.018106 151 157 159
-0.003244 -0.003918 -0.038734 152 160 161
0.034369 0.003015 0.030976 169 169 169
0.016933 -0.010719 0.038656 100 91 86
-0.003394 -0.003961 -0.038734 141 147 149
0.029534 -0.043469 0.045096 171 174 175
-0.030626 0.018385 0.012256 146 146 146
-0.035950 0.006409 0.023106 97 98 92
-0.003388 -0.003981 -0.038734 150 153 154
-0.035803 0.000700 0.023006 153 156 155
-0.032788 0.006759 0.024046 97 95 85
0.009730 -0.016123 0.036776 74 71 66
0.015135 0.019678 0.005056 106 94 74
-0.065936 0.010823 0.029446 96 99 98
-0.003417 -0.004013 -0.038734 148 158 165
0.002966 0.016962 0.008506 91 81 53
-0.055504 0.015503 0.023936 5 11 11
-0.003294 -0.004015 -0.038734 164 168 163
-0.014255 0.020654 0.007796 125 107 87
-0.012322 0.020230 0.007396 116 100 79
0.002279 0.008987 0.018536 61 91 43
-0.003403 -0.003956 -0.038734 139 145 147
-0.028349 0.015441 0.018106 137 121 100
0.011524 0.000598 0.037076 155 151 144
-0.023333 0.000854 0.029196 84 50 38
0.012699 0.015193 0.007736 116 103 81
-0.017081 -0.003236 -0.011104 151 154 153
-0.003237 -0.003942 -0.038734 155 162 166
-0.039769 -0.019689 0.019796 153 159 159
0.026876 0.020168 0.003896 155 161 161
0.056378 -0.025423 0.023106 141 144 145
-0.003264 -0.003951 -0.038734 153 159 157
0.018653 0.015599 0.010376 112 98 81
-0.019610 0.015008 0.015136 129 113 90
-0.003410 -0.003978 -0.038734 140 145 150
0.004685 -0.001931 0.038336 172 156 133
