ply
format ascii 1.0
element vertex 1210
property float x
property float y
property float z
property uchar blue
property uchar green
property uchar red
end_header
-0.045027 -0.017198 0.001596 136 141 137
0.025421 0.008108 -0.001034 129 123 121
0.024058 0.040489 -0.002284 205 204 201
0.043642 -0.015305 -0.039024 137 137 131
0.015507 0.033765 -0.008034 196 200 199
-0.003266 0.019115 0.006516 89 136 209
-0.055390 0.001453 0.001016 116 125 124
0.020260 0.028874 -0.010964 113 124 128
-0.005905 -0.009746 -0.000854 13 13 14
-0.010998 0.008456 0.015326 72 78 78
-0.011353 -0.011594 -0.000304 95 101 101
-0.058658 0.001115 0.011556 157 154 158
0.012654 -0.009859 0.005026 5 8 11
0.007920 -0.012788 0.004606 88 108 120
0.074753 0.020975 -0.010964 195 191 184
0.037281 0.005860 -0.000664 90 94 93
0.019833 -0.039233 -0.002284 169 175 175
0.028191 0.015990 0.001786 49 66 75
-0.039613 -0.032265 -0.000304 169 167 161
0.043424 -0.014605 -0.038864 137 137 131
-0.041227 -0.008451 0.009196 59 87 102
0.006783 0.036726 -0.012744 214 215 212
-0.029321 -0.010657 0.002576 82 88 87
-0.039959 -0.012356 -0.001214 159 165 164
0.044263 -0.020280 -0.043454 142 139 136
0.022214 -0.015263 0.006516 126 128 133
0.018556 0.013144 0.001986 135 135 135
0.036919 0.031522 -0.011514 170 174 173
0.049314 0.004888 -0.029434 199 198 195
-0.050380 -0.002566 0.006736 122 122 123
-0.040929 0.012846 0.019976 77 80 72
-0.026091 0.016461 0.007836 173 171 165
0.041353 -0.011090 -0.003164 111 117 117
-0.036433 -0.023044 0.007836 19 23 23
-0.024619 0.025914 0.000076 177 174 171
0.004778 0.034362 -0.018184 219 218 215
-0.019800 0.028770 -0.003334 216 217 214
-0.006321 0.020214 0.001406 96 143 202
-0.000169 -0.024004 0.004606 114 119 122
0.016638 0.015961 0.007396 128 134 134
0.060491 0.018882 -0.021854 198 197 189
-0.034150 0.022372 0.006296 175 177 171
0.020658 0.039109 -0.009084 204 203 200
-0.053451 0.018371 0.009656 28 26 26
0.018286 -0.021351 0.007176 120 128 135
-0.047151 -0.004655 0.013526 144 148 147
-0.031133 -0.021168 0.010126 152 158 157
0.018220 -0.020509 0.006516 118 121 129
0.007156 0.022137 0.002776 36 81 146
0.028822 0.037628 -0.014064 161 166 162
-0.002527 -0.035516 -0.008634 155 155 155
0.058568 0.018790 -0.021544 200 199 191
0.040887 0.020625 -0.022554 131 132 129
0.011298 -0.039497 -0.000664 67 95 110
0.038485 -0.021141 -0.014824 119 125 124
0.043411 -0.018492 -0.043874 142 141 138
0.002221 0.025670 -0.014704 235 241 241
-0.004253 0.036307 -0.017024 190 195 198
-0.055145 0.018467 0.009426 96 105 103
0.006754 -0.031660 0.002976 36 42 42
-0.056165 -0.036304 -0.001574 188 180 173
-0.020130 0.013352 0.013526 72 76 65
-0.046307 0.016730 0.010836 83 91 84
-0.065056 0.018562 0.009196 85 113 135
-0.000107 0.015951 0.018566 131 140 139
-0.033171 0.022640 0.003176 179 181 175
0.010605 -0.006904 0.013786 54 91 106
0.016411 -0.025044 0.011796 92 94 104
-0.062116 0.019163 0.006736 95 123 145
0.045383 -0.011977 -0.031174 138 140 134
-0.027151 0.017957 0.001206 178 172 170
0.041460 -0.015884 -0.039124 139 141 135
0.038218 -0.026191 -0.003334 103 109 108
0.013868 0.011451 0.020266 87 98 97
-0.004988 -0.014636 0.008736 74 79 82
-0.014090 0.023315 0.001786 197 193 193
-0.031097 -0.022983 0.008736 57 62 65
-0.060689 -0.036901 -0.003844 190 182 175
0.008102 -0.023524 0.011556 120 125 128
0.042836 0.001266 0.004606 107 113 112
0.011838 0.021653 0.000446 70 109 158
-0.029215 0.006127 0.008286 119 113 99
0.000296 -0.027959 -0.006314 22 33 80
0.022773 0.026142 -0.014574 125 137 145
0.022646 -0.009837 0.004816 29 37 51
0.019534 0.016254 -0.005504 164 160 160
-0.039358 -0.010062 -0.000304 36 45 49
-0.010457 -0.001163 0.004196 21 25 25
0.010274 0.014232 0.010596 126 130 129
-0.056058 -0.007929 0.013526 99 105 104
-0.058815 0.030894 0.003576 190 188 182
-0.024649 -0.035216 0.012036 39 39 39
0.009146 0.023246 -0.002464 45 88 146
-0.000644 -0.024036 0.005236 117 123 123
-0.041710 -0.031463 0.000636 33 38 41
-0.022197 -0.028747 0.002186 159 160 157
-0.030635 0.003247 0.006736 27 38 69
0.034309 0.025329 -0.015324 116 124 131
0.019365 0.016564 -0.006794 157 155 156
-0.015654 -0.011357 0.008516 59 64 67
-0.072502 0.008137 0.004396 155 164 163
-0.058748 0.019307 0.001986 91 119 141
-0.051372 -0.012327 -0.002284 175 171 171
-0.003244 -0.033062 -0.004854 102 111 110
-0.025593 0.016628 0.008736 199 198 195
-0.028877 0.025327 -0.003334 191 190 187
0.029007 0.027670 -0.013404 115 128 134
0.023314 -0.034367 0.007396 150 155 151
0.044315 0.027356 -0.022754 184 184 178
-0.054275 -0.026214 0.005236 32 27 22
-0.054857 -0.004760 0.000826 167 166 163
-0.033284 -0.001484 0.009196 66 86 98
-0.045814 0.023849 0.007176 178 180 174
0.018840 -0.011031 0.004606 13 22 40
-0.054185 -0.006649 0.009896 112 116 115
-0.006834 -0.017366 0.013026 12 12 13
-0.016468 0.035314 -0.019524 185 183 184
-0.019313 -0.022758 0.005026 29 34 30
-0.035475 -0.031991 0.001016 166 174 167
0.026631 0.020126 0.003786 119 137 154
0.038536 0.025564 -0.014704 116 122 121
0.028821 -0.018720 0.005866 89 106 107
0.037333 -0.003272 0.012036 116 117 114
0.009807 -0.014139 0.004606 81 101 113
0.024233 0.002369 0.009656 88 70 44
0.042931 -0.000946 -0.035474 199 198 195
0.034687 -0.011141 0.004396 17 35 40
-0.068637 -0.025630 -0.000304 182 177 167
0.038613 -0.033082 -0.006794 66 69 72
-0.024202 0.025064 -0.004524 159 159 159
-0.010110 -0.032092 -0.003334 53 63 58
0.022500 0.008926 0.002976 124 122 122
0.043050 -0.014217 -0.040304 132 131 128
0.037997 -0.006801 0.016916 99 105 105
-0.057373 -0.036619 -0.000854 186 180 173
-0.019979 0.012540 0.013026 68 68 44
0.040066 -0.008340 0.001786 99 103 102
-0.007560 -0.008657 0.003786 48 55 51
-0.000332 0.004681 0.010126 5 9 9
-0.009780 -0.031004 -0.007574 14 21 17
-0.074180 0.024779 0.004606 176 175 172
-0.019372 -0.029075 -0.000304 91 89 83
0.021448 0.016448 -0.002284 137 139 144
0.044518 -0.028222 -0.023044 143 144 141
0.016764 -0.012299 0.003986 145 146 169
0.033037 -0.021011 0.006296 68 89 91
-0.002628 0.024785 0.001016 20 62 129
-0.026917 -0.028121 -0.005184 25 34 32
-0.015821 -0.011634 0.009656 73 77 77
-0.016740 0.029811 -0.008934 213 213 207
0.024509 -0.023549 0.008736 35 40 43
0.035986 -0.036672 0.000446 74 74 75
0.036089 0.023147 -0.017614 98 108 110
-0.020387 -0.005389 0.016386 128 134 134
0.042362 0.013699 -0.029974 196 197 194
0.031349 -0.041765 -0.005504 192 192 186
0.039886 0.035017 -0.013544 197 199 193
-0.005489 -0.018296 0.010126 98 106 108
0.027025 -0.008716 0.014036 70 70 51
-0.008250 0.025401 0.000076 189 198 197
-0.060818 0.030930 0.040606 175 177 171
-0.032218 0.019840 0.002576 178 178 172
-0.002437 -0.016861 0.005446 60 67 78
0.043528 -0.021162 -0.044904 142 140 134
0.020334 -0.025626 0.008056 150 153 156
-0.046886 0.018801 0.010356 155 158 150
0.025808 0.009324 0.002976 141 138 135
0.036933 -0.012395 -0.003504 13 17 16
0.020456 -0.033884 -0.003164 159 168 167
-0.041498 -0.015948 -0.001574 79 85 85
0.061312 -0.004441 -0.027654 201 195 188
0.025010 0.008303 0.000826 135 129 127
-0.055509 -0.007270 -0.003164 131 141 136
0.017241 0.021720 0.013026 141 145 145
-0.024307 -0.035593 0.011076 155 166 164
0.032405 -0.033232 -0.002644 173 169 170
0.034168 -0.031304 -0.016544 143 147 146
0.039295 0.024497 -0.020814 128 137 135
0.028663 0.002194 -0.000114 146 142 143
0.012529 0.014155 0.009196 128 134 133
-0.010112 0.025742 -0.002814 220 224 223
0.016305 -0.039405 -0.001394 94 117 133
0.016567 0.012488 0.006516 60 61 58
0.022741 -0.042448 0.001986 172 176 176
0.043280 -0.014438 -0.040844 137 137 137
-0.014469 -0.015806 0.005656 154 158 158
-0.022754 -0.009781 0.008286 78 85 81
0.046470 0.002111 -0.034784 200 195 190
0.000362 -0.028680 -0.007874 45 62 110
-0.063976 0.030461 0.010356 194 192 180
0.028963 0.029426 -0.014314 103 105 99
-0.036519 0.012356 0.010596 76 77 69
0.023288 -0.008432 0.016116 70 70 46
0.042955 -0.020986 -0.044334 130 124 122
-0.076900 -0.000631 0.008516 128 137 146
-0.028306 0.029321 -0.003504 196 198 192
-0.071944 0.010674 0.013526 58 72 96
0.020090 -0.042346 -0.000304 178 182 181
-0.041797 -0.031412 0.001206 30 33 36
0.036957 0.006792 0.006086 50 56 56
-0.022194 -0.012304 -0.001574 14 19 15
0.018131 0.028030 -0.001934 156 162 162
-0.012386 -0.019297 -0.001214 150 156 155
0.018961 0.022991 -0.003334 119 122 125
-0.072217 0.018744 0.004816 152 153 150
0.019963 -0.007994 0.016386 61 46 0
-0.021940 0.011242 0.014546 74 74 48
0.016217 0.022245 0.002186 147 151 151
-0.055730 -0.007988 -0.004684 170 167 164
0.042866 0.020465 -0.025574 195 194 191
-0.053543 -0.014616 -0.008034 24 24 24
-0.013337 -0.008990 0.000446 21 25 24
-0.010899 -0.002365 0.003786 19 23 22
0.015223 0.036514 0.002976 197 203 202
-0.061444 0.025934 -0.002984 189 185 178
0.043524 -0.006390 -0.037254 154 158 157
0.032084 -0.030775 -0.001574 166 162 163
-0.051705 0.017876 0.012286 105 111 104
0.026178 0.021262 -0.001034 123 140 154
0.011793 0.029104 -0.001034 174 182 184
-0.040290 -0.031249 0.005236 53 54 51
-0.006085 0.003907 0.006086 26 25 29
-0.047889 0.007619 0.000446 158 162 161
-0.055761 -0.007185 0.013526 137 143 142
0.043158 -0.019993 -0.045904 217 209 202
0.042152 -0.012408 -0.033414 133 138 134
0.040977 0.008388 -0.029824 128 135 131
0.004411 0.038932 -0.012874 167 167 167
-0.055064 -0.014529 -0.007874 173 173 167
0.046173 0.003286 -0.034084 207 202 197
-0.038268 0.020590 0.013276 162 164 158
0.006991 -0.024434 0.009426 21 22 30
-0.033259 -0.021804 0.006736 127 131 130
0.036763 -0.000749 0.000076 95 94 91
0.045733 -0.003459 -0.036504 203 199 192
-0.063696 0.022216 0.002576 91 113 133
0.038558 -0.015366 0.000826 18 16 16
0.046597 -0.012242 -0.042574 217 204 198
0.042790 -0.027084 -0.010964 123 129 128
0.012902 0.001553 0.011556 82 114 144
0.029085 0.011604 -0.000484 111 108 105
-0.042919 0.011758 0.015066 55 65 53
-0.045830 -0.013784 0.000636 105 105 105
0.029853 -0.000229 0.002186 117 110 92
0.031224 0.012661 0.001406 151 147 140
0.005633 -0.020522 0.007836 150 155 158
0.022014 0.008070 0.002376 125 123 123
0.039455 -0.020625 -0.005834 112 118 117
0.023158 -0.024714 0.011076 8 15 19
0.031785 -0.010107 0.003576 38 53 54
-0.004424 -0.035375 -0.001394 153 153 154
0.009112 -0.009349 0.016116 74 83 87
-0.035538 -0.018864 0.005236 165 169 168
0.006140 0.008907 0.018566 84 93 91
0.025407 -0.010602 0.004396 51 65 82
-0.051632 0.002562 0.006956 121 125 124
0.003311 0.028034 -0.004014 195 210 211
0.030408 0.003394 -0.001754 144 142 142
-0.006616 0.022088 0.001596 83 131 188
-0.076042 0.017887 0.010836 69 82 103
0.043613 0.036476 -0.016904 171 171 171
0.023566 0.021284 -0.019524 240 230 221
0.036576 -0.011628 0.003986 66 82 85
-0.053369 -0.005201 0.001786 170 169 166
0.023443 -0.005125 0.014036 88 73 38
0.038710 -0.003179 -0.035044 125 131 130
-0.017105 0.016014 0.016116 197 198 195
0.002599 0.023793 0.005446 40 78 145
-0.052928 -0.022334 -0.006944 179 174 169
0.038930 0.002060 -0.000304 104 108 107
-0.055035 -0.020277 -0.009374 93 95 89
0.040770 0.002067 -0.004014 113 117 116
0.040046 -0.027666 -0.016904 126 132 131
-0.024720 -0.021888 0.008286 158 163 159
0.038289 0.018131 -0.012474 100 100 100
0.026682 -0.052117 0.013786 182 188 187
-0.070813 0.018142 0.007836 108 105 114
-0.056037 -0.020464 -0.009524 174 170 163
-0.043718 -0.005396 0.010596 129 146 153
0.033858 0.021316 0.000636 117 134 148
0.002043 -0.037068 -0.009674 76 87 105
0.037416 -0.019633 -0.002464 96 102 101
0.028362 0.035234 -0.014574 204 205 202
0.021760 -0.021362 0.010356 114 120 127
0.023942 0.013960 -0.000114 182 176 169
0.003593 0.022543 0.009196 24 71 144
-0.010519 0.025412 -0.007414 235 239 239
-0.071326 0.011032 0.014036 74 88 112
0.030639 0.012800 0.000636 155 150 145
0.026704 -0.038814 -0.002114 163 168 171
0.018158 0.028999 -0.005014 156 162 161
-0.025312 -0.024785 -0.011514 162 165 157
-0.000687 0.021745 0.009426 37 82 153
0.039691 0.023853 -0.021954 125 131 130
0.005693 0.001004 0.013786 53 46 0
-0.035731 -0.019455 0.004816 161 165 164
0.129946 0.083582 0.070856 183 185 179
0.042556 0.002929 -0.031464 136 140 139
-0.021809 0.026751 -0.003844 152 156 155
-0.031272 -0.012817 0.004816 145 151 151
0.029634 -0.016959 0.005236 72 89 90
-0.006174 0.003854 0.005026 25 25 26
-0.053653 -0.029090 -0.013674 117 105 101
0.040295 -0.004363 0.000636 107 112 108
0.029986 0.002712 0.000076 126 124 124
-0.053363 -0.019022 -0.008934 146 135 137
-0.009123 -0.031229 -0.011934 38 36 37
0.037660 0.002290 -0.001034 98 102 101
-0.010312 0.013014 0.018846 74 74 75
0.027385 0.031448 -0.017374 209 208 205
0.037420 -0.006903 0.009426 81 87 87
0.026410 0.027137 -0.013934 116 128 136
-0.015893 -0.028121 -0.005184 36 43 34
0.037782 -0.011924 0.003176 64 68 67
-0.006320 -0.011843 0.003576 107 107 108
0.014029 -0.028541 0.013786 149 154 157
0.000104 0.026559 -0.000304 32 74 134
0.030578 -0.022417 0.008736 79 96 103
-0.045266 -0.029764 0.006956 159 159 153
-0.041199 0.011002 0.013786 54 60 53
-0.032161 -0.004106 0.010836 144 158 175
0.002139 0.014394 0.013526 112 113 110
0.033199 0.031110 -0.018074 200 201 198
-0.006588 0.013800 0.011556 12 18 17
0.044935 -0.010706 -0.039444 214 205 194
0.045440 -0.011556 -0.040604 209 205 198
-0.026476 -0.020109 0.009196 158 162 162
-0.028378 0.022494 0.017736 199 193 191
0.001008 -0.024664 0.003576 117 122 125
0.042549 -0.017427 -0.000484 112 121 119
-0.047089 -0.000087 0.004196 104 104 121
0.008471 0.033887 0.003376 217 221 221
0.043091 -0.014483 -0.040504 128 127 124
-0.006232 0.007350 0.009426 52 52 53
0.024981 -0.014612 0.005026 54 68 92
0.037435 -0.023127 -0.005834 31 31 32
0.017919 0.021874 -0.001574 99 101 106
0.018929 -0.028333 0.004196 144 152 154
-0.015193 0.030131 -0.009814 213 212 209
0.046534 -0.012443 -0.031244 136 138 132
0.044162 -0.015435 -0.041894 203 205 199
0.039441 0.035277 -0.016664 164 162 162
0.044204 -0.010555 -0.038914 196 196 190
0.014668 0.020368 0.002576 142 146 151
0.037912 -0.018775 -0.003504 17 17 18
0.045781 -0.011634 -0.030124 136 137 134
0.004017 -0.028954 -0.001754 40 38 38
-0.026319 -0.027347 0.006296 149 153 152
-0.018323 -0.000347 0.008966 103 103 104
0.040654 0.021109 -0.014444 107 113 113
0.014984 -0.033270 0.003376 62 79 93
-0.053723 0.019180 0.009426 127 133 126
-0.055310 -0.033728 -0.002644 161 158 148
-0.049542 -0.031433 -0.000484 107 106 103
0.008718 -0.016053 0.006296 84 101 108
-0.036042 0.013799 0.014546 89 93 82
0.012347 -0.015788 0.003986 47 55 89
0.043376 0.007367 -0.030054 168 174 174
-0.000741 -0.036360 -0.009964 31 40 92
0.037784 -0.035513 0.000446 178 176 176
0.034657 0.010219 0.007176 139 135 135
0.018509 0.040927 0.002776 201 206 202
0.034703 0.021399 -0.012474 209 204 194
-0.026441 -0.001715 0.005236 213 200 180
0.044610 0.005052 0.011556 105 111 110
-0.053881 0.003946 0.001596 27 33 33
-0.028111 -0.030985 0.005656 149 151 145
-0.018112 0.014289 0.014806 84 84 84
0.020934 -0.034271 0.001206 12 16 16
0.001832 0.025405 -0.015944 234 240 239
0.023106 -0.030419 -0.004184 141 134 129
0.026291 -0.021162 0.006956 82 91 95
0.042568 0.009105 -0.028554 124 130 130
0.047799 0.001169 -0.036084 199 199 193
-0.023656 0.020512 0.014296 193 186 187
-0.004839 0.004870 0.013526 47 54 58
-0.005887 -0.018260 0.000446 133 139 139
0.032718 -0.010641 0.003576 51 70 72
0.011891 -0.013765 0.002186 52 60 87
0.021399 -0.024227 0.012036 78 80 90
-0.016324 0.031375 -0.008484 212 211 208
0.010649 0.022753 -0.001574 57 100 153
-0.029404 0.001067 0.008736 187 158 98
-0.031015 -0.007314 0.009196 166 172 179
0.038485 0.009057 -0.000484 89 98 97
0.036937 0.033949 -0.012874 199 200 197
0.003869 0.022541 0.006956 34 78 147
0.002850 -0.000196 0.011796 105 90 36
0.044409 -0.008846 -0.038914 209 202 197
-0.000259 -0.014614 0.004196 39 49 64
-0.025062 0.015394 0.018006 72 80 73
-0.000308 0.004238 0.009896 58 77 79
0.009123 -0.025249 0.010356 147 153 152
0.027473 -0.007519 0.014036 70 66 47
-0.022979 -0.007393 0.012286 102 108 108
0.039489 0.026106 -0.016784 127 133 132
-0.015491 0.029894 -0.007874 215 216 213
-0.055159 -0.026048 0.006086 22 27 23
-0.030202 0.025586 0.000256 185 186 183
0.008683 -0.022413 0.011796 106 110 115
-0.028423 0.026602 -0.002464 191 196 192
-0.051416 -0.003171 0.008516 115 119 119
0.015103 -0.004337 0.016916 91 99 101
0.008668 -0.007818 0.014036 28 38 58
0.023835 0.021050 -0.019634 241 232 221
0.039039 0.001388 -0.001754 106 110 109
0.014726 0.027099 -0.002464 167 175 177
0.010315 0.040023 0.001986 210 211 208
-0.055995 -0.006503 0.014546 134 141 137
-0.017271 -0.026820 0.005446 157 161 160
0.007534 0.001682 0.010836 79 79 89
0.025046 -0.024076 0.006956 146 152 152
0.001061 -0.020984 0.007396 107 114 118
-0.021585 -0.011673 0.006516 144 150 149
-0.013906 0.027434 -0.005014 233 239 238
-0.019662 0.002872 0.007836 58 57 49
0.043937 -0.015375 -0.041704 156 156 150
0.025904 0.029866 -0.011514 126 139 145
-0.041040 0.019244 0.011796 161 163 157
-0.007388 -0.000004 0.021136 31 34 37
0.122600 0.012142 0.138316 125 131 130
-0.003109 0.001136 0.012776 179 188 192
0.011726 0.032313 -0.007104 211 215 214
-0.053338 -0.027830 -0.014954 31 38 29
-0.034193 -0.012422 0.006956 160 166 166
-0.009860 0.028620 -0.027154 219 218 215
-0.011987 -0.013224 0.001206 135 139 138
0.043436 -0.014356 -0.040894 136 136 136
0.005524 0.007312 0.014296 104 110 110
0.046712 0.005656 -0.017724 129 133 132
0.000587 -0.016155 0.003786 45 57 67
0.005721 -0.022526 0.009196 154 159 162
-0.059864 -0.025611 0.008516 176 174 168
0.012994 -0.038217 0.000446 147 158 162
-0.010817 -0.008373 0.008286 132 138 138
-0.045896 0.022616 0.016916 166 168 162
0.042923 -0.012328 -0.039694 125 123 123
-0.018212 -0.022802 0.006296 12 13 10
-0.063535 0.005198 0.006956 135 141 141
-0.009655 -0.003847 0.000636 25 23 24
-0.009741 -0.039133 0.003376 165 169 168
0.037241 -0.025850 -0.010674 13 18 14
0.002349 -0.039492 -0.005504 129 129 130
-0.004075 -0.027097 0.008286 146 149 152
0.045999 0.005227 -0.032324 201 199 193
0.027866 -0.025763 -0.001934 102 111 110
-0.041694 -0.030726 0.006516 165 168 160
0.000569 0.019855 0.006736 45 98 173
0.013480 0.006715 0.018566 83 91 93
-0.015438 0.029367 -0.008034 214 214 214
0.004642 -0.038733 -0.001754 34 47 19
0.026346 -0.020509 0.006516 64 75 79
0.204065 0.046167 0.138316 201 196 186
-0.023421 -0.023157 0.017736 155 161 161
-0.039705 -0.029280 0.010356 164 165 162
-0.023017 -0.011449 -0.001394 20 27 23
-0.017340 0.015667 0.015856 152 159 155
0.045451 0.000640 0.008516 115 119 118
0.040946 -0.011685 -0.004184 114 120 119
-0.075842 0.013202 0.020266 76 88 112
-0.008768 0.025737 -0.000484 186 195 194
0.037973 0.019134 -0.004014 88 95 99
-0.005746 -0.026835 -0.004354 136 140 140
0.030321 0.019843 -0.000114 121 140 154
0.044656 -0.000433 -0.037254 206 204 198
-0.020847 0.023268 0.007616 187 183 183
-0.017803 0.012397 0.015326 77 84 80
0.042767 -0.020100 -0.046464 211 202 197
0.043161 -0.012141 -0.039384 134 132 132
-0.030272 0.019327 0.004396 154 155 152
0.037667 0.018401 -0.003504 81 88 92
-0.013653 0.024306 0.007836 198 194 194
-0.020805 0.022044 0.013786 187 185 185
0.013017 0.028941 -0.004524 180 185 188
0.039164 -0.031373 -0.008934 102 111 109
-0.051046 0.002945 0.006086 126 130 130
-0.002208 0.031443 -0.006944 229 230 227
0.040317 -0.023291 -0.004854 113 119 119
-0.053997 -0.027067 -0.012204 110 101 96
0.010442 0.038160 -0.014064 162 162 162
0.017398 0.014252 0.000826 154 157 160
-0.030022 -0.034984 0.013026 36 42 35
-0.034934 -0.027867 -0.000484 162 160 160
0.043020 0.033022 -0.016664 164 170 163
0.043838 0.036404 -0.016664 168 168 168
0.042163 0.036052 -0.014824 164 164 164
-0.050834 -0.012670 0.000076 155 161 160
0.003468 0.033167 -0.002814 221 221 221
-0.035461 0.002083 0.004816 43 66 150
0.015499 -0.011081 0.005026 19 25 44
0.030194 0.020227 -0.000114 117 136 150
-0.049290 0.021925 0.007836 173 172 169
0.042570 -0.014688 -0.000114 113 119 119
0.037617 -0.007627 -0.007264 106 110 109
-0.036939 0.028370 0.008286 187 188 185
-0.010387 0.002979 0.006956 34 37 40
0.041455 -0.009522 -0.005014 114 123 121
0.025676 0.017574 0.004396 71 85 95
0.037655 0.035415 -0.017724 158 162 161
-0.015480 0.012543 0.018846 79 80 77
-0.049059 0.016570 0.011556 59 66 62
-0.048039 -0.032176 0.010836 165 164 156
0.028605 -0.003522 -0.004524 99 84 69
0.039871 0.015334 -0.003504 96 102 102
-0.011772 0.012874 0.021436 12 21 19
-0.051495 -0.022541 -0.014064 35 30 25
0.036287 0.022953 -0.001754 107 123 135
-0.056817 -0.026064 0.007616 74 81 77
0.023719 -0.036320 -0.000664 162 168 168
0.044397 0.001405 -0.031684 141 145 145
0.035455 0.019363 0.003376 108 127 141
0.002455 -0.040890 -0.005344 157 161 166
0.044002 0.008106 -0.019744 127 134 130
-0.038846 -0.021788 0.006086 97 103 102
-0.021133 -0.002821 0.011556 99 105 105
-0.049689 -0.022081 0.006736 117 118 115
0.050827 0.008229 0.006736 125 130 126
0.023428 0.007525 0.002186 144 142 136
0.020274 0.033157 -0.009374 204 208 207
-0.013721 0.011494 0.016646 99 104 100
-0.042102 -0.013089 -0.002984 100 106 105
0.039149 0.030470 -0.009814 169 173 172
-0.006168 0.002039 0.019406 15 14 18
0.038333 0.017602 -0.013674 102 108 108
0.043638 -0.028477 -0.010814 127 133 132
-0.003404 -0.034965 -0.006794 157 158 155
0.033579 0.022088 -0.015324 204 198 184
0.007073 -0.001954 0.012036 116 108 72
0.006864 -0.043198 0.003786 171 171 172
0.216625 -0.036514 0.138316 206 196 187
-0.024588 -0.009009 0.000636 44 46 40
-0.059861 -0.034652 -0.003674 191 184 174
0.042738 -0.009595 -0.038594 138 136 136
0.035467 0.019669 0.002976 112 131 145
-0.004703 -0.031305 -0.000484 30 34 34
-0.041394 0.022773 0.003176 179 181 175
-0.005803 -0.014274 -0.004684 11 17 17
0.042883 0.021523 -0.022654 133 139 138
-0.041018 0.007409 0.010126 80 90 85
-0.013768 -0.004908 0.009426 152 156 156
0.017218 0.011876 0.006086 111 115 114
-0.037615 0.030031 -0.004524 193 191 185
0.050780 -0.007499 -0.034974 210 204 197
0.036722 0.007696 0.008516 100 98 98
0.025106 0.021085 -0.002644 120 136 153
0.024664 0.013673 -0.001034 164 161 158
0.011238 -0.024059 0.008516 85 91 91
0.019492 0.023936 -0.013934 111 112 120
0.036847 0.001049 0.016646 88 94 93
-0.054066 -0.027350 -0.012614 47 38 39
0.002516 0.004694 0.010356 7 9 14
0.012227 -0.002566 0.013276 106 141 168
0.028843 0.016775 0.001786 71 88 95
0.003295 -0.002432 0.014036 80 104 184
-0.022979 0.025923 -0.004854 166 170 169
-0.080027 -0.007761 0.013276 130 135 131
-0.006067 -0.010656 -0.000664 13 13 14
-0.051729 -0.012285 0.000076 170 169 166
0.029946 0.005053 0.002576 56 60 59
0.025353 0.019496 0.003376 118 137 151
-0.068249 0.022617 0.004606 101 120 143
-0.045814 0.019900 0.013526 166 167 159
-0.034441 -0.029475 0.004396 160 162 156
0.043564 -0.041398 0.003376 143 148 144
-0.014118 -0.005987 0.010836 152 156 156
-0.064738 0.025278 -0.001934 191 185 178
0.043673 0.034485 -0.017954 171 176 172
0.024503 0.009167 0.001596 135 131 131
-0.071830 0.019461 0.004396 164 163 160
0.019602 0.032295 -0.008484 203 209 208
0.041967 0.022018 -0.021024 132 136 135
-0.023498 -0.003333 0.009196 204 201 198
0.005984 -0.038952 0.002376 108 118 125
-0.062329 0.017636 0.011796 89 115 137
0.011020 -0.021589 0.012036 119 123 128
0.029877 0.023393 -0.017494 154 150 138
0.046224 -0.003055 -0.035964 206 202 195
0.038021 -0.023234 -0.010104 114 120 120
0.014328 0.022958 -0.000854 153 158 161
0.045027 -0.003726 -0.039744 207 201 194
0.012807 0.031875 -0.006474 198 204 204
0.005405 0.033420 -0.018644 216 217 214
0.023591 0.021419 -0.019414 240 230 221
-0.061050 0.024599 0.000826 131 140 151
-0.021053 -0.023911 0.007396 34 40 40
-0.011728 -0.027399 -0.010104 52 51 55
-0.039766 -0.019681 0.006516 134 139 135
-0.015380 -0.022928 0.003576 34 40 40
0.042742 0.021309 -0.023244 154 160 159
0.009056 0.029510 -0.012614 207 211 210
0.004231 0.001590 0.013276 117 112 61
0.029487 -0.041143 -0.004854 210 209 206
-0.053041 -0.035029 0.002776 85 80 75
0.017921 0.018253 -0.007104 176 174 174
0.041710 0.004469 -0.035104 202 201 198
-0.040966 -0.015890 -0.001214 128 121 123
0.008392 0.034171 -0.011514 211 212 209
0.033786 0.015542 0.002186 43 56 69
0.042883 -0.017823 -0.044694 173 174 171
-0.059449 0.022941 0.000446 86 106 124
-0.054986 -0.004760 0.000826 168 167 164
0.020282 -0.044386 0.002186 182 186 186
0.044859 -0.014863 -0.040354 202 201 198
-0.054724 -0.028611 -0.006474 169 168 160
-0.005835 0.019869 0.001596 93 140 205
-0.052792 -0.023951 -0.010674 182 175 170
-0.016383 -0.019293 0.012286 156 160 160
-0.056292 0.023542 0.005026 183 181 175
0.048245 0.028899 -0.018524 190 190 184
0.024006 -0.007574 0.014806 74 70 51
-0.016564 0.029872 -0.008784 217 215 209
0.019364 -0.034530 0.002186 13 15 25
-0.061861 0.020229 0.009656 86 116 139
-0.053770 0.004307 0.005866 142 148 148
-0.031544 0.011157 0.016386 56 63 54
0.020451 0.006015 0.006736 62 71 70
-0.042708 0.005390 0.005656 30 30 42
0.037458 0.036460 -0.009814 202 204 198
0.040701 0.033119 -0.014574 164 169 165
0.032241 -0.002793 0.004816 81 82 74
0.029674 0.016553 0.001986 51 68 77
-0.033473 0.023559 0.002186 182 184 178
0.042819 0.013050 -0.027574 142 148 147
-0.023961 0.000357 0.008516 177 137 81
0.029929 0.009290 -0.000664 116 112 112
-0.054276 -0.027360 0.009196 148 147 144
-0.043742 0.024346 0.029696 164 166 160
0.039604 0.035615 -0.011934 197 198 195
0.021491 0.029793 -0.012204 125 135 142
-0.001569 0.021913 0.005026 28 78 148
0.027226 -0.026636 0.009656 124 133 137
-0.014573 0.001886 0.007616 155 147 152
-0.006803 0.013761 0.017466 13 20 16
-0.017253 0.027049 0.020266 192 190 190
0.016994 -0.027967 0.011796 139 144 147
-0.025364 0.004111 0.007396 59 50 39
-0.037159 0.014519 0.015326 78 87 73
0.031364 0.025319 -0.015074 119 123 128
0.038328 -0.016704 0.006086 89 95 94
-0.036178 -0.002924 0.009896 59 124 144
-0.092247 -0.017386 0.026696 169 167 161
0.031221 0.023752 -0.016784 200 196 182
-0.034787 0.022168 0.000446 179 181 175
0.002980 -0.000488 0.012036 110 100 66
0.020174 -0.002530 0.011556 129 126 109
-0.000166 0.004238 0.009896 57 76 78
0.019883 0.003097 0.000076 59 44 29
-0.032876 -0.035355 0.016646 31 35 34
0.036989 -0.039115 -0.008334 159 157 157
0.009998 0.015232 0.012286 68 71 74
-0.051578 -0.011237 -0.005674 122 126 126
0.010377 0.017034 0.007176 129 154 165
-0.030112 0.025866 -0.002814 192 193 190
0.011726 -0.036399 0.001016 67 96 122
0.050818 0.013040 -0.028314 200 199 191
-0.053718 -0.026832 0.005026 106 101 96
0.042744 0.008040 -0.032394 202 202 196
0.022614 0.030706 -0.012614 187 196 194
0.042387 0.014706 -0.028714 197 197 191
0.045903 -0.011499 -0.029584 138 139 136
-0.067889 0.017576 0.008516 94 116 134
0.012380 -0.029334 0.001206 115 118 121
-0.020993 0.023523 0.008056 187 183 183
-0.012434 0.007899 0.009196 72 77 73
-0.049238 -0.006621 0.014036 138 138 138
-0.047083 -0.027988 0.004816 164 166 160
0.000424 0.024254 0.002776 21 65 134
-0.025839 -0.012689 -0.000664 29 38 36
0.002976 0.026581 0.002186 30 69 132
0.013115 -0.003605 0.013276 60 90 118
0.026015 -0.047384 0.006956 185 189 188
-0.038151 -0.015957 -0.000854 89 98 97
-0.035316 0.023023 0.001206 178 184 177
-0.038361 -0.027763 -0.008484 33 34 31
-0.045106 -0.033830 -0.000854 40 34 32
0.013498 0.022888 0.000256 147 150 158
0.019654 -0.038535 -0.005504 170 174 173
-0.034208 -0.002918 0.009656 65 102 138
0.004873 0.025952 -0.003674 27 69 129
-0.010211 -0.021200 -0.006794 19 27 29
0.002223 -0.016214 0.003376 48 59 72
-0.055274 -0.027355 0.005866 28 26 26
-0.058360 -0.029207 0.006516 161 155 153
0.012966 0.035443 -0.002984 206 210 209
-0.018779 0.031388 -0.006794 204 205 202
0.037673 -0.024199 -0.005834 27 27 27
0.018491 -0.033878 -0.008184 164 168 168
0.031624 0.020770 -0.016184 176 168 161
0.021323 -0.009995 0.005026 40 56 73
0.039821 0.002953 -0.000304 105 109 108
0.027067 0.018391 0.001406 121 138 152
0.050300 -0.021859 -0.040254 222 205 197
0.011390 -0.033195 0.003176 78 95 104
0.042710 0.001379 0.003576 107 113 112
-0.041736 -0.016989 -0.001394 88 97 96
0.027360 -0.003641 -0.001394 112 117 113
0.003318 0.000384 0.011316 131 108 36
0.006148 -0.005696 0.013526 34 38 57
0.045908 -0.013622 -0.042574 215 204 198
-0.035120 0.020374 -0.019304 189 187 181
0.041642 -0.006683 -0.037714 141 141 135
-0.014516 -0.016339 0.004816 157 161 161
-0.034224 -0.024858 0.002376 164 165 162
0.015543 0.013594 0.005656 122 131 129
0.026243 0.004136 -0.001934 149 149 149
-0.005370 0.024901 -0.000304 61 99 151
-0.008936 0.010972 0.014806 102 106 105
0.001087 0.029212 -0.002464 217 230 229
0.037850 0.019320 -0.005674 94 102 104
-0.049877 0.011584 0.016116 145 147 136
-0.027709 0.016476 0.001596 161 164 156
-0.051870 0.020333 0.012776 165 168 160
0.018327 0.033576 -0.006634 204 204 204
-0.023069 -0.023527 0.016646 154 160 159
-0.039709 -0.009087 0.001406 38 46 48
0.035760 0.017168 0.001786 81 98 107
0.036537 -0.036225 -0.001754 127 125 126
0.037746 -0.021661 -0.013804 118 124 124
0.048786 0.004610 -0.030584 198 197 194
-0.080682 -0.011148 0.013026 134 133 130
0.041966 0.036079 -0.014574 164 162 162
-0.044686 0.027867 0.011796 185 186 178
-0.031355 0.024959 0.001596 176 181 177
0.049247 -0.011352 -0.040104 213 203 194
0.043131 0.012048 -0.029664 195 197 191
-0.043374 0.025529 0.011796 182 182 176
0.040867 -0.008472 -0.004684 113 119 118
-0.010365 -0.006382 0.003786 59 61 66
0.023561 -0.026550 -0.002984 144 150 150
-0.003710 0.032784 -0.001934 211 218 214
-0.031121 -0.019456 0.004196 157 164 160
-0.006917 0.012162 0.013526 13 19 19
0.041039 0.034201 -0.009084 167 167 167
0.028732 -0.034725 -0.003504 163 166 174
-0.021237 0.006226 0.009656 42 46 23
0.003388 0.005846 0.012536 105 112 108
0.043323 0.015327 -0.016064 132 136 135
0.027818 0.006338 -0.001034 126 126 127
0.005522 0.039940 -0.009234 207 207 207
0.001451 -0.028048 -0.008334 29 30 79
-0.053412 -0.006672 0.000446 164 168 167
0.004857 0.014536 0.012536 114 118 117
0.040437 0.006985 -0.004854 118 124 123
0.008595 0.007534 0.025406 81 87 87
0.025708 0.022350 -0.002114 120 141 157
0.032290 0.012751 0.001986 151 146 141
0.012781 -0.033407 0.004816 122 131 130
0.014620 -0.029210 0.011076 149 154 157
0.017702 0.028715 -0.002464 153 159 159
0.019411 -0.018353 0.006086 58 61 82
0.022794 0.004112 -0.000114 50 53 56
-0.017856 -0.004289 0.011796 120 125 128
-0.068773 0.018660 0.013276 93 119 141
0.017508 -0.034043 0.000636 105 109 114
0.043208 0.007762 -0.031684 197 198 195
0.043599 -0.014147 -0.044824 216 204 195
0.209836 0.024051 0.138316 201 194 189
0.014279 0.024100 0.000446 162 162 163
0.037426 -0.022391 -0.004184 99 105 105
0.011689 0.020135 0.004396 69 112 163
-0.067208 -0.047010 0.018286 181 176 171
-0.051821 -0.009734 -0.003164 131 129 129
-0.000656 -0.000339 0.013276 137 161 169
0.044188 0.002973 -0.030804 131 137 136
-0.040828 -0.018323 0.001986 124 124 124
0.048519 -0.016392 -0.008934 128 134 133
0.013792 0.025071 -0.001394 168 176 178
-0.006962 -0.022082 0.010356 20 23 26
-0.050524 -0.011785 -0.005184 174 168 166
0.044055 -0.007145 -0.040204 201 196 186
0.038764 0.023556 -0.038154 189 189 183
-0.062823 0.017327 0.009426 92 119 143
0.043057 -0.036182 -0.004354 137 141 140
-0.004186 0.011873 0.021136 69 75 75
0.042309 0.020428 -0.022854 130 135 131
0.007792 0.036111 -0.014314 220 217 214
-0.054404 -0.023414 -0.008784 182 172 170
-0.073629 0.007635 0.009426 134 145 149
0.026635 -0.004208 0.013526 127 133 132
0.017087 -0.036333 0.000256 86 90 143
-0.055511 0.008202 0.002376 156 154 154
0.048418 -0.011762 -0.039544 214 204 195
-0.030420 0.025645 0.000446 185 184 181
-0.031650 0.010726 0.016646 59 65 58
-0.027633 -0.010321 0.000826 30 41 45
0.024106 -0.016329 0.006296 131 137 144
-0.055086 -0.019669 -0.009964 172 170 164
-0.000817 0.026109 -0.005014 177 189 199
0.044408 0.000180 -0.034014 197 198 195
0.043012 -0.005303 -0.036084 135 135 135
0.021293 -0.008999 0.008966 60 49 17
-0.026055 0.039645 -0.011794 181 180 177
-0.048647 -0.032872 -0.001034 90 95 91
-0.002315 0.034256 -0.018754 218 217 214
0.038558 0.020460 0.000826 63 71 78
0.008425 0.036393 -0.014184 216 216 210
0.050935 -0.007092 -0.035224 210 204 197
0.031221 -0.005611 0.006736 94 85 67
-0.043326 0.024320 0.012776 176 177 174
0.002336 -0.011243 0.001986 44 58 68
-0.019598 -0.000774 0.009426 102 108 107
-0.054572 0.014905 0.003786 86 114 136
0.048546 -0.014951 -0.043584 214 202 193
-0.040010 0.021550 0.015586 166 168 162
0.226468 -0.094357 0.138316 219 201 191
-0.058356 0.019438 0.001986 93 120 144
-0.038430 0.000978 0.003576 71 99 173
-0.009332 0.024575 -0.002984 146 155 154
-0.022490 -0.019439 0.013026 147 151 151
-0.073477 0.013836 0.009896 139 149 156
0.035057 -0.032737 0.003376 79 73 66
-0.038430 -0.013311 0.000076 70 79 78
0.000339 0.004274 0.010596 58 77 79
0.035543 -0.026233 0.013526 107 115 117
-0.038775 -0.028321 0.005446 148 153 149
-0.061239 -0.018498 -0.004184 177 171 169
0.036081 0.000896 0.016646 94 98 97
0.030522 -0.029339 0.002776 97 104 100
0.042785 0.021648 -0.023824 185 186 183
-0.058024 -0.014434 -0.006474 173 171 165
0.113181 -0.059074 0.057996 138 139 136
0.038072 0.033902 -0.011384 188 189 186
0.040538 0.002812 -0.003674 115 119 118
0.026977 -0.035601 0.001596 96 107 111
0.019479 -0.026365 0.009196 150 155 158
-0.038891 -0.027659 -0.009084 35 33 34
-0.035130 -0.009419 0.003376 13 18 21
-0.023797 0.022433 0.017466 181 179 179
-0.050351 -0.013354 0.001206 134 138 137
-0.011533 -0.024545 0.011556 12 18 17
0.097228 -0.049376 0.028346 137 137 131
-0.024362 0.020377 -0.002984 194 188 186
-0.023763 0.025321 -0.012474 196 197 194
0.022953 -0.008931 0.014806 54 48 14
0.042562 -0.014670 -0.045334 215 204 198
0.034063 -0.028856 0.008056 107 116 115
-0.045142 -0.023766 0.006296 117 127 122
0.059858 -0.011977 0.007836 126 132 131
-0.018714 0.012027 0.014806 54 52 38
0.027110 0.028369 -0.013274 124 133 142
-0.069211 0.009037 0.005236 129 139 146
-0.048475 0.016193 0.011076 64 72 65
0.044519 -0.003232 -0.036684 206 205 197
0.036304 0.004283 0.000636 81 87 87
0.043181 0.008415 -0.022954 130 135 131
-0.016793 0.029758 -0.008784 210 210 204
-0.055750 -0.018278 0.005026 151 148 145
0.046365 -0.012342 -0.032034 132 133 130
0.029845 0.000453 0.004396 95 95 107
0.039677 -0.011086 -0.041934 136 137 134
-0.050940 -0.024908 0.006956 157 157 151
0.003857 0.006838 0.012036 109 115 114
0.033953 0.014094 0.001406 182 180 174
-0.013689 0.013348 0.014546 128 128 128
0.042641 0.010412 -0.026114 129 134 130
-0.040532 -0.018141 0.002376 137 141 140
-0.033709 -0.014990 0.008286 157 162 158
-0.036061 0.032421 0.003376 198 197 194
0.028857 0.026667 -0.014314 114 124 131
-0.006480 -0.031511 -0.009964 79 79 79
-0.038368 -0.004829 0.010836 34 109 139
-0.019026 0.005733 0.010836 56 57 42
0.033173 0.021907 0.001406 116 133 147
0.040654 -0.009327 0.003786 97 103 102
0.045636 -0.012803 -0.041514 217 209 202
-0.017727 -0.018865 0.010836 151 151 152
0.038382 -0.007899 0.017186 96 105 104
0.005641 0.032381 -0.013674 220 217 214
0.005539 0.031192 -0.007264 220 224 223
0.007999 0.024791 -0.007874 158 163 172
0.018681 -0.018130 0.005656 92 94 104
-0.015861 0.026656 0.001596 187 184 181
0.008402 0.024489 -0.002464 47 89 144
-0.039908 0.031124 0.000636 199 197 191
0.046195 -0.007493 -0.006154 119 125 124
0.026637 -0.036219 0.001206 110 116 116
0.037673 -0.031465 -0.005834 117 117 117
0.037600 -0.011752 -0.001934 11 17 17
0.000295 -0.031021 -0.009234 25 30 94
0.020981 0.011502 -0.000304 130 130 131
-0.013526 0.027932 -0.010814 214 215 212
0.042733 0.016224 -0.027574 195 197 191
0.016377 -0.010692 0.007616 58 64 71
-0.038160 0.012736 0.019126 73 76 68
-0.040061 -0.003833 0.011316 46 109 127
0.004635 0.026220 0.000636 34 75 138
0.219001 0.026773 0.138316 202 194 187
0.020471 0.006416 0.021136 42 46 45
-0.073704 0.012378 0.004816 135 139 144
0.014367 -0.010579 0.004196 60 68 82
0.031584 0.022175 -0.016304 232 218 206
-0.033997 0.023164 0.002186 179 181 175
0.008791 -0.029023 -0.005014 25 34 33
0.010805 0.008934 0.017186 48 59 58
0.008525 -0.006425 0.013276 19 30 56
0.113234 -0.005244 0.027346 203 197 190
0.038431 -0.014783 0.001206 13 13 14
0.000551 -0.004485 0.013026 77 86 85
-0.026229 0.022035 -0.029274 197 195 189
-0.042110 -0.012691 -0.003164 96 105 103
0.038440 0.036129 -0.013674 197 195 189
0.001673 0.028518 -0.004684 227 239 241
-0.055978 0.010218 0.010836 169 170 167
-0.000883 -0.009314 0.014036 55 74 102
0.016933 0.028093 -0.001394 155 161 161
0.033804 0.009678 0.006086 139 132 133
0.013344 0.038736 -0.002814 208 209 206
0.043358 0.008243 0.000256 119 125 124
0.030518 -0.006071 0.012286 96 92 80
-0.029776 -0.001053 0.008286 205 205 199
-0.040085 0.008667 0.012776 84 90 89
0.028025 -0.031059 -0.000114 127 133 133
-0.029077 -0.022493 0.009656 143 144 141
0.043740 0.015359 -0.029354 199 199 193
-0.054149 0.019465 0.009426 164 167 159
0.027753 -0.042086 -0.003504 221 218 215
-0.063881 0.007027 0.008966 118 117 121
-0.054582 -0.014153 -0.008034 172 174 168
-0.053233 -0.028708 -0.012204 95 90 85
-0.000459 0.028887 -0.004014 229 239 241
-0.016896 0.013003 0.015326 72 76 76
-0.082390 0.013637 0.022326 105 114 125
-0.035432 0.012466 0.015856 71 74 66
-0.001345 -0.030414 0.008966 97 102 105
0.018392 0.021329 -0.004014 118 121 124
0.037917 -0.003291 0.007836 102 107 103
-0.035472 0.003896 0.008736 47 58 89
-0.041736 -0.017706 0.000256 140 141 138
0.043277 -0.007291 -0.036914 136 137 134
0.044075 -0.017351 -0.038104 136 138 132
-0.007826 -0.038557 0.001786 159 168 166
0.047003 -0.027917 -0.021854 137 142 138
-0.065014 0.024622 -0.001214 185 180 175
0.039199 0.027343 -0.013144 124 130 130
-0.054197 0.007543 0.002376 133 143 138
-0.028405 0.025463 0.011556 192 187 182
0.002546 -0.039255 -0.005014 135 139 138
0.001511 0.003686 0.010356 80 102 115
-0.016939 -0.005556 0.016646 149 154 157
-0.012303 -0.025858 -0.009674 44 40 40
-0.053889 0.005240 0.007616 126 132 131
0.026299 0.030220 -0.016064 220 220 214
-0.010036 -0.014406 -0.001034 18 17 21
-0.035297 -0.019364 0.005026 164 168 167
-0.048331 0.018853 0.011316 157 160 152
0.045234 -0.005245 -0.038044 205 201 194
-0.042464 -0.016682 -0.001034 98 104 104
0.000677 -0.000933 0.013276 178 185 201
0.042725 0.006247 -0.034594 201 200 197
0.012815 0.008903 0.022026 67 78 70
-0.014420 -0.003475 0.009196 136 136 137
0.064244 -0.014849 0.005656 128 135 131
-0.026032 -0.022120 0.009896 150 154 153
-0.029029 -0.023379 0.009196 15 21 20
-0.017040 0.001581 0.006516 129 119 117
0.012351 -0.001225 0.012536 75 114 143
-0.023737 -0.019776 0.008286 159 165 165
-0.053350 -0.032527 0.001406 87 81 79
0.042141 0.035647 -0.011654 171 172 169
0.035598 0.036193 -0.014954 162 167 163
0.004913 0.013327 0.011316 88 96 103
-0.030987 -0.020263 0.004196 158 163 159
0.039584 0.024524 -0.014954 104 113 112
-0.072050 0.019079 0.008286 156 154 154
0.035455 -0.028575 0.008516 106 110 109
0.031673 0.030323 -0.014444 204 202 196
-0.012931 0.026260 -0.006314 228 234 233
-0.051364 -0.022047 0.007176 119 121 115
-0.038363 -0.016493 0.000636 86 91 94
-0.063878 0.031161 0.003576 188 184 177
0.011258 0.034605 0.003176 201 205 204
0.014656 0.000440 0.017186 103 112 116
-0.003937 -0.008007 0.014546 66 77 95
-0.003581 -0.024363 0.010836 26 32 31
-0.054757 0.008375 0.002776 156 161 157
-0.025736 0.009625 0.016386 52 54 30
-0.026208 0.038529 -0.013014 206 204 198
0.054111 -0.007248 -0.034084 203 199 192
-0.007709 0.012891 0.011316 130 135 138
0.029406 0.003806 0.001406 41 45 45
0.036365 0.004811 0.000826 84 90 89
0.029451 0.022863 0.005026 121 140 154
0.040908 -0.027529 0.011796 105 111 110
-0.050652 0.014054 0.011316 128 137 112
-0.011468 0.019201 0.005656 197 193 194
-0.023198 -0.021193 0.018006 156 162 162
-0.040647 -0.028643 -0.010674 97 95 89
0.006601 0.007520 0.018846 103 109 109
-0.009664 -0.021017 -0.006154 16 16 17
0.021087 -0.008588 0.014296 57 47 23
0.046093 0.026112 -0.020174 186 186 186
0.038321 -0.004567 -0.015454 119 123 122
0.004459 0.026917 -0.006794 193 207 210
0.030910 0.010864 -0.000304 148 144 144
-0.051898 -0.015161 0.006736 36 40 39
0.042730 -0.020635 -0.043234 142 141 138
-0.041756 -0.011190 -0.003334 108 117 115
-0.189006 0.095163 0.138316 193 187 180
0.022380 0.015805 0.002186 68 77 88
-0.058327 -0.034434 -0.004184 191 184 174
0.012956 0.007562 0.021436 81 90 89
0.008939 0.039860 -0.010814 164 165 162
0.031063 -0.040123 -0.005674 202 203 200
0.001056 -0.027752 -0.007874 17 28 75
-0.059441 0.019551 0.008516 103 119 136
0.045351 -0.011569 -0.040554 206 203 193
0.001831 -0.036208 -0.009814 33 41 89
0.015431 0.022113 0.002186 145 150 153
0.022796 0.005624 0.003176 53 63 65
0.046832 -0.011554 -0.042794 214 202 193
0.046293 -0.000117 -0.001754 123 128 124
-0.008422 0.015630 0.012036 145 145 146
0.042278 -0.044610 0.009896 157 155 155
0.033635 0.021075 0.001206 118 135 149
-0.053755 -0.026700 -0.011104 151 139 135
-0.049756 0.020228 -0.002114 182 180 174
0.007650 -0.012923 0.004606 98 118 130
-0.000554 0.002156 0.012286 122 101 12
-0.068160 0.026856 0.001406 191 187 180
0.007441 -0.018650 0.008286 123 131 138
-0.058940 -0.036125 -0.005014 181 176 166
0.008739 0.033596 0.002976 213 217 217
-0.006488 -0.012518 0.014546 33 37 37
0.034954 0.022337 -0.013274 176 170 163
0.043299 0.033996 -0.019964 173 172 169
0.046155 0.005278 0.001986 121 125 124
0.026844 -0.003784 0.009896 130 139 137
-0.021251 0.013539 0.013786 60 63 50
-0.067287 0.026730 0.001016 191 186 176
-0.054927 -0.031435 -0.006794 139 139 133
0.031219 -0.038330 -0.004684 158 158 158
-0.074302 0.014041 0.021726 84 98 127
-0.051254 0.017828 0.012036 115 121 114
-0.054477 -0.036929 0.002576 151 150 142
0.024338 -0.024149 0.009426 12 17 26
0.038041 0.018565 -0.000664 67 80 86
-0.023241 0.039175 0.003576 210 211 208
0.003579 0.025903 0.002976 17 56 126
-0.061864 0.015921 0.008736 90 118 140
0.004616 -0.028340 0.003376 123 129 129
-0.001231 0.026063 -0.005504 142 152 159
0.013936 0.012003 0.018286 62 68 67
0.010734 -0.012244 0.003576 57 69 84
0.034970 0.011317 0.003986 135 132 129
-0.005620 -0.020115 -0.005014 39 38 42
0.005034 -0.011367 0.002976 83 97 107
0.044834 -0.028567 -0.020174 137 142 138
-0.072906 -0.028483 0.022626 182 178 171
-0.013456 -0.001904 0.008736 112 114 119
-0.052757 -0.009125 -0.001934 154 154 154
-0.038293 0.009739 0.014546 67 69 63
-0.078160 -0.007075 0.016386 163 163 157
-0.033570 -0.011643 0.007396 153 160 156
-0.017242 -0.026786 0.006736 157 161 160
-0.037059 -0.000775 0.009656 116 171 174
0.001027 -0.017147 0.003376 38 49 62
0.024133 -0.011869 0.004816 61 81 106
0.045355 -0.013518 -0.042704 214 207 197
0.002291 -0.030217 0.004196 89 101 103
0.042497 0.013846 -0.025754 124 130 129
0.000337 0.030278 -0.008634 219 223 222
-0.033605 0.003682 0.007176 60 78 117
0.005198 0.032626 -0.011514 218 217 214
0.039195 -0.012737 -0.003674 105 111 110
-0.003789 0.009121 0.024466 54 61 65
-0.070188 -0.022670 0.020556 176 174 168
-0.039871 -0.020954 0.008516 161 159 159
-0.047476 -0.023828 0.007616 33 38 41
-0.074788 0.017858 0.008516 71 85 109
0.029466 0.005887 -0.003504 82 75 76
-0.026934 0.016972 0.005446 165 163 157
0.041564 -0.016742 -0.046864 220 209 203
-0.048569 -0.005289 -0.009084 113 102 103
0.004699 0.028153 -0.008784 229 237 239
-0.054867 0.031284 -0.003504 192 187 182
0.013466 -0.006954 0.014546 35 42 67
0.033108 -0.039261 -0.004014 186 187 184
-0.011170 -0.036810 -0.003504 175 176 173
0.044595 0.003486 -0.030434 167 176 175
0.025832 -0.042060 -0.002114 181 181 181
0.049383 0.008052 -0.001574 125 129 128
-0.055614 -0.004930 0.009896 125 129 129
-0.011139 0.010910 0.018286 11 18 14
-0.040838 -0.004097 0.010596 48 115 140
0.036673 0.009319 0.001786 80 80 80
0.000061 -0.001976 0.013526 182 193 206
-0.031211 0.037406 -0.000304 202 202 196
-0.068163 -0.011327 0.004816 171 169 163
0.042606 -0.014946 -0.039494 138 137 134
-0.001747 -0.009713 0.007616 18 34 51
0.026392 0.023584 -0.018074 201 197 190
-0.072120 0.005145 0.003986 158 169 168
0.046118 -0.006841 -0.039074 207 199 192
-0.046310 0.015964 0.010596 69 79 67
0.016025 0.012071 0.008516 129 134 130
0.010344 0.021214 0.004396 54 99 157
0.001938 0.025445 -0.016904 226 234 236
-0.017083 -0.020754 0.007616 141 145 145
-0.028168 0.010568 0.018006 71 69 45
-0.022835 0.000498 0.008516 202 165 102
-0.003369 0.013127 0.019696 113 115 120
0.028831 0.021531 -0.017614 231 220 207
0.038473 0.007106 -0.002284 100 106 106
0.046504 0.006880 -0.031174 196 194 188
-0.052829 0.021907 0.011316 173 174 166
-0.000236 -0.009750 0.003986 34 51 65
0.007385 0.002268 0.011076 101 98 81
-0.006759 -0.000625 0.003786 19 24 27
0.038819 -0.020766 -0.004354 89 95 94
0.037719 -0.009034 0.002186 10 14 13
-0.052709 -0.003923 -0.000664 162 161 158
-0.060785 0.022827 0.003376 89 114 133
0.036492 -0.021493 0.009656 78 89 87
-0.035607 -0.023409 0.009896 36 40 39
-0.059136 -0.028015 -0.009964 186 179 169
-0.011117 0.004990 0.013026 11 11 11
-0.035366 0.024609 -0.007724 191 191 185
-0.001843 0.034513 -0.019194 214 216 210
0.000559 -0.027860 -0.007574 20 31 78
-0.054109 0.021205 0.001206 180 178 172
0.042295 -0.015012 -0.039904 135 135 129
-0.055928 -0.038093 -0.000114 73 71 65
-0.023636 -0.022151 0.007616 139 144 140
0.011037 -0.018362 0.005446 72 79 90
0.024621 0.020649 -0.001934 123 140 154
-0.060535 0.031193 0.002576 186 184 178
0.039286 0.035340 -0.011384 196 197 194
-0.034661 -0.000489 0.008516 119 165 186
-0.006358 0.022402 0.003786 80 131 192
0.011084 -0.027107 0.007836 144 149 152
0.003025 0.033647 -0.006474 217 216 213
-0.056302 -0.024493 0.009656 22 26 25
0.043689 0.022051 -0.029434 196 195 187
0.025863 0.018652 0.002576 116 132 144
0.001253 0.015420 0.017186 136 140 139
0.024733 0.028206 -0.012344 124 136 144
-0.004330 -0.011199 0.007176 64 74 76
0.038484 -0.034965 -0.008334 141 145 144
-0.038831 -0.011235 -0.000114 61 67 67
-0.022824 0.006117 0.010126 50 56 38
0.043531 0.031145 -0.018414 175 175 175
0.025109 0.039016 -0.005674 206 207 204
-0.050995 -0.006262 0.013026 138 139 136
0.015281 0.026680 -0.003334 158 167 166
0.003295 -0.005275 0.014036 51 67 118
0.040214 0.033227 -0.009964 165 170 166
0.042579 0.028501 -0.018524 132 137 133
-0.056418 -0.022764 0.007836 111 118 114
-0.049484 0.020777 -0.008934 180 180 174
0.018113 -0.032647 0.002776 96 110 120
0.026235 -0.047891 0.007396 183 187 186
0.002992 -0.024831 0.005656 127 131 136
-0.053865 -0.000204 0.009426 151 151 151
-0.040669 -0.010554 -0.003504 81 89 91
-0.057957 -0.019053 -0.007874 176 174 168
-0.016224 0.012968 0.015066 84 84 84
-0.022001 0.023479 0.008966 186 182 182
-0.065596 -0.010650 0.004816 178 176 170
-0.022206 0.025001 -0.001214 191 186 181
-0.035486 0.014184 0.007616 41 41 35
-0.035643 -0.027820 0.002576 161 163 157
0.041998 0.011344 -0.030954 198 198 192
0.017209 0.017851 0.009196 140 144 144
0.047417 -0.006450 -0.005834 120 126 125
-0.004760 0.023296 0.002186 28 78 148
0.001709 -0.023623 0.003176 112 120 122
-0.020204 -0.026048 0.006086 154 158 157
0.040582 -0.025937 0.015856 130 134 134
0.036613 0.026042 -0.012874 105 116 120
-0.050423 -0.022526 -0.014444 157 143 145
0.036243 0.019722 0.000446 114 132 144
0.023977 0.033415 -0.011244 222 220 220
-0.078682 0.005271 0.012776 131 140 151
-0.026707 0.022879 -0.001574 175 172 169
0.019686 0.036043 -0.006154 201 207 206
-0.037696 0.020065 -0.004184 181 182 174
-0.040601 -0.006126 0.015856 23 102 140
0.047562 0.004957 -0.033354 200 198 192
-0.049350 0.017007 0.011556 90 101 93
-0.053282 -0.030273 -0.001574 22 31 30
0.032032 0.022578 -0.000854 114 132 144
-0.001139 -0.027494 0.009656 112 120 122
0.028594 -0.016725 0.005446 71 89 94
-0.049938 0.005526 0.005656 146 152 145
-0.040854 -0.004088 0.010356 53 123 147
-0.040179 -0.020095 0.006516 159 166 162
0.032132 -0.001855 0.005446 75 73 73
-0.020582 -0.026317 0.008516 161 162 159
0.019461 -0.006526 0.017466 90 69 10
-0.036074 0.026091 0.006296 187 188 185
0.003735 0.021832 0.009196 24 71 144
0.042181 0.033882 -0.018524 166 173 169
-0.000694 -0.031268 -0.008634 34 38 86
0.041636 0.021670 -0.020924 130 134 133
-0.040280 -0.026716 -0.008184 39 37 37
-0.073049 0.007355 0.007836 151 161 163
0.037595 0.023063 -0.000484 111 128 137
0.035368 0.034585 -0.015824 204 204 198
0.023112 0.033452 -0.009964 215 215 215
0.007367 0.029840 -0.010244 218 219 216
-0.037092 0.008686 0.014546 50 56 49
-0.024709 -0.007066 0.011796 125 134 133
0.034783 -0.026652 0.011796 107 116 120
0.043109 -0.003549 -0.038374 205 203 197
0.019316 0.023599 -0.013674 93 96 99
-0.032416 0.011897 0.013786 74 77 69
0.048975 0.019613 -0.026724 197 196 188
0.026846 0.025405 -0.015944 111 121 128
0.023412 0.021422 -0.017024 186 180 178
0.021856 -0.027615 0.011076 147 150 153
