ply
format ascii 1.0
element vertex 1214
property float x
property float y
property float z
property uchar red
property uchar green
property uchar blue
end_header
-0.123537 0.002393 0.097704 95 95 44
0.074878 -0.000914 -0.027746 147 154 162
0.025576 -0.000799 -0.085286 134 135 126
-0.140481 0.016299 0.093324 93 93 44
0.025653 -0.000758 -0.085286 216 223 231
0.046393 0.015060 -0.046066 122 126 119
0.025601 -0.000796 -0.085286 138 139 128
0.056498 0.014536 0.025114 118 112 58
0.025663 -0.000722 -0.085286 206 215 225
0.065345 0.006717 0.032814 67 68 55
0.069936 -0.024892 0.047064 134 135 124
0.025643 -0.000801 -0.085286 135 139 134
-0.017381 0.009668 0.055554 87 82 23
-0.046856 0.044834 0.015284 105 103 55
0.025617 -0.000791 -0.085286 137 139 130
-0.048161 0.038884 0.016664 100 98 48
-0.134045 -0.099171 0.109144 97 105 106
-0.134576 -0.028061 0.100434 83 82 38
-0.036591 0.024430 0.062244 112 105 43
-0.126562 -0.076730 0.140974 92 98 96
-0.091363 0.017667 0.055554 107 107 56
0.071755 0.005828 -0.031876 181 183 193
0.058075 0.002683 -0.029636 219 221 231
0.025614 -0.000700 -0.085286 27 34 26
-0.097507 0.063149 0.057174 83 85 74
0.019007 0.032232 -0.021426 115 110 49
0.025616 -0.000774 -0.085286 132 133 122
0.025680 -0.000711 -0.085286 192 201 213
-0.076988 0.026654 0.042964 105 103 51
0.060621 0.009116 -0.042256 202 212 226
-0.053241 0.020320 0.054504 109 107 47
-0.044110 0.026017 0.071544 113 106 46
-0.016094 0.039697 0.038294 115 110 49
0.054218 0.061282 0.028144 43 43 10
-0.163665 -0.026536 0.117604 83 85 38
0.025494 -0.000780 -0.085286 100 106 108
0.063106 0.017102 0.023194 104 102 65
-0.015688 0.041866 0.005054 116 113 56
-0.039077 -0.060675 0.109144 121 123 112
-0.010513 0.040310 0.032434 116 111 48
0.046945 0.010292 -0.046916 214 219 226
-0.095762 0.024221 0.057174 100 98 48
0.025618 -0.000789 -0.085286 136 137 131
0.041387 0.011409 -0.047116 111 109 99
-0.022633 0.046854 0.009174 113 110 53
-0.085112 -0.001264 0.099514 76 72 20
0.049624 0.017403 -0.050386 118 118 118
0.025678 -0.000773 -0.085286 119 125 127
0.049675 0.016489 -0.050926 122 126 121
0.025546 -0.000798 -0.085286 116 120 113
0.025670 -0.000765 -0.085286 84 90 88
0.025518 -0.000702 -0.085286 105 103 53
0.067024 -0.018005 0.016104 127 128 115
0.025665 -0.000789 -0.085286 135 138 139
0.025649 -0.000709 -0.085286 121 125 120
-0.119126 -0.092208 0.091624 98 104 106
0.067068 0.005649 -0.025916 226 228 236
0.025491 -0.000758 -0.085286 72 71 25
-0.000138 0.005516 0.049944 98 90 35
0.025488 -0.000708 -0.085286 119 119 115
0.080447 -0.040490 0.020424 135 139 132
0.050745 0.005051 0.077714 112 110 100
0.025540 -0.000775 -0.085286 88 92 85
0.004677 0.042633 0.037474 114 107 45
-0.107092 -0.085814 0.128044 101 107 107
-0.101565 -0.039702 0.113284 100 98 46
0.053407 0.013996 -0.055816 161 169 184
-0.025522 -0.042668 0.114344 128 126 116
-0.104449 -0.002794 0.085164 91 89 37
0.049387 0.009685 -0.044436 216 222 224
0.025576 -0.000794 -0.085286 138 136 126
-0.190777 -0.083911 0.166984 99 107 108
-0.004807 0.038872 0.015834 114 109 50
0.025598 -0.000774 -0.085286 132 130 118
-0.096198 0.023565 0.057174 109 109 60
-0.034801 -0.003643 0.074234 91 86 27
0.025432 0.023643 -0.002206 122 115 57
-0.033702 0.016922 0.065824 84 78 22
-0.042620 0.037910 0.020424 111 109 59
0.025676 -0.000803 -0.085286 132 137 142
0.026245 0.031560 -0.021976 105 100 39
0.062558 0.006149 -0.027836 221 231 238
-0.025742 -0.025503 0.107144 79 76 71
0.049687 0.006548 -0.038346 225 230 237
0.005698 0.007642 0.044304 96 88 33
0.043569 0.018046 -0.044696 126 127 121
0.025490 -0.000759 -0.085286 70 69 23
-0.134410 0.007447 0.085944 94 93 47
0.080609 -0.040814 0.020424 136 137 131
0.025634 -0.000767 -0.085286 125 126 117
0.025656 -0.000794 -0.085286 136 139 140
0.048129 0.031135 0.001884 51 49 10
0.034518 0.031827 -0.017356 53 48 3
-0.067694 0.064457 0.031334 93 95 86
-0.113094 -0.071082 0.158734 80 84 79
0.013978 0.032147 0.029184 85 79 23
-0.103088 -0.097138 0.122114 20 24 19
0.025665 -0.000714 -0.085286 199 210 219
0.025488 -0.000769 -0.085286 87 84 43
0.043801 0.017528 -0.045816 125 126 120
0.038024 0.022114 -0.003116 119 110 46
0.025651 -0.000709 -0.085286 120 124 119
0.055819 0.011477 -0.050896 201 210 220
-0.050947 -0.051632 0.087534 107 108 102
-0.182926 -0.067243 0.138264 99 107 108
0.025613 -0.000759 -0.085286 127 125 115
0.045550 0.008905 0.048004 99 96 80
0.067774 -0.025448 0.009414 129 131 122
0.043795 0.017097 -0.045696 124 125 121
0.025683 -0.000783 -0.085286 126 133 137
0.025544 -0.000806 -0.085286 119 123 116
0.025544 -0.000776 -0.085286 100 101 95
0.025582 -0.000800 -0.085286 135 137 128
0.022498 0.020702 0.025444 91 83 28
0.025564 -0.000791 -0.085286 132 133 122
0.065841 -0.023823 0.037074 134 132 122
0.048462 0.018299 -0.047996 123 124 120
-0.145049 0.004462 0.112234 89 89 38
0.033716 0.029776 -0.017966 66 59 8
0.064203 -0.029154 0.010634 94 96 87
0.025606 -0.000752 -0.085286 115 116 105
0.046650 0.017165 -0.047236 108 109 105
0.025666 -0.000700 -0.085286 116 119 118
0.025629 -0.000700 -0.085286 132 133 129
0.025657 -0.000771 -0.085286 119 123 118
0.019371 0.030079 0.026774 86 78 23
0.076828 -0.003056 -0.033296 130 136 149
0.025600 -0.000802 -0.085286 138 139 130
-0.017546 0.039110 0.014484 117 115 53
-0.118893 0.000963 0.095054 91 89 39
-0.117594 0.037025 0.066444 44 44 9
-0.092131 0.006525 0.082854 89 87 35
0.025597 -0.000766 -0.085286 129 127 115
-0.040080 0.025420 0.064014 113 106 44
0.013785 0.039263 0.034714 101 93 40
0.025674 -0.000806 -0.085286 129 134 139
0.025604 -0.000809 -0.085286 138 139 133
-0.035799 0.034229 0.024144 112 109 52
0.045961 0.015571 -0.048586 123 127 120
-0.035997 0.021682 0.057714 114 109 48
0.025658 -0.000726 -0.085286 206 213 221
0.025682 -0.000799 -0.085286 134 136 142
0.025654 -0.000778 -0.085286 126 129 128
-0.076090 0.067335 0.042084 93 95 86
-0.086848 0.005143 0.095924 105 102 47
0.019451 0.029396 -0.018806 120 113 51
0.063974 -0.001463 -0.026196 221 226 235
-0.104816 -0.063702 0.163614 70 76 74
0.005158 -0.004707 0.059384 128 118 59
0.036497 -0.002593 -0.024856 123 124 113
0.035441 0.040413 -0.008536 53 49 11
0.068182 -0.030425 0.005934 135 136 130
0.281958 -0.102788 0.239394 132 138 138
0.025648 -0.000804 -0.085286 135 139 134
-0.036347 -0.007572 0.068954 93 88 29
0.025648 -0.000807 -0.085286 135 135 135
-0.093260 0.015752 0.053984 104 102 52
0.054132 0.014377 0.026444 123 113 54
0.025609 -0.000761 -0.085286 129 125 114
0.039499 0.019118 0.005714 122 112 51
-0.109159 0.022306 0.067684 104 102 50
-0.118309 -0.005050 0.117604 91 89 37
0.058041 -0.026027 0.042524 133 131 119
-0.040057 0.034985 0.022874 106 103 48
0.042490 0.016402 -0.044746 125 125 119
-0.025053 0.022631 0.052944 116 109 47
0.051170 0.053685 0.019234 35 35 4
0.018851 0.027523 -0.012296 122 115 53
0.068823 0.018079 0.032434 81 82 69
-0.155107 -0.038012 0.128044 87 87 36
0.053522 0.015228 -0.055886 103 109 107
0.016664 0.025029 0.040794 92 84 31
0.009350 0.010668 0.036274 99 92 34
0.074891 -0.000957 -0.012296 219 221 229
-0.115551 -0.079322 0.113284 138 141 142
0.025615 -0.000765 -0.085286 132 130 118
-0.104067 0.010707 0.126834 107 104 47
0.025588 -0.000766 -0.085286 128 126 116
0.051150 0.014703 0.017224 123 113 52
0.025491 -0.000778 -0.085286 98 100 66
0.025617 -0.000790 -0.085286 136 138 129
0.025658 -0.000735 -0.085286 208 217 227
0.015526 0.023096 0.035884 93 85 30
-0.015562 0.019676 0.054504 46 40 2
0.025651 -0.000782 -0.085286 128 132 127
-0.076312 0.030318 0.034324 103 102 56
0.025499 -0.000795 -0.085286 97 108 108
-0.070090 -0.031489 0.089144 103 99 47
0.025630 -0.000737 -0.085286 223 225 231
0.025581 -0.000763 -0.085286 116 117 106
0.021648 0.030102 -0.012296 116 109 47
-0.036854 -0.039377 0.104204 110 111 100
0.025585 -0.000777 -0.085286 129 127 115
-0.025293 0.016786 0.057174 85 79 23
0.042232 0.027439 -0.007576 57 53 5
0.060187 0.012068 -0.039506 209 218 228
-0.004427 0.042748 0.002084 112 107 44
0.094653 -0.021158 -0.004186 129 135 133
0.052782 0.030851 0.007754 46 42 6
0.067405 0.007454 -0.040866 95 85 95
-0.034865 -0.079347 0.090794 124 128 121
0.025488 -0.000738 -0.085286 54 51 17
0.074013 -0.004460 0.016104 123 125 114
0.000934 0.032511 0.044304 84 76 21
0.027267 0.011152 0.026774 112 103 37
0.011825 0.000746 0.050434 131 120 57
0.025581 -0.000789 -0.085286 138 136 126
0.047745 0.014924 -0.053266 119 122 121
0.045154 0.029420 -0.003836 51 50 6
0.025595 -0.000784 -0.085286 138 136 124
-0.023138 -0.074013 0.077714 123 124 120
0.064167 0.010501 -0.043976 196 202 215
0.041867 0.016804 0.010634 129 119 60
0.025606 -0.000755 -0.085286 118 119 108
-0.021802 0.009131 0.057174 88 83 22
0.000796 0.019566 0.042964 95 88 30
0.043359 0.020723 -0.046516 128 129 125
0.025617 -0.000802 -0.085286 138 139 133
0.051925 0.015962 0.010874 120 113 51
0.025596 -0.000758 -0.085286 124 122 112
0.071935 0.001377 -0.034296 153 142 146
-0.038376 0.045252 0.006834 96 93 48
-0.043420 0.035353 0.037074 107 105 45
0.065149 0.009395 0.036674 61 62 49
-0.075387 -0.095437 0.123274 108 112 107
0.004576 0.042071 0.035884 114 107 45
-0.058153 -0.098455 0.107144 115 119 114
0.025667 -0.000784 -0.085286 132 138 138
-0.011074 0.041139 0.026444 118 113 52
0.025659 -0.000795 -0.085286 138 144 144
0.025489 -0.000745 -0.085286 92 91 47
0.025663 -0.000742 -0.085286 212 219 227
0.015741 0.029802 -0.020546 122 117 56
-0.001077 0.039673 0.030604 114 107 45
0.025665 -0.000700 -0.085286 116 119 118
0.025651 -0.000754 -0.085286 220 225 232
0.044119 0.009381 -0.042256 229 229 233
-0.049079 0.006143 0.079884 83 80 23
0.025502 -0.000809 -0.085286 98 105 109
-0.055065 0.029283 0.060514 110 108 48
0.043507 0.019401 -0.048186 126 130 125
0.049885 0.021658 0.001474 96 89 29
0.046347 0.018012 -0.049946 124 125 121
0.025670 -0.000802 -0.085286 138 144 146
0.025654 -0.000771 -0.085286 122 126 121
0.025667 -0.000777 -0.085286 126 132 132
0.025669 -0.000727 -0.085286 203 212 222
0.064170 -0.017335 0.013954 94 95 82
0.025618 -0.000786 -0.085286 136 137 126
0.025668 -0.000755 -0.085286 208 215 223
0.025632 -0.000750 -0.085286 106 107 96
0.010470 0.033336 -0.023346 119 114 53
0.025617 -0.000706 -0.085286 37 42 32
0.025652 -0.000803 -0.085286 133 140 134
0.031940 0.003552 0.030604 117 112 71
0.025585 -0.000800 -0.085286 137 138 129
0.035165 0.027687 -0.010686 105 98 38
0.025574 -0.000770 -0.085286 124 125 112
0.018909 0.028994 -0.021426 119 114 51
0.025664 -0.000729 -0.085286 209 221 227
0.025635 -0.000788 -0.085286 133 134 128
0.006090 0.032836 -0.025916 119 114 55
0.031440 0.027753 -0.015576 106 99 39
0.007076 0.019553 0.041654 95 87 32
-0.087136 0.005392 0.095054 107 104 49
-0.014740 0.046712 0.016664 111 109 49
0.025489 -0.000758 -0.085286 71 70 26
0.025647 -0.000801 -0.085286 133 137 132
0.025675 -0.000771 -0.085286 114 120 122
-0.020196 -0.080915 0.088334 133 134 125
0.052104 0.014619 0.016664 121 111 52
0.025551 -0.000809 -0.085286 121 125 118
-0.094379 -0.110033 0.142354 96 99 98
0.025551 -0.000783 -0.085286 118 120 109
0.025631 -0.000768 -0.085286 126 127 116
0.070989 0.001957 -0.026846 216 225 235
0.068884 -0.037747 -0.000116 131 132 126
-0.086893 0.001898 0.068954 90 90 37
0.025642 -0.000796 -0.085286 135 139 134
0.025581 -0.000776 -0.085286 129 127 115
-0.055001 0.053605 0.022254 95 94 52
0.005202 -0.001529 0.047534 130 120 61
-0.042726 0.038365 0.016944 110 106 54
-0.029454 0.022746 0.072214 85 77 22
0.025566 -0.000796 -0.085286 133 134 123
0.025489 -0.000711 -0.085286 110 114 107
-0.017051 -0.028466 0.105174 118 119 110
-0.030932 0.047444 0.002084 110 108 58
0.047398 0.021164 0.002704 116 109 49
0.015215 0.032964 -0.025526 118 113 52
-0.009289 0.038062 0.040374 116 109 47
0.023080 0.024749 -0.004366 123 113 54
0.045316 0.017799 -0.046646 123 124 118
-0.107529 0.059568 0.064014 88 90 79
-0.026396 0.041922 0.009174 109 108 53
0.025609 -0.000809 -0.085286 138 139 133
-0.094451 -0.076561 0.119834 92 95 98
-0.212665 0.004103 0.173994 88 88 39
0.025612 -0.000750 -0.085286 115 116 105
0.025651 -0.000738 -0.085286 216 225 235
-0.031620 0.005065 0.059384 84 79 20
-0.013041 -0.017976 0.135624 105 106 93
0.025661 -0.000784 -0.085286 131 137 139
-0.101179 0.075546 0.051934 117 118 114
0.057214 0.023369 0.010384 53 50 9
0.025656 -0.000784 -0.085286 129 132 131
0.065365 -0.016717 0.015834 94 95 82
0.025492 -0.000769 -0.085286 86 85 43
0.007492 -0.007819 0.055024 99 100 89
-0.022831 -0.088070 0.083614 122 123 119
0.061945 -0.028025 -0.008696 135 137 128
-0.137624 0.004199 0.102304 88 88 37
0.025548 -0.000806 -0.085286 120 124 117
-0.006727 0.047285 0.001074 106 104 44
0.044343 0.023253 -0.039786 132 133 129
0.025581 -0.000764 -0.085286 120 121 110
0.025643 -0.000807 -0.085286 135 139 134
0.025614 -0.000807 -0.085286 138 139 133
0.025600 -0.000762 -0.085286 127 125 115
0.063317 -0.003278 0.025774 85 84 69
0.018685 0.011496 0.026774 96 87 37
0.051993 0.014476 -0.055676 112 118 116
0.025658 -0.000804 -0.085286 135 138 139
-0.051031 0.039481 0.017794 90 88 36
0.025648 -0.000805 -0.085286 135 138 137
0.059214 0.013190 0.035484 103 104 93
0.018580 0.029444 -0.021096 116 109 49
-0.007035 0.039969 0.036274 109 103 38
-0.041153 0.023171 0.078434 112 105 47
-0.040791 0.024731 0.053984 114 109 48
0.025607 -0.000769 -0.085286 131 129 117
0.025562 -0.000797 -0.085286 132 134 123
-0.021770 0.041016 0.015014 117 115 55
-0.028145 -0.086150 0.077004 121 125 118
0.025677 -0.000787 -0.085286 134 140 142
0.025643 -0.000789 -0.085286 133 137 132
-0.137932 0.007333 0.089144 89 89 40
0.025603 -0.000773 -0.085286 133 131 119
0.025650 -0.000758 -0.085286 224 226 234
0.046256 0.011410 -0.051086 211 221 228
0.025668 -0.000734 -0.085286 207 217 231
0.055537 0.019495 0.006154 71 64 15
0.014964 0.030052 0.029894 87 80 22
0.073642 0.000419 -0.035046 217 209 236
-0.004572 0.010582 0.048484 96 89 31
0.025488 -0.000779 -0.085286 100 106 106
0.064385 -0.030532 0.008934 96 98 89
0.025564 -0.000795 -0.085286 132 134 123
0.025678 -0.000715 -0.085286 192 203 214
0.043451 0.011671 -0.048766 124 125 119
0.047257 0.006030 -0.038926 226 228 234
-0.075114 0.024119 0.042084 104 102 54
0.063609 -0.013544 0.017794 89 87 75
0.047757 -0.015454 0.103254 127 125 115
0.003633 0.039353 0.029184 113 106 44
0.025650 -0.000735 -0.085286 218 223 230
-0.134329 -0.047656 0.131764 90 90 39
0.025640 -0.000803 -0.085286 135 136 132
-0.063002 0.033315 0.026104 105 103 51
0.049994 0.010706 0.034714 99 96 80
0.004348 0.026226 0.038294 89 82 24
-0.025583 0.005607 0.079154 86 80 24
0.025641 -0.000788 -0.085286 130 134 127
-0.083542 0.029002 0.041224 108 106 58
-0.068288 0.019208 0.048484 114 112 62
0.041217 0.010449 -0.047386 127 127 121
-0.059614 0.041964 0.021634 95 97 54
0.025591 -0.000774 -0.085286 132 130 118
0.044611 -0.007460 0.004184 129 127 115
-0.182310 -0.108818 0.161964 96 104 105
0.021655 0.026238 -0.012436 122 115 55
0.052654 0.024880 0.006834 52 49 6
0.010892 0.012138 0.034324 98 90 35
0.025761 0.029531 -0.021536 107 102 41
0.048300 0.018466 -0.048446 125 126 122
-0.026336 -0.048979 0.087534 89 87 77
-0.000081 0.017396 0.035094 95 87 32
-0.149845 -0.008192 0.110164 68 70 23
0.046827 0.019086 -0.046916 122 123 119
-0.119986 -0.041976 0.157144 104 102 50
0.025582 -0.000802 -0.085286 135 136 130
0.064179 -0.020858 0.006384 130 131 122
0.051270 0.015501 -0.054236 94 100 98
0.073582 -0.000332 -0.019746 199 204 211
0.023268 0.027753 -0.013966 114 107 47
-0.065668 -0.024640 0.080614 90 87 32
0.025626 -0.000706 -0.085286 129 130 124
0.065921 -0.006872 0.020124 127 126 111
-0.083858 0.033994 0.048484 103 101 53
0.034305 0.006507 0.026774 130 118 58
0.069900 0.014423 0.039534 95 96 85
-0.083558 0.022081 0.050924 107 105 55
-0.007956 -0.066612 0.051424 132 134 125
0.025667 -0.000712 -0.085286 197 207 214
0.025620 -0.000797 -0.085286 137 138 132
-0.015681 -0.000711 0.053464 85 79 23
0.025500 -0.000798 -0.085286 95 102 106
0.025647 -0.000737 -0.085286 218 225 231
0.025678 -0.000788 -0.085286 135 140 145
-0.104271 0.017879 0.057174 107 106 62
0.025655 -0.000753 -0.085286 216 220 232
0.025653 -0.000722 -0.085286 208 218 223
0.025588 -0.000800 -0.085286 137 138 129
0.015115 0.029046 -0.018446 122 116 51
-0.085875 0.038579 0.040794 86 84 47
0.068601 0.007683 -0.034076 206 212 225
0.024896 0.033238 -0.022826 101 96 35
0.042985 0.007279 -0.043556 221 219 209
0.025651 -0.000782 -0.085286 130 134 129
-0.055714 -0.051010 0.104204 105 109 102
0.044189 0.010044 -0.049506 216 218 224
0.055686 0.011791 -0.049546 201 210 220
-0.008313 -0.057992 0.100434 126 127 114
0.076259 -0.007142 -0.030456 89 122 147
0.053295 0.013764 -0.056636 186 198 204
0.025648 -0.000800 -0.085286 133 137 132
0.014632 0.031375 -0.022716 121 116 53
0.022375 0.027366 -0.013556 120 113 53
-0.109345 -0.078950 0.177644 95 96 92
-0.103277 -0.053987 0.151004 75 82 76
0.068339 0.005155 -0.040166 89 68 77
0.025583 -0.000775 -0.085286 128 126 114
0.032801 0.029018 -0.016856 94 89 30
0.044802 0.011720 -0.051246 120 124 119
0.025648 -0.000733 -0.085286 216 223 227
-0.045538 -0.015915 0.079884 101 96 35
0.025488 -0.000786 -0.085286 104 110 112
0.044609 0.014641 -0.046516 124 125 119
0.025590 -0.000771 -0.085286 132 130 118
0.025490 -0.000792 -0.085286 106 114 115
-0.017108 0.031684 0.058264 115 108 48
0.025657 -0.000806 -0.085286 133 139 141
0.043698 0.008926 -0.043086 228 228 232
0.013938 0.029049 -0.015046 120 114 58
0.025659 -0.000798 -0.085286 133 139 137
0.061393 -0.014669 0.013424 93 91 81
0.063297 0.010666 -0.043606 208 214 227
-0.024895 0.027603 0.061084 98 91 29
0.025615 -0.000789 -0.085286 136 138 127
0.027157 0.020410 0.031334 93 86 28
-0.029379 0.034563 0.047534 116 111 52
0.044394 0.012882 0.018944 111 100 37
-0.123961 -0.113722 0.166984 94 97 98
-0.117067 -0.021243 0.117604 76 73 28
-0.094680 0.066521 0.052434 88 89 78
0.069964 0.002645 -0.025816 216 222 233
0.025579 -0.000764 -0.085286 115 116 105
0.045741 0.018098 -0.046396 126 127 121
0.025677 -0.000791 -0.085286 129 139 144
-0.173675 -0.076730 0.140974 104 112 113
0.071492 -0.008897 -0.027566 120 123 122
-0.016434 -0.026292 0.113284 116 117 108
-0.223182 -0.077048 0.233844 85 90 76
0.025611 -0.000785 -0.085286 136 137 126
-0.092579 0.000930 0.091624 95 93 41
0.005682 0.013749 0.037074 96 88 33
0.025597 -0.000775 -0.085286 133 131 119
0.063602 0.001800 0.024144 75 77 61
0.025604 -0.000768 -0.085286 131 129 117
0.032374 0.031535 -0.017966 54 50 2
0.015787 0.017965 0.030604 95 88 30
0.069852 0.007168 -0.036756 168 166 175
-0.108793 -0.053057 0.143754 89 95 97
0.003264 0.036382 0.041224 113 106 44
0.025650 -0.000720 -0.085286 210 217 225
0.046678 0.026397 -0.002756 55 52 9
0.052604 0.006394 -0.038406 221 226 231
-0.440022 -0.250233 0.448184 102 112 115
-0.054678 -0.010094 0.071544 84 81 24
-0.025819 0.021916 0.049944 113 106 46
-0.023367 0.034279 0.039954 115 110 49
0.025596 -0.000768 -0.085286 131 129 117
-0.032771 0.030062 0.040794 111 106 47
0.025656 -0.000792 -0.085286 134 137 136
-0.012191 0.022165 0.062244 92 85 27
0.020274 0.033482 0.029534 84 76 21
0.016984 0.032211 -0.025726 113 108 49
0.025596 -0.000773 -0.085286 133 131 119
-0.125747 -0.042366 0.103254 90 90 41
0.025571 -0.000801 -0.085286 133 135 126
0.065446 -0.020883 0.024144 102 103 94
0.017081 0.016966 0.029894 93 86 28
0.025661 -0.000757 -0.085286 214 223 233
0.042439 0.017632 -0.043796 129 130 121
0.025596 -0.000756 -0.085286 115 116 105
0.043460 0.017842 -0.046556 125 126 120
0.071407 0.003149 -0.033656 180 168 179
0.052527 0.013910 -0.055436 193 205 211
-0.055225 -0.008848 0.085944 88 86 26
0.064799 0.004012 0.021024 115 116 103
0.025610 -0.000801 -0.085286 138 139 130
0.025669 -0.000743 -0.085286 210 214 226
0.025673 -0.000788 -0.085286 134 137 140
-0.050970 0.033698 0.033944 112 109 52
-0.135598 -0.047930 0.133034 92 92 41
-0.074525 0.029321 0.035484 101 99 47
0.025561 -0.000806 -0.085286 132 134 125
0.072988 -0.001582 -0.016216 218 225 233
0.052253 0.014069 -0.055486 174 186 190
0.040823 0.016086 -0.043516 129 127 115
0.025659 -0.000719 -0.085286 205 212 220
-0.049979 0.035165 0.037074 109 106 51
-0.100969 0.075546 0.051934 119 120 116
0.046131 0.016634 -0.047116 121 125 120
0.025634 -0.000729 -0.085286 219 222 225
-0.015154 0.044596 0.027794 119 114 53
-0.028353 -0.081727 0.079154 124 125 119
-0.160266 -0.103269 0.166984 93 99 99
0.025654 -0.000729 -0.085286 211 218 226
0.020342 0.031570 -0.020986 114 109 48
0.025666 -0.000804 -0.085286 134 137 140
-0.043997 -0.056343 0.094184 116 118 107
-0.109714 0.014384 0.068314 107 107 56
0.019869 0.001836 0.042524 131 119 61
-0.091103 0.058918 0.052944 87 89 80
0.025655 -0.000801 -0.085286 136 142 140
0.027487 0.026385 -0.011426 116 109 47
-0.068917 0.034669 0.045664 103 101 49
0.025679 -0.000774 -0.085286 124 127 130
-0.080786 -0.115973 0.142354 113 117 112
0.025665 -0.000759 -0.085286 106 108 116
0.048497 0.004569 0.070894 112 110 100
0.035616 0.025650 -0.011576 109 102 40
-0.015960 0.034808 0.018944 116 111 52
0.038508 0.007111 0.030604 125 116 52
0.003071 -0.040451 0.105174 131 129 117
0.009733 0.036909 0.039114 81 71 14
0.001956 -0.005823 0.053464 130 120 59
0.025593 -0.000798 -0.085286 140 141 130
0.071668 0.001276 -0.034846 162 150 163
-0.013381 0.033339 0.030244 114 109 46
-0.080546 0.007576 0.107144 105 102 45
-0.012688 0.035886 0.039534 111 106 43
0.025668 -0.000792 -0.085286 134 142 141
0.025581 -0.000791 -0.085286 136 137 126
-0.120112 -0.023854 0.113284 74 74 25
0.025598 -0.000758 -0.085286 120 121 110
0.025613 -0.000789 -0.085286 137 139 128
0.025496 -0.000733 -0.085286 103 102 56
-0.089190 0.014762 0.050924 103 101 49
-0.019233 0.044028 0.007524 113 110 53
0.071755 0.005500 -0.031876 184 186 194
0.025603 -0.000787 -0.085286 138 139 126
0.025649 -0.000784 -0.085286 131 135 130
-0.102569 -0.046661 0.145174 79 76 42
0.025672 -0.000723 -0.085286 207 216 226
0.025666 -0.000784 -0.085286 134 137 138
-0.302129 -0.089343 0.316224 92 94 47
0.018115 0.032239 -0.026006 112 107 46
-0.021849 -0.076347 0.078434 74 74 68
-0.028316 0.021787 0.068954 82 76 20
-0.032580 0.034339 0.020424 117 115 55
0.006806 0.026899 0.037074 91 84 26
-0.018326 0.044943 0.005934 112 111 54
-0.021015 -0.054176 0.092474 131 132 121
0.025596 -0.000792 -0.085286 136 137 126
0.068285 -0.030083 0.007064 133 134 128
0.025488 -0.000800 -0.085286 103 113 118
-0.131264 0.017960 0.085944 100 100 49
0.025599 -0.000784 -0.085286 138 136 124
0.028951 0.025877 -0.011576 114 107 45
0.042625 0.016227 -0.045306 125 126 120
0.021329 0.014090 0.029534 96 89 31
0.063592 -0.017812 0.037074 135 133 121
0.027641 0.027405 0.028484 91 83 28
0.025546 -0.000771 -0.085286 83 85 74
-0.017438 0.019847 0.057174 57 50 1
0.025598 -0.000796 -0.085286 137 138 127
0.025643 -0.000805 -0.085286 134 137 136
0.025578 -0.000775 -0.085286 129 127 115
0.042496 0.020447 -0.042356 132 134 123
0.025675 -0.000774 -0.085286 127 133 135
0.077062 -0.008815 0.020124 125 126 115
-0.013963 0.048327 0.001274 111 108 53
0.048383 0.018693 -0.048766 122 126 121
0.025604 -0.000802 -0.085286 138 139 130
0.016359 0.028343 -0.015446 120 113 53
0.025604 -0.000797 -0.085286 140 141 130
0.025595 -0.000789 -0.085286 137 138 127
0.076956 -0.004162 -0.032256 29 70 94
0.030883 0.023410 -0.002566 123 113 54
-0.027765 0.047285 0.001074 108 107 52
0.025561 -0.000775 -0.085286 127 125 115
0.052102 0.004762 0.069594 115 113 103
-0.062875 0.017530 0.054504 109 107 55
0.025603 -0.000790 -0.085286 137 138 127
0.051851 0.032795 0.007994 43 41 2
0.052642 0.013403 -0.054946 196 208 222
0.025580 -0.000792 -0.085286 134 135 124
0.025592 -0.000780 -0.085286 131 129 117
0.025579 -0.000793 -0.085286 133 134 123
0.025664 -0.000720 -0.085286 207 216 226
0.025635 -0.000757 -0.085286 119 121 110
-0.046675 0.007075 0.068314 83 77 21
0.090163 -0.010461 0.020424 118 119 113
0.082549 -0.040566 0.021944 131 135 128
0.025573 -0.000782 -0.085286 129 127 115
0.067909 0.007130 -0.040766 129 118 126
0.023546 0.026420 0.023824 87 79 24
-0.046898 0.039755 0.023194 114 112 62
-0.031460 0.046010 0.008934 109 107 57
0.025611 -0.000761 -0.085286 128 126 114
-0.092547 -0.082691 0.158734 101 102 96
0.025646 -0.000736 -0.085286 220 225 230
0.025574 -0.000780 -0.085286 129 127 115
0.053115 0.013916 -0.055886 160 168 183
0.025666 -0.000807 -0.085286 133 141 142
-0.001455 -0.007266 0.052434 127 121 67
-0.109491 -0.114138 0.160334 64 67 66
-0.024210 -0.061600 0.070894 122 124 115
0.003997 -0.011893 0.088334 104 105 94
0.009182 0.032300 -0.023856 118 113 54
0.025490 -0.000748 -0.085286 93 92 46
-0.125038 -0.103476 0.107144 99 107 106
0.030371 0.011605 0.023194 116 105 42
-0.139604 -0.062979 0.095054 104 112 111
0.025535 -0.000808 -0.085286 109 113 108
-0.052900 0.019833 0.043404 112 109 52
0.025650 -0.000769 -0.085286 94 98 91
0.025596 -0.000775 -0.085286 132 130 118
-0.104606 -0.088867 0.095924 111 119 120
-0.106899 -0.087271 0.122114 103 109 109
0.049716 0.011013 0.039954 102 96 70
0.068334 0.003724 -0.040606 177 170 183
0.025672 -0.000735 -0.085286 208 214 225
0.025679 -0.000791 -0.085286 131 139 140
0.025619 -0.000727 -0.085286 49 47 24
0.072186 -0.011430 0.012904 129 130 119
0.029111 0.027602 -0.017226 113 106 44
0.047674 0.053662 0.020124 47 45 8
0.025602 -0.000807 -0.085286 138 139 133
-0.089578 0.001148 0.086734 94 92 42
0.025622 -0.000799 -0.085286 138 139 133
-0.059014 0.026989 0.070244 111 109 49
-0.068698 0.034664 0.031694 107 107 54
0.025648 -0.000803 -0.085286 137 140 139
0.025582 -0.000766 -0.085286 123 124 113
-0.016246 0.026419 0.056094 33 30 0
-0.047994 0.020655 0.084384 113 106 46
-0.015071 0.005320 0.055024 73 67 11
0.025598 -0.000790 -0.085286 138 136 126
0.049398 0.036308 0.005714 43 43 8
0.036388 0.022240 -0.003116 121 111 52
0.025673 -0.000787 -0.085286 132 138 140
-0.024053 -0.045270 0.074234 121 123 112
-0.111960 -0.038991 0.111194 87 86 29
0.025645 -0.000736 -0.085286 217 224 232
-0.037874 0.043710 0.007754 110 108 60
-0.053219 -0.010379 0.080614 90 87 30
-0.110116 -0.038396 0.108134 88 87 30
-0.000065 0.036869 0.048484 113 106 44
0.025590 -0.000774 -0.085286 132 130 118
0.025675 -0.000769 -0.085286 120 123 122
-0.117130 0.083375 0.066444 121 122 116
-0.106562 -0.080551 0.108134 134 137 136
0.038874 0.025226 -0.005576 110 103 41
0.025604 -0.000764 -0.085286 129 125 114
0.025678 -0.000800 -0.085286 135 140 145
-0.096958 -0.016188 0.105174 80 80 29
0.025496 -0.000798 -0.085286 104 112 113
0.025639 -0.000808 -0.085286 134 137 136
-0.025526 -0.043253 0.095924 107 109 100
0.053479 0.015603 -0.056026 107 113 113
-0.139577 -0.107446 0.146604 95 103 104
0.014127 0.032464 0.000474 116 109 51
-0.033018 -0.043253 0.095924 118 119 108
0.049818 0.006956 -0.035716 220 227 233
-0.002935 0.003587 0.042084 99 92 34
0.025609 -0.000772 -0.085286 133 131 119
0.052644 0.005764 0.028834 117 115 105
0.050511 0.003728 -0.034296 175 177 168
0.025655 -0.000809 -0.085286 133 136 137
0.042646 0.032908 -0.005066 50 49 7
0.045238 0.009249 0.039534 112 106 68
-0.062511 0.022671 0.051934 106 103 46
-0.093988 0.076030 0.050924 104 105 99
-0.071897 0.034087 0.039954 104 102 52
0.106031 -0.010073 0.012904 86 92 92
0.050579 0.015728 -0.052446 119 123 118
-0.027205 0.023092 0.051934 114 109 48
0.025604 -0.000773 -0.085286 131 129 117
0.043060 0.019011 0.003964 119 109 50
0.062998 0.009732 -0.047236 169 174 183
0.054357 -0.035612 0.071544 133 131 119
0.060198 0.006331 -0.038346 219 225 236
-0.022594 -0.011377 0.065824 117 110 50
0.025623 -0.000736 -0.085286 86 84 72
0.025598 -0.000769 -0.085286 131 129 117
0.042040 0.008113 0.037074 127 119 75
-0.013250 -0.030928 0.102304 119 120 109
-0.104978 -0.079082 0.160334 66 70 65
0.028165 0.024774 -0.008056 122 112 51
-0.013207 -0.049305 0.091624 128 126 114
-0.109007 -0.094260 0.163614 70 76 74
-0.019636 0.042775 0.012394 113 111 51
-0.080493 0.064879 0.043404 87 89 78
0.047114 0.011416 -0.051796 188 195 201
0.025637 -0.000782 -0.085286 132 134 125
-0.116547 0.080712 0.065824 121 122 118
0.069067 -0.007965 0.019534 127 125 115
-0.231730 -0.106654 0.225864 96 104 103
0.025676 -0.000797 -0.085286 133 135 141
-0.017002 0.041463 0.017224 118 113 54
0.025596 -0.000807 -0.085286 137 138 132
0.054998 -0.039786 0.109144 131 129 117
0.063173 0.010375 -0.045566 188 193 202
0.046504 0.012385 0.024144 112 102 41
-0.025516 0.040349 0.011624 113 110 53
-0.108195 -0.048431 0.136934 97 97 48
0.025683 -0.000764 -0.085286 29 86 109
0.024875 0.010637 0.025114 110 98 42
-0.032916 0.041809 0.009894 109 108 53
-0.066257 0.013351 0.094184 109 103 47
0.054133 0.012909 -0.053596 199 205 218
-0.016750 -0.000082 0.051424 84 77 19
0.067189 0.005609 -0.041806 165 153 164
0.021431 0.017691 0.026774 93 85 30
0.029890 0.001095 0.032814 93 91 79
0.043231 0.007590 -0.045736 218 223 228
0.025611 -0.000797 -0.085286 137 138 132
0.008594 0.039932 0.028834 112 105 43
0.026047 0.029264 -0.022506 106 101 40
-0.053049 0.016885 0.048004 116 113 58
0.025650 -0.000785 -0.085286 135 138 137
0.011662 0.038329 0.018944 109 102 40
0.043974 0.021063 -0.001826 115 105 44
0.055035 0.004581 -0.035116 226 231 236
0.054725 0.014242 0.025444 117 109 54
-0.033150 0.014218 0.057714 83 77 21
0.072394 -0.007945 0.021634 125 126 115
-0.095533 0.068771 0.061664 87 89 80
0.025650 -0.000766 -0.085286 117 121 114
0.025605 -0.000802 -0.085286 136 137 128
0.025548 -0.000807 -0.085286 121 122 116
-0.047919 -0.051256 0.083614 109 110 104
0.026228 0.033171 -0.023646 86 84 24
-0.049013 0.045761 0.015284 75 72 31
0.025654 -0.000725 -0.085286 207 219 223
-0.023192 -0.048719 0.092474 90 92 83
-0.052661 0.029868 0.040794 112 109 52
0.025496 -0.000793 -0.085286 103 111 112
0.025588 -0.000802 -0.085286 137 138 129
0.025643 -0.000805 -0.085286 133 136 135
-0.117386 -0.056506 0.154034 89 94 99
-0.008243 -0.016588 0.084384 105 106 95
0.025681 -0.000808 -0.085286 127 134 138
0.025575 -0.000807 -0.085286 135 136 130
0.013834 0.029530 0.030604 87 79 24
0.051807 0.006458 -0.038926 219 224 229
0.032363 0.028339 -0.015966 99 95 29
0.022857 0.030026 -0.019856 112 105 43
0.025636 -0.000799 -0.085286 135 136 132
0.025679 -0.000773 -0.085286 120 126 128
-0.235818 -0.094778 0.248094 87 93 91
0.045933 0.011709 -0.051276 171 174 177
-0.077650 0.030377 0.042084 108 108 57
-0.049795 0.041867 0.014484 82 77 36
-0.022139 0.038922 0.023194 115 110 51
-0.054963 0.013229 0.085944 69 62 11
0.025574 -0.000799 -0.085286 134 135 126
-0.117006 0.008724 0.072214 94 93 47
-0.110067 0.055892 0.065824 77 79 70
0.046512 0.017923 -0.050216 122 126 121
0.025656 -0.000740 -0.085286 218 225 233
-0.076636 0.023813 0.042524 105 103 53
-0.009310 -0.057723 0.092474 91 92 81
0.025676 -0.000775 -0.085286 124 127 130
0.062685 0.000377 0.033564 122 120 110
0.025681 -0.000788 -0.085286 133 138 143
-0.095726 -0.056152 0.152514 77 77 77
0.044847 0.017622 -0.046516 121 125 118
-0.008539 0.044653 0.008224 112 110 46
0.025650 -0.000721 -0.085286 210 217 221
-0.117699 -0.022577 0.124444 80 78 28
0.025606 -0.000799 -0.085286 140 142 133
-0.055862 0.028497 0.059944 114 112 52
0.025613 -0.000800 -0.085286 139 141 132
-0.048723 0.054213 0.017224 90 89 47
0.025668 -0.000797 -0.085286 131 137 137
0.025635 -0.000726 -0.085286 218 220 226
0.050283 0.018926 -0.049266 120 124 119
0.045808 0.015019 -0.048556 123 124 120
-0.070813 0.024642 0.040794 111 109 59
0.030158 0.019462 0.026104 94 87 29
-0.220369 -0.079450 0.189244 103 111 112
-0.097994 0.072602 0.048484 121 122 118
-0.068253 0.026203 0.039954 110 110 59
0.030621 0.022110 0.001674 125 115 56
-0.013701 -0.008783 0.046124 120 113 51
0.031722 -0.045599 0.076304 110 108 98
0.003023 0.011427 0.038294 94 88 34
0.025587 -0.000787 -0.085286 135 133 121
0.025542 -0.000807 -0.085286 115 119 112
0.025564 -0.000797 -0.085286 132 134 123
0.025609 -0.000755 -0.085286 121 119 109
-0.056105 0.061351 0.025774 87 88 75
0.025600 -0.000806 -0.085286 137 138 132
0.025648 -0.000743 -0.085286 223 230 236
-0.108523 -0.047595 0.133034 96 96 45
0.025491 -0.000705 -0.085286 118 119 113
0.033966 0.019278 0.007754 117 109 54
0.043709 0.013376 -0.047036 126 126 120
-0.123864 -0.025787 0.074914 86 85 41
0.025661 -0.000731 -0.085286 208 216 231
0.055965 0.011485 -0.049476 204 213 223
0.059811 -0.014561 0.028834 133 131 119
0.060275 0.017058 0.013684 91 85 31
-0.027753 0.046626 0.011374 105 103 53
0.020334 -0.015270 -0.050446 132 134 125
0.025618 -0.000726 -0.085286 48 50 7
0.002251 0.002817 0.042524 101 94 36
-0.052342 0.020564 0.077714 112 107 46
0.064983 -0.018777 0.003754 127 128 119
0.045167 0.011720 -0.051246 122 126 121
-0.038159 0.039665 0.021634 113 110 55
0.000419 -0.007008 0.051424 128 117 63
0.025622 -0.000784 -0.085286 132 134 123
0.025505 -0.000742 -0.085286 108 106 56
0.025549 -0.000808 -0.085286 123 124 118
0.072407 -0.006694 0.019824 126 127 114
0.025618 -0.000789 -0.085286 137 139 130
0.025662 -0.000733 -0.085286 212 218 229
0.025621 -0.000806 -0.085286 137 141 134
0.025669 -0.000739 -0.085286 205 211 224
0.025619 -0.000719 -0.085286 46 49 26
0.025671 -0.000712 -0.085286 203 209 220
-0.114133 -0.018142 0.077004 82 81 37
0.048892 0.012183 -0.052336 182 189 197
-0.096381 0.024844 0.048964 104 102 54
0.024410 0.029438 -0.016856 116 109 47
0.064950 0.002842 -0.033506 228 232 244
0.025610 -0.000783 -0.085286 138 139 128
-0.075051 -0.013370 0.094184 83 79 27
0.048387 0.013175 -0.052626 117 123 123
0.025664 -0.000719 -0.085286 203 213 220
0.019161 0.014687 0.027454 94 87 29
0.025662 -0.000780 -0.085286 130 133 134
0.025607 -0.000746 -0.085286 99 97 87
0.047373 0.043888 0.009654 44 44 9
0.025623 -0.000797 -0.085286 135 137 128
0.025574 -0.000808 -0.085286 133 135 126
-0.129119 0.069740 0.076304 102 107 97
0.057093 0.012925 -0.034776 207 217 220
0.066010 -0.004862 0.027114 84 84 64
-0.108056 0.063917 0.059384 90 91 85
0.025597 -0.000798 -0.085286 137 138 127
-0.006287 0.041829 0.056094 113 107 42
0.025510 -0.000781 -0.085286 76 83 77
0.006819 0.019622 0.042084 98 90 35
0.025573 -0.000805 -0.085286 133 134 128
0.025655 -0.000735 -0.085286 217 224 232
0.051343 0.016899 -0.053436 117 120 119
0.065063 -0.022049 0.009174 131 132 123
-0.164304 -0.048248 0.149524 90 90 41
-0.053550 -0.067535 0.122114 117 119 110
0.043853 0.013155 -0.048406 125 126 120
0.025582 -0.000809 -0.085286 137 137 131
0.042094 0.014246 -0.045986 118 118 112
0.067823 0.000812 -0.026006 216 222 233
-0.006138 -0.011618 0.076304 94 91 75
0.025658 -0.000734 -0.085286 214 223 233
-0.042732 0.042793 0.015564 109 107 57
-0.053557 0.032200 0.017794 105 103 53
0.011212 0.009416 0.034714 98 91 33
0.067491 0.014724 0.035884 90 92 79
0.071148 0.006889 -0.032486 194 192 206
0.025585 -0.000758 -0.085286 111 109 99
0.025493 -0.000710 -0.085286 89 91 80
0.051008 0.007952 -0.038166 220 225 230
0.025683 -0.000776 -0.085286 124 130 132
0.004588 0.000048 0.039114 129 119 58
-0.007956 -0.003650 0.051424 120 114 60
0.043492 0.014031 -0.047616 123 124 118
0.073488 0.000707 -0.029966 71 92 109
0.002564 0.000861 0.042964 117 107 46
0.025646 -0.000711 -0.085286 121 125 120
0.025649 -0.000776 -0.085286 126 130 125
0.027926 0.009821 0.025444 126 115 52
-0.112113 -0.022690 0.067064 85 84 42
-0.022874 -0.053733 0.053984 121 123 114
0.060900 0.001325 -0.026936 223 225 233
0.050272 0.008853 -0.041646 218 223 228
0.055719 0.033896 0.013164 46 44 5
-0.118516 -0.117907 0.160334 91 97 95
-0.027476 0.024823 0.049944 116 111 52
0.056925 0.029663 0.013164 56 55 13
0.025679 -0.000781 -0.085286 127 132 137
0.025602 -0.000799 -0.085286 136 138 129
-0.103954 -0.099054 0.139614 87 93 91
0.058348 -0.025135 0.039954 134 132 120
0.057441 -0.034403 0.054504 112 113 102
-0.027405 0.048289 0.003124 109 107 57
0.044922 0.020011 0.001274 116 106 45
0.071902 -0.038574 0.074914 112 113 102
0.025651 -0.000739 -0.085286 228 235 241
-0.068512 0.026113 0.039534 107 107 56
0.046973 0.018944 -0.047076 126 126 122
-0.047358 0.024823 0.049944 109 107 47
-0.040630 0.023725 0.048484 114 109 48
0.065709 -0.026371 -0.036816 132 137 142
0.025605 -0.000754 -0.085286 117 118 107
0.009571 -0.041789 0.051934 136 135 120
0.025569 -0.000807 -0.085286 131 132 126
0.013393 0.006899 0.038704 109 99 40
0.058816 0.011627 0.034714 104 105 94
0.055129 -0.021503 0.000874 138 139 130
-0.004074 -0.050871 0.064614 131 133 122
0.042616 0.011298 -0.048876 123 124 118
-0.114053 -0.104378 0.143754 23 26 29
-0.081584 0.030210 0.038294 104 102 54
0.072189 -0.005754 0.020424 125 126 113
0.064470 -0.030016 0.007754 100 102 93
-0.107636 -0.104683 0.130514 20 23 24
-0.014559 -0.042837 0.129274 127 125 115
0.025490 -0.000781 -0.085286 99 105 103
0.065908 -0.023966 0.033944 133 134 123
-0.050590 -0.024239 0.099514 111 105 49
0.042939 0.025983 -0.001266 103 93 32
0.049198 0.017276 0.012394 118 108 47
-0.005285 0.046952 0.004184 108 103 44
0.073956 -0.003889 0.036274 128 126 116
0.025680 -0.000787 -0.085286 132 137 142
0.025612 -0.000769 -0.085286 133 131 119
-0.060610 -0.008769 0.089964 90 87 30
0.009065 0.010956 0.031694 98 90 35
-0.040713 0.011282 0.070894 82 76 20
0.025585 -0.000809 -0.085286 137 139 130
-0.128666 0.013158 0.088334 88 87 43
-0.029710 0.040998 0.027454 113 111 51
-0.012720 -0.071019 0.063424 132 134 125
0.037123 0.020592 0.001474 122 113 49
0.042720 0.032536 -0.002936 51 49 10
-0.043579 0.045175 0.012394 104 100 50
-0.025710 -0.022068 0.108134 82 83 79
-0.122112 -0.022752 0.114344 79 79 30
0.030371 0.030940 -0.018566 93 87 31
0.025541 -0.000775 -0.085286 88 92 85
0.025593 -0.000792 -0.085286 137 138 127
0.049768 0.003614 -0.034706 104 106 97
-0.050443 0.023749 0.066444 114 109 50
0.025680 -0.000711 -0.085286 196 202 213
0.025504 -0.000809 -0.085286 95 102 106
-0.073117 0.034268 0.037884 101 100 43
0.025606 -0.000804 -0.085286 137 139 130
0.030825 0.014798 0.025774 98 88 31
0.025667 -0.000804 -0.085286 133 136 139
0.025490 -0.000801 -0.085286 106 113 117
0.025666 -0.000795 -0.085286 132 138 140
-0.100211 0.069395 0.061084 86 88 77
-0.114130 -0.071703 0.138264 93 101 98
-0.113794 -0.087569 0.161964 85 92 86
-0.116949 -0.099202 0.098604 115 121 121
0.025671 -0.000739 -0.085286 195 197 205
0.053259 0.006269 -0.038756 224 231 237
-0.026684 0.032953 0.029534 116 111 50
0.041781 0.015391 0.011884 132 122 63
0.025601 -0.000791 -0.085286 136 137 126
-0.104397 -0.082529 0.157144 71 77 75
-0.081607 0.033551 0.034714 87 85 46
0.025637 -0.000743 -0.085286 218 220 226
0.048509 0.018415 -0.048106 122 123 119
0.040890 0.019199 -0.042056 133 131 119
0.025660 -0.000763 -0.085286 113 117 112
0.095371 -0.009910 0.009654 116 119 118
-0.019869 0.040377 0.014214 116 111 52
0.025651 -0.000738 -0.085286 215 225 232
0.025615 -0.000752 -0.085286 118 119 110
0.025495 -0.000793 -0.085286 104 112 113
0.025645 -0.000699 -0.085286 122 125 124
0.025658 -0.000783 -0.085286 133 136 135
-0.000805 0.023952 0.041224 92 84 29
-0.096487 0.058518 0.054504 82 84 73
0.025574 -0.000769 -0.085286 123 124 113
0.025614 -0.000754 -0.085286 120 121 110
0.282956 -0.142623 0.245144 133 139 139
0.025590 -0.000785 -0.085286 136 137 124
0.025621 -0.000721 -0.085286 49 51 33
0.025631 -0.000756 -0.085286 124 125 114
0.025659 -0.000787 -0.085286 131 134 133
0.049887 0.012890 -0.053866 202 212 217
0.049474 0.018707 -0.050836 126 130 125
0.066211 -0.040520 0.003754 109 113 106
0.045793 0.027031 -0.002756 53 50 9
-0.199774 -0.089139 0.189244 94 100 100
0.347140 -0.124364 0.311954 133 139 139
0.064316 -0.045857 -0.000116 102 106 101
0.043886 0.016254 -0.045096 125 126 122
0.025585 -0.000761 -0.085286 116 117 106
0.025489 -0.000805 -0.085286 103 110 116
0.067357 0.004856 -0.042456 146 137 142
0.025675 -0.000784 -0.085286 134 137 138
-0.127772 -0.052716 0.086734 102 110 109
-0.103083 -0.022776 0.109144 82 82 29
0.025664 -0.000740 -0.085286 216 222 233
-0.085558 0.008996 0.065224 102 100 50
-0.021102 0.043488 0.012644 117 115 55
-0.025478 -0.019793 0.106154 54 52 44
0.025607 -0.000769 -0.085286 132 130 118
-0.049955 -0.000947 0.072214 85 82 25
0.025496 -0.000804 -0.085286 107 115 116
-0.040721 0.031512 0.031334 112 110 50
0.089430 -0.006780 0.002294 112 116 111
0.021068 0.032515 -0.024156 108 103 40
0.061464 0.003812 -0.030456 219 225 227
0.047043 0.034767 0.001274 40 40 5
0.051565 0.007034 -0.039726 225 230 237
0.025626 -0.000740 -0.085286 96 98 85
0.067143 -0.034883 0.005494 133 134 128
-0.070368 0.020320 0.054504 110 108 56
0.066958 -0.036195 0.008224 108 109 103
0.016532 0.033363 -0.025146 114 109 48
-0.015294 -0.053394 0.081354 130 131 120
0.087752 -0.033849 -0.010686 134 140 140
0.025671 -0.000768 -0.085286 114 117 116
0.090836 -0.035300 -0.018326 130 137 141
0.062772 0.009231 -0.043976 208 213 229
0.025664 -0.000729 -0.085286 205 216 225
-0.037757 -0.046882 0.105174 114 116 105
0.025676 -0.000714 -0.085286 195 205 219
0.096643 -0.012178 0.031334 122 123 117
0.051473 0.003473 -0.035456 228 230 238
-0.016083 -0.052221 0.078434 131 129 119
-0.126902 -0.093008 0.103254 93 101 102
-0.110736 -0.057577 0.170434 74 78 73
0.018622 0.028623 0.027794 85 78 20
0.025493 -0.000781 -0.085286 101 107 109
-0.073962 0.043200 0.050924 105 103 51
0.025618 -0.000809 -0.085286 136 140 135
-0.003792 -0.008062 0.055554 62 50 5
0.025670 -0.000765 -0.085286 93 99 97
0.006870 0.032232 -0.021426 114 109 50
-0.040665 0.040606 0.016664 111 109 59
0.053775 0.001500 -0.031336 179 177 167
0.025505 -0.000742 -0.085286 108 106 56
0.059505 0.009737 -0.045436 207 211 223
-0.037008 -0.046363 0.099514 119 121 110
-0.000353 -0.052320 0.090794 131 129 117
0.036576 0.011589 0.017504 132 120 60
0.025593 -0.000798 -0.085286 138 139 128
0.072605 0.000976 -0.036756 209 197 221
-0.016950 0.023721 0.055554 52 49 6
-0.079044 -0.082783 0.142354 107 111 104
0.042654 0.013772 -0.046766 126 126 120
0.025548 -0.000800 -0.085286 121 122 116
0.025604 -0.000775 -0.085286 133 131 119
-0.018806 -0.034797 0.096814 127 123 114
0.056346 0.011650 -0.049156 202 211 223
-0.081180 0.029361 0.038704 104 102 52
0.025656 -0.000797 -0.085286 134 137 136
0.025605 -0.000773 -0.085286 132 130 118
0.025540 -0.000802 -0.085286 112 116 109
-0.009362 0.039767 0.026444 116 111 50
0.025560 -0.000796 -0.085286 132 134 125
-0.059033 0.036042 0.022564 101 99 47
0.025582 -0.000780 -0.085286 132 130 118
0.048884 0.014073 -0.053186 115 119 114
0.047356 0.012119 -0.051976 193 202 212
0.049180 0.014024 -0.053186 115 122 116
0.032042 0.031626 -0.018206 59 57 7
-0.149079 0.073989 0.100434 87 89 80
0.025567 -0.000713 -0.085286 108 103 40
0.071509 0.005456 -0.032256 183 185 193
0.025645 -0.000709 -0.085286 123 124 120
0.096260 -0.041330 -0.007086 129 135 137
0.025670 -0.000715 -0.085286 198 204 215
0.072774 -0.009739 -0.007086 120 124 117
0.045925 0.012499 -0.050576 121 125 118
0.025622 -0.000781 -0.085286 132 133 122
0.050596 0.016152 -0.050966 119 122 121
0.049715 0.014306 -0.054336 116 120 115
-0.041761 0.048429 0.009414 93 92 50
-0.086966 0.011279 0.084384 107 104 49
0.025602 -0.000801 -0.085286 138 140 131
0.025577 -0.000767 -0.085286 122 120 110
-0.055638 0.022646 0.071544 113 111 51
0.074232 0.000837 -0.025046 176 183 187
0.064249 -0.041538 0.002704 101 101 101
0.037811 0.030347 -0.013286 53 50 7
-0.034262 0.042210 0.011124 110 108 56
0.067412 -0.009146 0.024464 87 86 71
0.027942 0.031385 -0.017846 107 102 41
0.025611 -0.000759 -0.085286 129 127 117
-0.107865 -0.058750 0.168694 65 71 69
-0.063506 0.016642 0.063424 110 106 54
0.025623 -0.000722 -0.085286 130 132 116
0.025619 -0.000806 -0.085286 136 140 133
-0.128774 -0.069864 0.108134 93 99 97
0.025502 -0.000778 -0.085286 94 93 49
0.009190 0.009416 0.034714 96 88 33
-0.053350 0.014595 0.083614 108 102 46
0.025654 -0.000746 -0.085286 219 224 231
0.046975 0.023887 0.003754 102 93 29
0.025570 -0.000771 -0.085286 123 124 111
-0.109726 -0.080217 0.118714 129 135 133
0.009458 -0.004196 0.056634 124 117 57
0.078885 -0.005415 -0.007086 119 126 134
0.015609 0.015829 0.030604 95 88 30
-0.114200 -0.021610 0.112234 78 78 29
0.000856 0.042210 0.000474 107 102 43
0.025545 -0.000804 -0.085286 119 123 116
-0.320535 -0.115945 0.406064 77 78 40
-0.120404 0.009185 0.079884 96 94 46
0.073092 -0.015780 0.009894 95 97 88
-0.136282 0.002440 0.100434 94 94 43
0.065206 -0.001337 -0.019976 220 225 230
0.025618 -0.000762 -0.085286 127 123 112
0.025612 -0.000808 -0.085286 140 141 135
0.025490 -0.000782 -0.085286 101 107 105
0.025626 -0.000750 -0.085286 110 111 100
0.012230 0.012263 0.035484 98 90 37
0.025673 -0.000801 -0.085286 129 135 137
0.025606 -0.000755 -0.085286 119 120 109
0.063504 -0.039855 -0.006426 137 137 133
0.025680 -0.000709 -0.085286 195 206 217
-0.009364 0.042739 0.039954 115 109 44
0.025588 -0.000802 -0.085286 136 137 128
0.040854 0.017139 -0.043606 129 130 121
0.025591 -0.000761 -0.085286 122 120 110
-0.065212 0.034514 0.040794 105 103 51
0.066666 -0.005412 0.023824 98 96 84
0.047537 0.015602 0.021024 123 111 51
0.083539 -0.012147 0.022564 125 126 115
-0.049714 0.007999 0.072214 81 78 21
0.012626 -0.001892 0.042524 129 119 60
-0.034158 0.029699 0.042524 113 108 49
0.025671 -0.000792 -0.085286 133 139 139
0.025761 0.030957 -0.021426 105 98 36
0.025669 -0.000719 -0.085286 202 213 224
-0.021133 0.042775 0.012394 113 111 51
-0.006380 -0.060219 0.095924 135 137 126
-0.024019 -0.052099 0.074914 125 126 115
0.025640 -0.000764 -0.085286 120 120 114
0.051380 0.021786 0.002494 66 59 12
0.055698 0.044358 0.022254 45 45 10
0.014001 0.031000 -0.023446 119 115 49
0.064954 0.000248 -0.027026 219 224 233
0.025673 -0.000712 -0.085286 197 205 220
0.025679 -0.000806 -0.085286 133 140 144
0.025587 -0.000800 -0.085286 138 139 130
0.093405 -0.051864 0.029184 134 138 133
0.025607 -0.000755 -0.085286 122 120 110
0.025640 -0.000772 -0.085286 97 98 92
-0.111410 -0.076561 0.119834 146 154 141
0.025660 -0.000807 -0.085286 131 137 137
0.068244 -0.003195 0.029894 86 84 72
0.042665 0.009921 -0.048406 207 210 213
-0.068732 0.012924 0.065224 110 106 54
0.025630 -0.000730 -0.085286 221 224 227
0.025652 -0.000777 -0.085286 126 130 125
0.025661 -0.000782 -0.085286 131 138 132
0.025671 -0.000788 -0.085286 135 138 139
0.049906 0.013962 -0.055046 114 117 116
0.033536 -0.016705 -0.053076 137 138 132
-0.016708 -0.060533 0.098604 103 101 89
0.025683 -0.000705 -0.085286 184 198 204
-0.148527 -0.088242 0.124444 92 99 103
0.025577 -0.000761 -0.085286 109 110 99
0.025589 -0.000788 -0.085286 138 136 124
0.025667 -0.000787 -0.085286 132 138 138
0.040357 0.022138 0.003334 123 113 54
-0.101807 -0.079266 0.099514 120 123 122
0.025589 -0.000769 -0.085286 132 128 117
0.025671 -0.000779 -0.085286 125 131 131
0.025592 -0.000765 -0.085286 128 126 114
-0.047916 0.019851 0.034324 109 106 49
-0.016030 -0.002012 0.056094 92 85 27
0.066112 0.008525 -0.034636 216 225 235
-0.121219 0.001230 0.094184 90 88 40
-0.043387 0.023935 0.051934 111 106 45
-0.070876 -0.022616 0.086734 84 80 28
-0.100320 -0.044179 0.078434 84 90 88
0.029905 -0.003567 -0.061826 129 127 115
0.032752 0.024804 -0.005746 119 109 48
0.032836 0.021289 0.001074 126 116 57
-0.024671 0.001089 0.061084 90 84 28
0.036565 0.020211 0.006834 125 115 56
-0.052153 0.034376 0.031334 110 109 52
0.025543 -0.000775 -0.085286 96 100 93
0.031671 0.020938 0.007524 95 85 28
-0.017652 0.040481 0.012644 114 112 52
0.025638 -0.000768 -0.085286 122 124 115
0.013898 0.030121 0.033564 88 80 25
0.025624 -0.000721 -0.085286 129 130 119
0.020603 0.029002 -0.017846 114 107 45
0.035738 0.021640 -0.000116 130 120 59
-0.052620 -0.015661 0.079884 95 91 39
0.025640 -0.000790 -0.085286 131 135 128
0.012736 0.029511 -0.018326 122 117 56
-0.061759 0.012720 0.070894 113 107 51
0.025611 -0.000749 -0.085286 112 113 104
0.025619 -0.000796 -0.085286 139 141 132
-0.094710 -0.083852 0.155584 93 94 88
0.025647 -0.000736 -0.085286 218 223 230
-0.023825 0.005584 0.056094 86 81 22
-0.002385 -0.008364 0.057174 91 86 55
-0.112278 0.010615 0.062244 94 93 47
0.025661 -0.000763 -0.085286 110 116 114
-0.023425 -0.090095 0.087534 137 138 134
0.043704 0.017431 -0.045226 128 129 125
0.002932 0.044802 0.029184 112 107 44
0.025664 -0.000807 -0.085286 133 139 139
0.067357 0.004658 -0.042456 151 142 145
-0.033674 0.032910 0.037074 107 99 44
0.025665 -0.000807 -0.085286 132 138 140
0.019538 0.028366 -0.019746 119 112 50
0.025547 -0.000779 -0.085286 110 112 103
-0.087458 0.015823 0.088334 112 108 56
0.051159 0.013294 -0.054256 181 190 200
-0.110730 0.022440 0.064014 104 104 53
0.025613 -0.000798 -0.085286 138 139 133
-0.017021 -0.024934 0.079154 117 118 109
0.022897 0.025611 -0.006256 129 119 60
0.027567 0.032177 -0.019976 98 93 30
-0.059377 0.040298 0.020724 95 94 50
