ply
format ascii 1.0
element vertex 1214
property float x
property float y
property float z
property uchar blue
property uchar green
property uchar red
end_header
-0.100586 0.009627 -0.143180 20 133 170
0.070363 0.114058 0.007330 95 99 88
0.396276 -0.118245 0.354820 254 255 250
0.405484 0.032252 0.363530 90 100 107
-0.009571 -0.016963 0.029880 192 204 199
-0.125502 0.030312 -0.158190 12 46 110
0.290113 0.047660 0.228320 108 110 104
0.018303 0.045382 0.023820 108 117 116
-0.102232 -0.010944 -0.152460 41 73 123
-0.097774 0.011926 -0.139540 9 127 163
0.009690 0.021628 0.001130 63 60 127
-0.120162 0.034711 -0.169730 22 128 246
-0.119463 0.033824 -0.167200 13 121 227
-0.087368 -0.009210 -0.138570 185 193 195
-0.084554 -0.019136 -0.131960 156 168 183
-0.006540 0.107937 -0.019550 88 96 89
0.299316 -0.223783 0.421410 107 100 82
-0.107144 -0.005456 -0.162580 229 230 227
0.312302 0.060646 0.255790 103 106 98
-0.097636 0.007960 -0.141280 39 87 115
0.049921 0.098508 0.016650 91 97 90
-0.031730 -0.318871 0.421410 87 97 99
-0.124056 0.014543 -0.170540 95 121 136
-0.114665 -0.008669 -0.168310 195 193 179
-0.086895 -0.014982 -0.135790 125 120 129
-0.023575 0.093417 0.018050 139 152 139
-0.070496 0.103066 0.009920 89 96 92
-0.493704 0.028666 0.208570 51 62 75
-0.120483 -0.000529 -0.172060 52 62 116
-0.119817 -0.003486 -0.174580 183 176 171
-0.104911 0.039033 -0.150940 79 80 77
-0.094027 0.035469 -0.131620 45 38 20
-0.115763 0.011651 -0.159570 133 128 160
-0.116450 -0.005350 -0.172660 124 142 167
-0.125849 0.029914 -0.160000 0 46 104
-0.087577 0.035298 -0.127910 46 79 173
0.034058 0.097809 0.011230 110 132 111
-0.107458 0.044395 -0.150750 101 90 50
-0.106235 0.031943 -0.151710 144 106 79
-0.083391 0.035605 -0.123000 54 47 24
-0.122001 0.031857 -0.171480 29 109 192
-0.098112 0.040735 -0.140220 157 151 123
0.006804 0.033847 -0.009200 126 121 166
0.197679 -0.298495 0.421410 111 108 98
0.482262 -0.122873 0.421410 254 255 250
-0.123080 0.020909 -0.167460 80 107 131
-0.095122 -0.011390 -0.138710 11 35 82
-0.123445 0.021125 -0.153270 99 100 87
-0.026612 0.011869 0.025300 54 61 118
-0.105526 0.024707 -0.127910 99 106 97
-0.087823 0.005519 -0.132130 171 175 223
0.218974 -0.263565 0.421410 156 144 135
-0.086285 0.000690 -0.133920 5 142 178
0.142516 0.088412 0.055700 95 99 88
-0.110169 -0.011418 -0.165760 141 159 184
-0.104219 -0.009317 -0.152730 68 75 79
-0.107548 0.009859 -0.140220 1 25 72
0.400091 0.068434 0.330220 104 105 97
-0.027843 0.106640 -0.012420 95 103 96
-0.117214 -0.002964 -0.173630 212 206 194
0.378689 -0.198555 0.421410 254 222 192
-0.114250 0.037028 -0.163020 196 136 20
-0.106388 -0.002559 -0.151800 95 105 107
0.322892 0.044706 0.322480 93 101 94
0.275786 -0.128666 0.173960 254 255 252
-0.123331 0.031684 -0.097560 106 109 96
0.455159 -0.278119 0.421410 251 255 252
0.137182 0.097620 0.057620 104 110 103
-0.087246 -0.015005 -0.136690 94 100 114
0.339970 -0.200496 0.421410 189 165 145
0.353522 -0.127725 0.421410 161 149 132
-0.119948 0.027298 -0.155920 40 38 81
0.353105 -0.036328 0.322480 142 148 147
0.179542 0.120154 0.063540 99 100 87
-0.123286 0.020502 -0.172260 47 60 81
0.412568 -0.073389 0.421410 97 97 123
0.429023 -0.294614 0.421410 87 82 77
-0.114854 -0.008512 -0.166940 100 115 189
-0.102464 0.029002 -0.148840 36 51 138
0.022280 -0.040511 -0.010280 255 255 249
-0.112586 0.001491 -0.163390 158 159 146
-0.022712 -0.017761 0.046500 85 107 107
-0.108793 0.040279 -0.152180 31 27 13
0.003712 0.015234 0.008620 86 94 96
0.028342 0.106174 -0.019550 88 95 86
-0.126565 0.016412 -0.159360 57 63 62
-0.108974 -0.011471 -0.164110 182 191 200
-0.115952 0.033053 -0.164460 210 211 198
-0.004022 0.026019 0.008620 75 78 99
0.054821 0.108596 0.008620 88 95 86
-0.110691 0.014798 -0.150260 145 150 137
0.009894 0.112203 -0.009200 81 87 80
0.511301 0.021699 0.421410 50 67 74
-0.123001 0.017347 -0.168600 110 137 154
0.284796 -0.321782 0.421410 111 107 95
-0.125711 0.005653 -0.167960 51 66 80
-0.017371 0.019388 0.022350 151 157 150
0.035004 0.013412 0.039580 29 34 30
-0.093422 0.054931 -0.122160 60 114 111
-0.008931 0.112537 -0.029780 93 100 91
0.046087 0.053440 0.016650 124 120 113
0.227651 0.119069 0.134740 104 105 97
-0.107141 0.005354 -0.142050 2 52 75
-0.109568 0.040723 -0.154150 148 118 62
0.204257 -0.059332 0.244400 224 235 219
-0.119324 -0.006637 -0.174440 113 117 183
-0.113645 -0.009574 -0.164630 16 34 59
0.351472 -0.037147 0.322480 178 177 174
-0.099710 -0.011817 -0.151620 204 198 177
0.014720 0.086281 0.016650 28 61 14
0.060939 0.112050 -0.006990 95 102 93
-0.120166 0.030113 -0.170360 23 69 138
0.413182 -0.267339 0.372500 106 106 95
-0.084492 0.039731 -0.123620 157 156 134
-0.099620 -0.001770 -0.144510 161 160 152
-0.114572 -0.001763 -0.169170 191 193 198
-0.091591 0.000358 -0.134080 6 132 170
0.011634 0.036242 -0.019550 126 126 127
-0.114121 0.022858 0.113690 0 22 35
-0.108498 -0.011608 -0.163390 181 199 216
0.377843 -0.101782 0.338180 254 255 250
-0.107139 -0.002912 -0.156560 127 130 133
-0.116039 0.007432 -0.159210 193 158 122
-0.117282 0.014274 -0.162390 86 101 182
0.393209 -0.001588 0.421410 72 66 38
-0.100227 -0.009597 -0.122160 85 97 99
-0.124509 0.006635 -0.161490 40 25 0
-0.104792 -0.000210 -0.137130 19 67 81
0.060701 -0.118034 0.173960 223 214 196
-0.089511 0.027775 -0.132290 182 182 176
-0.069167 0.112194 -0.021500 100 108 101
0.013507 0.107554 -0.012420 70 76 69
-0.105028 -0.014958 -0.160070 117 146 177
0.348682 -0.145190 0.421410 208 187 162
-0.043817 -0.059843 0.042990 121 159 184
-0.088368 -0.025641 -0.138420 145 156 155
-0.014906 0.109202 -0.010280 85 93 81
-0.117914 0.033996 -0.166310 1 72 148
-0.105490 0.032420 -0.150850 158 120 112
0.107853 0.111197 0.065580 95 99 88
0.379657 -0.084062 0.421410 67 74 104
-0.097824 0.025187 -0.133280 30 30 6
0.063364 0.081730 0.044730 105 116 120
-0.013434 -0.012014 -0.003590 237 248 232
-0.083130 0.105505 -0.010280 87 100 98
-0.123802 0.027473 -0.169910 0 40 92
-0.127063 0.015203 -0.159640 65 79 87
-0.125670 0.016874 -0.159500 49 36 9
0.353522 -0.260654 0.421410 47 49 31
0.104013 0.104052 0.059560 92 100 88
-0.078848 0.105528 0.012560 89 99 94
-0.022271 0.092374 0.025300 157 155 141
-0.017808 -0.009841 0.020900 104 148 203
0.049953 -0.144210 0.083000 251 253 247
-0.087327 0.025294 -0.129000 57 55 29
-0.112476 0.016799 -0.149760 161 127 0
-0.102556 0.026517 -0.149250 133 126 171
-0.100666 0.041086 -0.148320 21 33 176
-0.110995 0.024673 -0.144030 72 72 61
-0.112586 -0.001949 -0.163390 12 32 124
-0.034375 0.103678 0.013910 64 69 65
0.323515 -0.220872 0.421410 101 94 76
0.395640 0.008777 0.307660 76 93 100
0.144505 0.086929 0.051940 97 100 92
-0.109292 -0.009478 -0.163570 240 231 199
-0.068162 -0.032322 0.055700 149 170 233
-0.108358 0.008382 -0.141150 32 47 82
0.482835 -0.035309 0.381770 190 183 165
0.170470 0.119156 0.053800 95 92 82
-0.123221 0.006613 -0.162010 57 39 0
-0.113502 0.015784 -0.153540 55 35 0
-0.012705 0.001321 0.018050 91 101 96
-0.032139 0.065688 0.041280 66 77 76
-0.115984 0.028393 -0.157040 167 165 153
-0.112738 -0.007553 -0.164860 42 53 118
-0.111294 0.029771 -0.153980 23 35 179
-0.120292 0.005947 -0.163330 126 90 0
-0.106597 -0.007588 -0.162460 166 176 196
-0.124332 0.014435 -0.168260 98 127 146
0.124397 0.101854 0.028330 101 101 90
-0.084814 -0.019182 -0.132460 134 148 172
0.417648 -0.168861 0.372500 254 255 250
0.274019 0.113515 0.173960 106 107 99
0.372881 -0.247070 0.421410 245 255 248
-0.110268 0.045384 -0.151620 125 123 111
-0.120313 0.032445 -0.167410 5 110 211
-0.115927 0.000747 -0.166310 100 99 103
0.009937 -0.029591 -0.029780 156 162 176
-0.122332 0.011808 -0.162830 45 43 29
-0.114716 -0.005389 -0.167810 193 192 184
0.048861 0.097275 0.023820 79 80 77
0.014830 0.081691 0.036260 42 60 45
-0.105377 0.038809 -0.151230 87 89 94
-0.112598 0.036297 -0.159430 194 126 0
-0.123099 -0.003459 -0.156400 98 103 112
-0.109042 0.005580 -0.141010 0 35 45
0.111277 0.020945 0.116540 37 37 37
0.209085 0.096691 0.170030 100 103 95
-0.119304 0.011364 -0.162830 78 105 109
-0.125361 0.021454 0.134740 41 106 119
-0.115819 -0.008094 -0.171900 246 234 212
-0.104537 0.030099 -0.149960 98 99 180
-0.101887 0.005675 -0.144390 0 133 172
-0.089014 -0.016942 -0.139540 184 201 202
-0.092815 0.053896 -0.120870 50 87 89
-0.092776 0.034265 -0.130250 28 26 12
-0.086526 -0.018952 -0.134240 157 179 213
-0.099954 0.026920 0.095060 18 23 44
-0.117581 -0.001302 -0.170400 62 76 186
-0.113872 0.034148 -0.161220 186 161 191
-0.107394 0.011386 -0.141150 1 47 75
0.156433 0.004969 0.166180 107 108 129
-0.103065 0.006166 -0.144150 0 113 143
0.164296 0.105821 0.095060 98 100 94
-0.124895 0.027867 -0.166730 1 48 101
0.428055 0.048867 0.421410 54 60 60
-0.117217 0.031295 -0.163690 26 39 186
0.001904 0.023443 -0.006990 70 42 170
0.355946 -0.140036 0.307660 255 255 245
-0.105459 -0.004527 -0.160620 194 202 195
0.013646 0.008840 -0.014510 237 242 238
0.164933 0.112245 0.046500 103 104 96
0.105558 0.114535 0.048290 87 93 86
0.100842 0.112231 0.026810 90 93 85
0.088136 0.120471 -0.005870 102 104 93
-0.113142 0.028633 -0.119770 115 118 110
-0.062714 0.104770 -0.009200 93 101 94
-0.126624 0.011251 -0.159070 25 23 11
-0.046915 0.107138 0.002340 96 104 97
-0.113372 0.027223 -0.163690 149 142 158
-0.027604 0.014118 0.033030 118 129 133
-0.087707 0.061366 -0.117480 87 95 131
-0.107050 -0.000137 -0.161490 96 105 104
0.417408 -0.134517 0.421410 160 147 127
-0.009329 0.087329 0.016650 100 110 98
-0.115356 -0.001603 -0.171360 207 202 192
-0.090830 0.037396 -0.129360 142 137 107
-0.113354 0.004872 -0.163990 123 81 25
-0.103008 0.028854 -0.146130 31 45 176
-0.056937 0.104181 -0.017570 92 100 93
-0.114815 -0.006489 -0.169680 194 192 216
0.388158 -0.077243 0.401210 140 93 113
-0.116935 0.031300 -0.162960 17 29 184
0.080555 -0.242218 0.421410 247 255 255
-0.089784 0.012309 -0.131110 11 115 152
-0.097326 0.025347 -0.134400 28 30 6
0.046087 0.099556 0.016650 91 93 87
-0.123464 0.024314 -0.172260 64 177 194
0.079927 0.122315 -0.003590 102 104 93
0.410648 -0.083818 0.401210 195 182 167
-0.020397 0.079020 0.026810 190 194 176
-0.115319 0.034050 -0.163080 171 117 4
0.342690 0.089550 0.261700 111 113 102
-0.097063 -0.019641 -0.148000 145 166 175
0.028838 0.114873 -0.027100 93 96 88
-0.123565 0.013626 -0.170180 104 131 148
-0.113544 0.007889 -0.151620 150 111 0
-0.008236 0.111903 -0.021500 86 88 82
0.085394 -0.293643 0.421410 74 75 72
-0.120677 0.033929 -0.171900 33 136 252
-0.125167 0.027762 -0.170140 14 47 86
0.309212 0.109702 0.194890 107 109 98
0.049580 -0.234456 0.421410 93 95 89
0.407836 0.024201 0.401210 91 110 117
0.284796 -0.294614 0.421410 129 127 115
-0.123989 0.010865 -0.167250 96 121 138
0.096882 0.112872 0.057620 102 111 97
0.531628 0.052748 0.421410 82 98 83
-0.010817 -0.000944 -0.012420 133 135 129
-0.078498 0.114295 -0.022450 97 106 97
-0.112135 0.031694 -0.156400 102 112 194
-0.115550 0.038426 -0.163810 147 128 59
-0.062220 0.045199 0.053800 251 255 252
-0.097631 0.000906 -0.142050 25 124 155
-0.010296 0.001692 -0.010280 132 139 135
-0.098397 0.039148 -0.142560 156 114 0
0.023307 -0.250650 0.307660 251 249 243
0.091903 0.118925 0.002340 104 107 99
0.309580 -0.246748 0.372500 97 94 84
-0.095487 -0.008004 -0.127720 82 137 154
-0.086892 -0.026691 -0.135480 210 220 208
-0.109074 -0.007459 -0.164050 105 115 197
0.179855 0.097048 0.137980 96 100 89
-0.115216 0.018706 -0.160000 100 101 86
-0.122218 0.024540 -0.166940 38 106 137
0.045388 0.030018 0.020900 121 124 116
-0.115133 0.021517 -0.116770 115 122 113
-0.099979 -0.000706 -0.141920 175 178 165
-0.029177 0.093569 0.019470 109 115 108
-0.111706 0.012710 -0.152550 134 130 180
0.011829 -0.265505 0.421410 76 82 81
-0.108668 -0.007412 -0.163990 177 176 230
0.429023 -0.219902 0.421410 131 122 104
-0.113882 0.030146 -0.161490 14 26 142
-0.105729 0.016224 -0.139260 147 155 143
-0.067610 -0.021098 0.057620 135 168 223
-0.115016 -0.010674 -0.168980 118 132 156
-0.067512 0.104753 0.020900 84 95 87
0.127596 -0.228670 0.363530 251 255 254
0.215102 -0.287822 0.421410 120 120 114
-0.114908 -0.007884 -0.166520 40 60 158
0.220910 -0.263565 0.421410 158 146 137
0.326419 -0.231545 0.421410 90 86 72
-0.030589 0.042860 0.023820 121 119 150
0.360298 -0.133546 0.421410 175 161 139
0.449453 -0.030334 0.363530 83 95 105
0.032194 -0.262240 0.322480 127 127 121
-0.117783 0.016983 -0.162900 178 163 114
0.122095 -0.121549 0.050100 125 122 112
0.476454 -0.155863 0.421410 254 255 252
-0.111388 0.006338 -0.153540 171 163 134
0.030929 0.107768 -0.008100 92 99 90
-0.113010 0.000260 -0.163140 161 163 145
-0.104530 -0.013297 -0.157430 125 149 171
-0.095999 0.059630 -0.126400 60 117 120
-0.004398 -0.070887 0.048290 185 189 194
-0.087123 -0.018572 -0.135480 154 177 201
0.286732 -0.186912 0.421410 253 255 211
0.112825 0.110525 0.009920 93 94 86
-0.100249 0.047885 -0.147020 31 30 45
0.481294 -0.046221 0.421410 199 195 176
-0.092035 0.008199 -0.132460 1 15 146
0.068313 -0.032821 0.053800 139 144 124
-0.087225 -0.004332 -0.133110 145 152 148
0.013437 0.005837 -0.024340 68 74 120
-0.094874 -0.009980 -0.137850 41 54 80
0.361156 -0.075224 0.330220 255 246 217
0.390969 -0.200291 0.401210 108 97 86
0.011275 0.032210 -0.006990 95 88 159
-0.100335 0.036851 -0.146580 231 194 158
0.393209 -0.262594 0.421410 86 86 80
-0.104175 -0.015529 -0.150260 53 77 83
-0.087986 0.055810 -0.119770 84 100 97
-0.115478 0.004220 -0.161620 90 61 0
-0.033817 0.105776 -0.018560 99 108 99
-0.020201 0.022660 0.031440 136 129 131
0.168448 -0.042149 0.208570 136 142 135
-0.080559 0.100382 0.012560 86 93 89
-0.063671 0.066311 0.055700 184 185 170
-0.122674 0.023705 -0.170050 56 178 194
0.002270 -0.054352 0.012560 154 175 204
-0.118280 0.004609 -0.160620 123 89 0
-0.103388 0.039057 -0.150060 64 60 184
0.297380 -0.296554 0.421410 121 123 112
-0.120019 0.001603 -0.169260 97 97 97
-0.123761 0.012333 -0.168160 72 102 117
-0.109207 -0.003576 -0.164230 172 180 182
-0.084467 0.108983 -0.033230 91 93 87
-0.026654 0.034400 0.046500 70 58 152
-0.114068 -0.005270 -0.168110 131 141 177
0.126715 -0.208918 0.330220 99 97 91
-0.038115 -0.009991 0.034630 106 131 155
-0.007445 0.099744 0.018050 153 167 150
-0.111039 0.028209 -0.151040 24 38 182
-0.098192 -0.006128 -0.149860 196 197 184
0.483230 -0.067567 0.421410 232 215 192
-0.115732 0.034857 -0.163990 143 90 1
0.397080 -0.142279 0.421410 207 186 161
0.472582 -0.035547 0.421410 82 106 114
-0.118299 0.014691 -0.162900 86 75 172
-0.110244 0.025840 -0.122370 147 151 140
-0.007011 0.109631 0.022350 168 169 156
-0.034274 0.104373 0.055700 40 45 41
-0.107144 0.038228 -0.151710 76 71 61
-0.118818 -0.005758 -0.174040 103 97 165
-0.091675 -0.021573 -0.140880 203 216 214
-0.123996 0.030256 -0.163930 11 80 156
0.026018 0.114532 -0.026190 90 95 82
-0.122025 0.032481 -0.170000 14 109 200
0.114239 0.105720 0.018050 91 94 86
0.005824 -0.038505 -0.014510 79 75 172
0.053315 0.114394 0.007330 87 93 86
-0.104882 0.043501 -0.151040 55 69 86
-0.109215 -0.012950 -0.164980 205 213 206
-0.117724 -0.005277 -0.173850 234 223 203
-0.078713 0.100817 -0.014510 95 103 96
-0.123620 0.023314 -0.172220 83 160 171
0.032806 0.089649 0.015270 68 70 82
0.011047 0.029608 -0.008100 90 77 175
-0.122048 0.015445 -0.162710 27 33 40
-0.123090 0.021749 -0.170580 40 60 60
-0.007531 -0.242218 0.421410 152 159 168
-0.115277 0.008693 -0.159000 156 117 33
0.219352 0.090629 0.199350 103 107 96
-0.088078 0.025705 -0.129540 131 125 97
-0.123097 0.025183 -0.171270 38 117 148
-0.118392 0.011436 -0.162520 88 126 139
0.078485 0.113752 -0.009200 95 96 88
0.006780 0.057313 -0.002430 114 92 117
-0.116237 0.014016 -0.159710 194 195 180
0.240137 0.021254 0.255790 56 62 61
-0.094858 -0.018843 -0.140220 37 63 85
-0.093161 -0.013427 -0.138280 64 72 74
-0.034640 0.105795 -0.021500 99 106 97
0.247327 0.077634 0.155090 112 113 105
-0.117452 -0.001960 -0.172580 226 216 194
-0.103791 -0.007566 -0.150650 46 55 64
0.086847 0.117776 0.015270 89 92 84
0.394177 -0.326633 0.421410 111 107 95
-0.116951 -0.004306 -0.172620 207 205 191
-0.108829 0.008397 -0.147460 58 71 158
-0.105149 0.020698 -0.123410 104 110 103
-0.015715 0.042664 0.004810 163 171 164
-0.015951 -0.005951 0.016650 103 125 157
-0.114285 -0.011783 -0.164630 6 33 57
0.047830 0.111784 0.016650 82 85 77
0.401685 -0.004648 0.391330 102 124 158
0.000492 0.107483 0.022350 174 179 159
-0.119078 -0.007183 -0.175420 239 214 189
-0.017180 0.052541 0.019470 164 166 160
-0.124847 0.011528 -0.165540 83 109 124
-0.102683 0.033960 -0.148320 196 118 0
-0.106299 0.025080 -0.129540 116 120 109
0.368674 -0.176195 0.293640 254 255 252
0.416440 -0.138398 0.421410 164 146 127
0.447415 -0.314019 0.421410 131 127 115
0.117552 -0.118309 0.042990 123 123 112
-0.088704 -0.025043 -0.138280 151 160 158
-0.118039 0.030160 -0.163990 18 31 171
-0.112261 0.028066 -0.158630 180 178 164
0.094145 0.089194 0.085340 107 115 108
-0.033629 0.103744 0.009920 68 75 71
-0.111665 0.013625 -0.151990 116 130 138
-0.040883 -0.053063 0.037910 177 198 234
-0.117332 0.031688 -0.163270 28 46 192
0.318089 -0.162123 0.261700 183 172 159
-0.104162 -0.055628 0.078450 70 176 214
0.240269 -0.154893 0.421410 231 222 217
-0.108754 -0.001432 -0.163140 77 82 91
0.364807 0.061890 0.391330 98 99 96
0.279956 -0.253862 0.421410 103 111 104
-0.084401 0.008636 -0.128090 21 113 152
-0.120034 0.025172 -0.126590 104 106 95
-0.071438 -0.009939 0.085340 8 18 47
-0.104838 0.003276 -0.144030 0 68 90
-0.094385 0.028565 -0.133110 71 73 55
-0.097506 0.035719 -0.138280 136 150 179
-0.109428 -0.002494 -0.157500 84 87 95
-0.043789 -0.063451 0.050100 105 135 172
-0.105985 0.034289 -0.151040 138 156 215
0.017637 -0.197585 0.421410 209 214 223
-0.104612 0.037712 -0.150360 115 137 155
0.193900 -0.058320 0.233550 118 121 113
0.032617 0.117522 -0.023400 90 97 88
0.293670 0.099976 0.182070 110 114 103
-0.070139 0.095465 0.044730 69 77 70
0.013765 -0.317901 0.421410 104 107 110
-0.101003 0.032659 -0.146690 145 148 156
0.320570 0.093415 0.203910 110 115 102
-0.116204 0.032975 -0.164630 223 204 208
-0.106575 -0.001929 -0.154760 93 103 105
0.070259 0.109676 0.026810 96 100 89
-0.118958 0.010063 -0.163690 140 100 0
0.009641 -0.217976 0.267760 68 68 69
0.003175 -0.057161 0.007330 143 146 162
-0.112900 0.036761 -0.159780 204 135 1
-0.021527 0.100605 0.016650 152 162 150
0.215267 0.096072 0.177970 101 105 94
0.103017 0.103963 0.018050 93 95 84
-0.120764 -0.000929 -0.173700 45 59 183
-0.126118 -0.005697 -0.135480 108 109 106
-0.095124 -0.023360 -0.144630 148 160 155
-0.098524 0.042442 -0.144980 201 168 99
-0.112126 0.017107 -0.149460 141 121 68
-0.042675 0.022368 0.051940 165 177 167
-0.116133 0.032833 -0.164630 224 211 196
0.074924 -0.141755 0.228320 189 190 175
-0.115713 0.018266 -0.158480 131 106 34
-0.118664 0.014020 -0.163020 132 122 196
-0.111836 -0.002830 -0.163140 31 63 200
-0.126575 0.000491 -0.154760 97 96 93
0.464838 -0.086973 0.421410 247 237 208
0.320611 -0.280059 0.421410 116 114 108
-0.110052 0.011721 -0.151710 29 46 128
-0.123631 0.030252 -0.159930 15 74 145
-0.105029 -0.014063 -0.150850 38 58 78
-0.108722 -0.003404 -0.163870 185 187 181
-0.125056 0.028339 0.113690 92 85 86
-0.007366 -0.028864 -0.021500 175 179 178
-0.099619 -0.011452 -0.151620 213 208 185
-0.086398 0.034349 0.087710 26 20 26
-0.081870 0.103841 -0.009200 85 92 88
-0.108253 -0.004270 -0.163450 205 216 202
-0.030596 0.073915 0.046500 206 206 187
0.085106 -0.156321 0.261700 102 100 88
-0.109047 -0.009458 -0.165490 252 237 209
0.073779 -0.236397 0.421410 110 112 101
-0.104172 0.018859 -0.131960 108 114 107
-0.101445 0.029275 -0.149560 106 100 150
0.154429 0.087929 0.158710 97 106 97
0.451287 -0.209229 0.421410 187 177 161
0.426588 0.024800 0.346370 80 94 102
-0.088153 -0.024983 -0.137280 172 177 173
-0.020946 0.102297 0.013910 143 149 142
0.004324 0.042057 0.012560 104 110 110
-0.098224 -0.008182 -0.150750 197 200 192
-0.103896 0.014643 -0.142810 17 149 190
-0.096912 0.041075 -0.138570 141 142 120
-0.099683 0.027904 -0.139260 53 51 27
-0.094013 0.009629 -0.131790 7 67 108
-0.000951 -0.030142 -0.015540 106 101 180
-0.010388 -0.025509 -0.008100 254 255 250
-0.124161 0.018771 -0.163810 94 128 146
-0.104082 0.030407 -0.149560 167 169 179
-0.108963 0.016409 -0.147350 121 110 83
-0.119914 -0.002127 -0.174470 166 159 191
-0.113528 0.038747 -0.162580 81 86 82
-0.099701 -0.004994 -0.148840 55 78 128
-0.116731 -0.004479 -0.151430 82 77 86
-0.095101 -0.023431 -0.143910 146 158 160
-0.069299 0.003952 0.076220 45 53 73
0.169186 0.096069 0.119440 105 108 100
-0.124945 0.000264 -0.165760 101 100 104
-0.055345 -0.012490 0.067640 177 194 181
-0.119821 0.017361 -0.162830 86 62 47
0.014400 0.067806 0.009920 207 212 199
-0.083957 0.024294 -0.132130 49 47 21
-0.114151 0.024646 -0.131450 104 108 97
0.079695 0.048145 0.080710 53 57 110
-0.089850 0.007392 -0.133110 125 157 201
0.375039 -0.060336 0.401210 86 104 101
0.157024 -0.231545 0.421410 97 97 86
0.048612 -0.270357 0.421410 85 91 91
0.249949 -0.283941 0.421410 114 114 103
-0.104640 0.032249 -0.150260 197 143 110
-0.122391 0.025902 -0.168550 52 108 141
-0.118041 0.032205 -0.165710 7 114 218
0.369977 -0.257743 0.421410 48 48 37
0.309580 -0.244957 0.372500 96 93 83
0.026348 -0.188853 0.421410 209 215 214
-0.104660 0.023364 -0.150850 86 87 95
-0.118495 -0.004501 -0.174690 219 207 185
-0.111168 0.029173 -0.149250 18 34 178
-0.065949 0.034191 0.074020 116 140 162
-0.118931 -0.007164 -0.174830 231 217 200
-0.055952 0.102727 0.009920 88 99 91
-0.094726 0.005749 -0.131960 4 57 84
0.507547 0.111308 0.411410 106 108 97
-0.109131 0.011254 -0.150460 41 74 127
0.163235 0.075120 0.173960 60 63 55
-0.114450 -0.005300 -0.162390 0 12 68
-0.102414 0.037985 -0.149050 158 166 193
0.129105 0.017260 0.137980 43 52 51
-0.056379 0.110312 -0.029780 93 99 92
0.020796 0.022805 -0.001260 89 82 148
-0.116235 0.012116 -0.161090 140 137 177
-0.125178 0.007848 -0.167350 66 93 110
-0.115554 -0.009282 -0.170540 169 170 162
0.077548 0.111758 0.041280 92 99 90
0.170306 0.049721 0.173960 74 82 89
-0.098063 0.039590 -0.139810 174 166 145
-0.018178 -0.201466 0.421410 238 243 252
-0.123630 0.019371 -0.170670 72 114 140
-0.119492 -0.004275 -0.174440 180 171 160
0.012081 -0.035467 -0.025270 102 100 185
0.020690 0.053474 0.044730 86 96 98
-0.105987 -0.010485 -0.161490 116 121 137
-0.114896 0.006535 -0.158190 165 153 115
-0.103521 -0.050822 0.083000 186 206 197
-0.119080 0.007117 -0.164050 189 157 101
-0.114265 -0.001977 -0.164290 0 17 98
0.331134 -0.167370 0.228320 254 255 250
0.034199 -0.005648 -0.003590 156 138 112
-0.117525 0.016146 -0.161490 147 140 117
-0.033843 0.104933 0.053800 57 65 58
-0.106751 0.023609 -0.150060 104 106 95
0.010155 0.096695 -0.004740 79 93 51
-0.104663 -0.014720 -0.158040 169 190 187
-0.117449 -0.005184 -0.173550 206 193 187
-0.086516 -0.020278 -0.133600 167 189 221
-0.094173 -0.025906 -0.139400 124 144 149
-0.122861 0.022524 -0.167150 57 165 183
-0.109994 0.027995 -0.121740 89 85 73
-0.116550 0.017292 -0.159290 169 134 19
0.003319 -0.030184 -0.023400 144 145 241
0.397581 -0.048745 0.346370 218 206 184
-0.109617 -0.005527 -0.163810 152 155 171
0.116828 0.090103 0.085340 105 109 98
0.008858 0.111043 0.007330 173 172 155
-0.054981 -0.035403 0.050100 235 255 255
-0.089215 0.000381 -0.135020 10 143 182
0.381593 -0.162655 0.421410 247 213 183
-0.050584 0.012678 0.050100 118 127 138
-0.114753 0.015355 -0.157350 160 150 126
-0.111401 0.012081 -0.152640 123 124 166
-0.100603 0.010746 -0.141410 33 103 120
0.021472 0.115880 0.026810 194 203 178
-0.003659 -0.314019 0.421410 116 114 114
0.011842 0.090254 0.018050 37 84 23
0.334162 -0.234456 0.421410 27 21 7
-0.114492 -0.010344 -0.167200 105 128 152
-0.089748 0.028102 -0.132460 145 147 136
-0.104919 -0.003453 -0.156720 47 70 188
-0.133703 -0.000157 -0.147130 91 89 89
-0.132068 0.035130 0.125400 120 132 127
0.456127 -0.061745 0.421410 226 216 194
-0.115094 0.034166 -0.162830 173 117 0
0.050834 0.108800 0.006060 80 88 76
-0.118030 -0.004558 -0.173400 219 205 188
0.383709 -0.016667 0.372500 98 118 150
-0.117447 -0.007258 -0.175280 228 206 179
-0.120540 0.025838 -0.131620 117 121 110
-0.117846 0.030502 -0.164400 15 31 163
-0.091720 0.022089 -0.120650 64 69 65
0.178430 -0.111497 0.061540 163 148 140
0.477422 -0.177209 0.421410 254 255 252
0.154985 0.031409 0.173960 34 39 35
-0.073367 -0.032727 0.074020 162 122 0
-0.038812 -0.025952 0.033030 176 188 246
-0.090621 -0.007996 -0.137710 64 88 144
0.060781 0.087880 0.042990 151 162 161
-0.114589 -0.003749 -0.168840 174 181 192
-0.116344 0.002352 -0.165090 143 138 128
0.399016 -0.022934 0.421410 70 83 70
-0.085306 0.111579 -0.034910 95 100 96
-0.028351 0.037711 0.033030 95 78 180
-0.060193 -0.026319 0.053800 160 190 234
0.003396 0.056742 -0.003590 75 86 85
-0.012974 0.089347 0.023820 172 178 160
0.108671 0.111526 0.015270 100 103 90
-0.107428 0.043198 -0.150560 28 48 73
-0.126412 -0.001382 -0.166310 102 102 112
0.400404 0.093926 0.307660 110 113 105
0.202214 0.107213 0.182070 97 103 96
-0.089753 -0.017431 -0.140480 165 176 174
0.124113 -0.268416 0.421410 105 107 101
-0.011331 0.114355 -0.023400 89 98 89
-0.123823 0.027999 -0.170800 43 52 61
-0.104658 0.033322 -0.149860 169 154 215
0.109018 0.103295 0.074020 108 114 107
-0.128639 0.004486 -0.158630 71 72 69
0.377851 -0.263224 0.401210 251 255 252
-0.060831 0.025178 0.029880 81 92 91
-0.114916 0.007180 -0.157190 124 93 0
-0.126977 0.029954 -0.162010 67 92 121
0.282002 0.075447 0.238910 99 99 93
-0.117272 0.032313 -0.165930 15 117 227
-0.118443 -0.004644 -0.174620 209 197 180
0.054424 0.097450 0.025300 83 85 79
-0.096212 0.033375 -0.135940 198 196 172
0.357860 -0.191680 0.293640 253 255 236
0.157496 0.120275 0.041280 92 93 85
-0.120421 0.009969 -0.163140 134 92 0
-0.011298 -0.051159 0.022350 72 110 69
0.021508 -0.211169 0.421410 186 190 190
-0.016562 0.015030 0.018050 161 168 172
0.269906 -0.163047 0.190520 138 134 122
-0.034566 -0.038259 0.048290 100 113 112
-0.018845 0.116498 -0.014510 100 107 98
0.311899 -0.241248 0.421410 36 39 26
-0.099999 0.004976 -0.143550 31 145 185
-0.103943 0.028708 -0.144750 92 92 196
-0.116850 0.006706 -0.160690 131 126 109
0.326772 0.029931 0.346370 88 90 84
-0.094595 0.027661 -0.133440 86 80 59
0.219770 0.108746 0.119440 103 106 98
-0.097374 0.011926 -0.139260 2 121 160
-0.025111 0.070190 0.012560 202 201 184
-0.106255 0.010532 -0.141410 8 55 94
0.003576 0.092216 0.009920 103 123 94
0.128124 0.099153 0.076220 104 106 100
0.031513 0.095338 0.019470 84 96 86
-0.040785 -0.045793 0.026810 164 180 217
-0.113941 -0.004836 -0.168210 115 127 185
-0.124161 0.006793 -0.161550 44 28 0
0.314344 -0.189283 0.233550 255 255 245
-0.096401 -0.012473 -0.146470 182 186 175
0.445624 0.007219 0.411410 89 103 106
0.010212 0.002928 -0.023400 49 47 131
-0.097347 0.002559 -0.143300 25 162 205
-0.104491 0.029412 -0.148740 65 65 150
-0.022081 0.072230 0.011230 123 123 112
-0.005040 -0.019230 -0.012420 113 119 119
0.426120 -0.137427 0.421410 171 160 140
0.013031 0.094000 0.004810 144 150 127
-0.116271 -0.003788 -0.171690 147 138 177
0.181885 0.112043 0.074020 97 97 86
0.010015 0.041812 0.001130 142 148 141
-0.017796 -0.222745 0.391330 178 188 195
-0.122881 0.000758 -0.161750 104 103 100
-0.112357 0.009428 -0.153540 144 123 64
-0.084141 0.032596 -0.124830 157 156 139
-0.119615 -0.005763 -0.174620 213 197 187
-0.006092 0.092653 0.020900 124 138 121
0.092816 0.100507 0.008620 90 93 85
-0.107490 0.023875 -0.126590 140 144 133
-0.103623 0.025013 -0.129180 35 28 18
0.071336 0.103678 0.013910 97 104 95
-0.108223 0.022505 -0.124030 142 146 135
-0.092823 -0.006922 -0.133280 160 221 231
0.074540 0.087998 0.061540 107 115 108
-0.109563 0.041771 -0.155920 149 113 88
-0.101215 0.043655 -0.148000 11 19 167
0.125245 0.119767 0.080710 96 99 91
-0.033989 0.106335 0.011230 71 78 74
-0.114072 0.037442 -0.163210 106 95 96
0.043209 0.090198 0.025300 65 74 83
-0.110952 0.037996 -0.157580 136 98 46
-0.020389 0.114248 -0.026190 95 101 94
0.159344 0.029325 0.155090 107 106 110
0.123637 -0.067772 0.023820 254 255 252
-0.121815 -0.001913 -0.173360 36 61 179
0.035576 0.115102 -0.021500 104 107 99
0.080511 -0.173274 0.300550 86 87 79
-0.038922 -0.025693 0.036260 130 151 221
-0.109288 0.027851 -0.148110 26 40 190
-0.107497 0.005520 -0.141540 0 36 57
-0.101442 0.025495 -0.149150 161 160 164
-0.083868 0.110670 -0.030650 94 96 90
-0.115074 -0.010204 -0.168890 207 206 189
-0.074441 -0.062216 0.069740 117 237 214
-0.035017 0.044400 0.029880 79 97 148
0.031480 -0.180920 0.148050 138 130 135
-0.115319 0.035818 -0.163080 133 130 175
-0.035229 -0.000128 0.041280 135 149 166
-0.118222 0.004847 -0.161220 128 94 0
0.068907 0.119017 -0.009200 98 105 96
-0.121799 0.028717 -0.128270 120 121 108
-0.079075 0.110244 -0.022450 98 104 97
0.040868 -0.207288 0.421410 182 185 177
-0.109484 0.035862 -0.153450 143 97 1
0.141700 0.087593 0.055700 103 107 96
-0.053223 -0.053777 0.048290 189 174 207
-0.115926 0.011496 -0.160130 104 94 174
0.127783 0.111866 0.026810 100 103 90
-0.097975 0.044432 -0.141150 65 58 19
-0.101388 -0.000650 -0.142810 96 109 108
-0.089391 0.025236 -0.132290 70 64 23
0.398434 -0.154786 0.346370 254 255 252
0.019292 0.115338 -0.020530 81 83 77
0.132429 0.111946 0.051940 105 107 96
0.354206 -0.164521 0.286910 254 255 252
-0.004797 -0.215885 0.233550 253 254 251
0.030220 -0.205347 0.421410 190 195 191
-0.089359 -0.011013 -0.138850 210 210 191
-0.106193 -0.008930 -0.161750 124 138 208
-0.005340 0.068108 0.018050 161 175 158
-0.087588 -0.011169 -0.137280 212 214 203
-0.096649 0.043547 -0.138000 127 163 161
-0.113132 0.002659 -0.162200 156 158 147
-0.129369 0.007317 -0.159710 52 81 98
0.400952 -0.204377 0.421410 115 100 85
-0.122969 0.021450 -0.170000 86 106 124
-0.019668 -0.027180 0.026810 79 142 221
0.075715 -0.217961 0.421410 94 90 83
0.028166 0.022682 -0.003590 144 158 168
-0.091232 -0.025308 -0.141150 176 189 187
-0.125356 0.012029 -0.163210 91 118 130
0.397529 -0.236924 0.401210 38 41 26
-0.100973 -0.004372 -0.146360 104 112 114
-0.054737 0.107844 -0.018560 96 104 97
-0.116310 0.013411 -0.161360 17 39 132
-0.097062 0.000113 -0.139120 112 141 146
-0.117354 0.017832 -0.160750 166 128 0
-0.033191 -0.015289 0.031440 173 195 200
-0.063324 -0.058287 0.059560 147 172 210
0.378812 0.061572 0.346370 96 99 91
-0.124691 0.015061 -0.160620 8 10 36
-0.035528 0.100290 0.019470 72 82 77
-0.110217 0.039929 -0.157960 77 51 128
-0.088253 0.025254 -0.121740 69 68 46
0.008882 0.001384 -0.021500 60 43 131
-0.116068 0.027143 -0.142180 118 120 109
0.367073 -0.128695 0.421410 168 156 139
-0.010434 -0.203407 0.421410 232 244 254
-0.110342 0.013381 -0.150940 120 123 103
-0.096217 0.030058 -0.134870 181 180 163
-0.106209 -0.013142 -0.160890 133 163 191
0.040868 -0.202437 0.421410 180 186 179
-0.091760 -0.010839 -0.139400 54 63 94
-0.123265 0.012487 -0.161950 33 26 1
-0.099465 0.027725 -0.138570 53 48 25
-0.122391 0.025380 -0.168550 54 117 149
-0.128058 0.011810 -0.158340 57 60 52
-0.009887 0.029315 0.003570 106 107 122
-0.137788 -0.001163 -0.146020 88 88 89
0.357014 -0.038687 0.330220 197 198 185
-0.111844 -0.011917 -0.165870 81 106 144
-0.115255 0.038343 -0.163570 156 141 79
-0.074965 0.029184 0.110890 22 31 30
-0.115415 -0.005717 -0.171010 253 239 222
-0.125061 0.029427 -0.159360 1 16 98
0.414968 0.012876 0.372500 89 103 106
-0.036311 0.003087 0.037910 99 93 143
-0.117989 0.030502 -0.164400 13 29 161
-0.107218 -0.006424 -0.162580 186 198 193
0.012176 0.085931 0.042990 103 109 91
-0.126495 0.008141 -0.166840 66 94 116
0.017637 -0.280059 0.421410 95 96 88
0.286732 -0.184001 0.421410 252 254 209
-0.123136 0.021044 -0.168980 116 145 157
-0.109045 0.001197 -0.154840 125 120 110
0.006108 0.107717 0.019470 195 201 178
0.034867 -0.192094 0.244400 91 98 94
-0.094923 -0.018094 -0.142680 76 99 115
-0.070701 0.035827 0.067640 101 102 191
-0.009193 0.020910 0.007330 185 186 171
-0.119145 0.005385 -0.162960 127 91 0
-0.119415 0.005055 -0.161620 127 91 0
-0.009833 0.064386 0.011230 131 142 134
-0.037317 0.014118 0.033030 117 130 129
0.292301 -0.120800 0.381770 251 255 252
-0.036948 0.095833 0.048290 155 164 155
0.291815 0.114684 0.194890 95 98 90
-0.126078 -0.001278 -0.134870 88 90 84
-0.116867 0.017674 -0.159430 177 134 0
0.003437 -0.058392 0.011230 204 199 226
-0.115926 0.008613 -0.160270 209 184 137
-0.114291 0.014350 -0.155920 153 125 0
-0.092216 0.040343 -0.129180 49 54 29
-0.059386 -0.012029 0.057620 183 201 192
-0.096477 0.012974 -0.135640 12 68 87
-0.117825 -0.007717 -0.173440 204 189 174
-0.039244 0.014887 0.034630 94 103 121
-0.097082 -0.007476 -0.149150 164 175 174
-0.004078 0.033626 -0.002430 156 154 178
-0.090105 -0.015575 -0.139670 124 137 168
-0.118606 0.008592 -0.163450 158 120 0
-0.021165 -0.236311 0.354820 97 103 102
-0.038139 0.110718 -0.028000 103 111 104
-0.101606 0.003819 -0.144270 31 118 185
-0.095118 -0.018145 -0.139810 80 99 113
0.040455 -0.002711 0.004810 115 108 98
-0.098103 0.031999 -0.138000 179 177 158
-0.028338 0.011118 0.034630 80 95 96
-0.056639 0.094549 0.025300 60 67 63
0.234729 -0.035811 0.233550 62 103 120
0.410940 -0.031211 0.300550 198 187 167
-0.042708 0.034639 0.036260 83 70 173
0.149280 -0.282970 0.421410 123 123 117
0.057765 0.116899 -0.022450 104 108 97
0.173842 0.052674 0.173960 83 99 97
0.013944 0.062191 -0.004740 97 90 92
0.224884 0.072601 0.228320 116 118 107
0.436767 -0.211169 0.421410 158 145 130
-0.124666 0.017367 -0.164630 112 140 162
-0.066169 -0.016979 0.065580 155 151 152
-0.109743 0.041933 -0.157730 26 24 188
-0.099859 0.005251 -0.143180 20 139 178
-0.024602 -0.004551 0.050100 181 184 176
-0.120036 0.034901 -0.169730 17 126 228
0.012797 0.108308 -0.023400 85 90 86
-0.099046 -0.000738 -0.141150 174 178 167
-0.000080 0.018897 0.018050 94 98 112
0.045156 0.097284 0.018050 85 91 84
-0.122501 0.025401 -0.168890 53 114 146
0.047322 0.049459 0.026810 120 93 114
-0.090135 0.030227 -0.131620 163 157 136
0.021077 0.109291 -0.011360 79 86 77
0.073621 0.114230 0.016650 86 93 84
-0.119687 -0.002986 -0.174150 183 173 164
0.029753 0.057060 -0.003590 171 171 172
-0.102199 0.006273 -0.142930 0 142 181
-0.120188 0.031922 -0.168790 8 110 213
0.008756 -0.057231 0.008620 177 174 235
-0.091184 -0.015686 -0.139950 92 121 167
-0.065603 0.028690 0.110890 94 106 101
-0.114677 -0.002338 -0.168600 213 206 183
-0.108585 -0.003170 -0.153980 48 54 73
-0.124930 0.014482 -0.168550 95 128 142
0.356315 -0.190132 0.293640 255 255 240
-0.087938 -0.006730 -0.134080 58 79 95
0.049793 0.116556 -0.021500 94 97 89
-0.104342 -0.010648 -0.151330 65 75 77
-0.004509 -0.035040 0.039580 163 169 169
0.252756 0.092738 0.182070 107 111 100
0.276084 -0.251921 0.421410 84 90 83
-0.116315 0.015005 -0.160270 136 146 141
-0.098371 0.021657 -0.118180 53 70 64
-0.109367 0.042157 -0.157040 83 53 123
0.334944 -0.207200 0.381770 105 96 83
0.203487 -0.264535 0.421410 116 116 110
-0.066547 -0.009819 0.071860 106 118 120
-0.093123 0.000713 -0.134080 0 109 140
0.026562 0.014702 0.051940 86 95 93
-0.004944 -0.033673 0.028330 189 198 184
-0.017231 -0.037984 0.031440 12 29 125
-0.124159 0.026996 -0.153540 87 88 75
-0.099399 -0.009754 -0.152270 229 225 197
-0.117435 -0.007955 -0.172980 241 228 213
-0.053585 0.091199 0.009920 62 72 67
0.046289 0.112627 0.003570 97 104 95
-0.114022 0.028435 -0.158480 165 166 151
0.117560 0.122391 0.009920 97 99 88
0.073051 -0.019759 0.067640 193 176 153
0.400763 0.015683 0.391330 89 108 122
-0.023244 0.075894 -0.011360 133 142 126
-0.108364 -0.000608 -0.162330 96 103 107
-0.007998 0.013580 0.012560 226 228 202
-0.105178 -0.007838 -0.159860 193 189 182
-0.051046 0.057886 0.061540 58 68 70
-0.121401 0.032423 -0.172580 28 103 180
-0.003844 0.031632 0.007330 88 91 112
-0.091972 0.053869 -0.118180 93 105 100
-0.106231 -0.002963 -0.160410 59 84 200
-0.119991 0.015389 -0.163450 13 19 94
-0.059310 0.107351 -0.013470 97 105 98
-0.081778 0.033607 0.090120 49 55 55
-0.114733 -0.002426 -0.170930 199 194 177
-0.104939 -0.013830 -0.149860 63 73 80
0.272212 -0.192734 0.421410 255 255 212
-0.124324 0.008925 -0.167410 65 92 111
0.339454 -0.200773 0.255790 251 255 250
0.057489 0.107004 0.023820 80 86 79
-0.076033 0.108312 0.020900 91 101 96
0.131051 0.029915 0.144620 36 41 37
-0.108069 0.015461 -0.143180 106 113 104
-0.089251 -0.026047 -0.138710 169 181 176
-0.057426 0.107592 0.016650 93 105 95
-0.099982 0.041305 -0.146360 180 151 125
0.293685 0.114289 0.208570 108 112 101
-0.102103 0.025041 -0.150360 183 184 171
-0.085467 -0.017655 -0.134240 131 154 190
0.212823 -0.061719 0.273980 141 143 132
-0.062096 0.104151 -0.009200 95 103 96
0.353522 -0.202437 0.421410 131 111 97
0.111895 0.091277 0.055700 112 115 107
-0.117063 0.032993 -0.166250 2 112 218
-0.037230 -0.058365 0.029880 162 179 212
0.020541 -0.207288 0.421410 196 200 200
-0.085222 -0.027249 -0.133920 193 209 207
-0.085315 -0.014380 -0.133110 210 206 217
-0.119253 0.012177 -0.163020 61 103 111
-0.123406 0.030382 -0.162270 1 86 168
-0.011409 0.066613 0.067640 219 220 205
0.334162 -0.327603 0.421410 106 102 90
0.311899 -0.279089 0.421410 127 125 126
0.254519 0.099781 0.203910 100 103 95
-0.069457 0.114230 -0.021500 103 111 104
-0.105280 -0.013705 -0.160690 118 152 184
0.227949 0.076843 0.144620 109 111 100
0.175839 0.035302 0.170030 137 149 139
-0.108707 0.029562 -0.151140 28 43 197
-0.112062 -0.011237 -0.165980 83 108 146
-0.092482 -0.020211 -0.140080 88 105 124
-0.049385 -0.031797 0.050100 13 53 113
-0.090553 -0.026566 -0.139400 223 235 211
-0.123181 0.022311 -0.172180 70 137 157
0.382046 0.023766 0.338180 89 102 108
-0.103735 0.045461 -0.150160 102 94 31
-0.111687 0.014727 -0.151710 159 152 120
-0.109409 0.007348 -0.150460 171 143 94
-0.091606 0.052804 -0.123210 78 113 113
0.020953 0.001762 -0.017570 85 117 149
-0.124536 0.010393 -0.169220 109 111 121
0.063253 0.110891 0.004810 96 100 89
-0.045194 -0.066955 0.053800 160 186 226
-0.046475 0.100210 0.048290 68 79 71
-0.116945 -0.008710 -0.172550 119 130 143
-0.068570 0.078589 0.055700 148 158 146
-0.090536 0.005307 -0.133920 26 159 214
0.013723 0.052549 0.009920 68 54 64
-0.118363 -0.004558 -0.173130 222 212 190
-0.118278 0.026693 -0.153000 86 87 72
-0.008797 0.058780 0.022350 149 154 139
-0.114331 0.011723 -0.153270 79 59 11
0.003779 -0.036473 -0.022450 114 111 218
0.045530 0.113274 -0.011360 94 101 92
0.033856 -0.058828 0.053800 157 150 132
-0.096351 0.007096 -0.139540 55 125 151
0.343842 -0.140338 0.421410 189 168 152
0.330291 -0.272297 0.421410 110 103 93
-0.110590 -0.001853 -0.133600 75 82 78
0.216070 -0.305287 0.421410 111 107 95
-0.012370 -0.316930 0.421410 84 90 89
-0.056140 0.075676 0.053800 172 180 168
-0.099612 -0.012435 -0.152550 181 179 167
-0.016299 -0.021323 0.016650 157 177 243
-0.089649 0.033640 -0.131620 181 175 154
-0.106443 0.044950 -0.150750 116 91 5
0.055450 -0.251612 0.286910 88 88 89
-0.113906 0.032624 -0.159500 102 87 111
-0.121607 0.019864 -0.170050 111 140 159
0.069853 0.114155 -0.000070 93 96 88
0.082821 -0.265514 0.322480 254 255 252
-0.113319 0.008579 -0.152550 143 109 0
-0.062407 0.091582 0.069740 118 123 119
0.408696 -0.094735 0.421410 147 134 119
-0.114860 -0.003729 -0.170090 208 202 195
-0.019445 -0.008672 0.023820 153 161 181
-0.014404 0.028778 0.013910 196 199 191
0.013765 -0.218931 0.421410 197 203 202
-0.119063 -0.000660 -0.144980 80 83 75
-0.097376 0.036230 -0.138420 104 117 143
-0.123699 0.032345 -0.171940 24 101 184
-0.013474 0.106901 0.012560 79 86 77
-0.055482 -0.046591 0.042990 177 184 200
-0.056052 0.016899 0.061540 116 127 119
0.257336 0.072917 0.267760 115 118 110
-0.000652 -0.007643 -0.015540 112 119 115
-0.022847 0.088390 0.029880 190 194 171
-0.109938 -0.003346 -0.164050 177 178 170
-0.056322 0.036026 0.055700 101 114 159
-0.123907 0.014371 -0.165930 112 141 160
0.096958 0.118135 -0.010280 96 99 91
-0.110513 -0.005150 -0.164050 180 185 181
-0.004488 0.110582 -0.019550 81 87 80
-0.108710 -0.005542 -0.163570 199 202 205
-0.115642 0.029664 -0.162390 15 25 147
-0.123548 0.016266 -0.167050 108 141 162
-0.104591 -0.009775 -0.153890 39 65 153
-0.120163 0.029170 -0.171650 162 156 144
-0.011525 -0.020180 -0.010280 254 255 247
-0.100636 0.039687 -0.148000 80 88 183
0.113026 0.090617 0.113690 101 104 96
-0.097287 -0.012171 -0.149050 203 201 189
0.070873 -0.012155 -0.042850 237 216 191
-0.098196 0.034525 -0.143180 208 168 94
0.475486 -0.295584 0.421410 109 110 97
0.035230 0.109726 -0.009200 90 98 91
-0.094113 -0.013340 -0.138850 72 82 84
-0.104916 -0.014757 -0.152180 42 68 90
-0.114223 -0.008729 -0.167200 46 62 186
0.392636 -0.218883 0.330220 133 124 111
-0.011655 0.108557 0.022350 64 62 56
0.245109 -0.164595 0.421410 232 214 175
0.379657 -0.048161 0.421410 104 111 107
-0.036089 0.023990 0.028330 154 162 150
-0.041721 0.087243 0.039580 119 125 118
-0.114860 -0.004736 -0.170090 212 208 196
-0.040452 0.056528 0.046500 152 154 148
0.409664 -0.102497 0.421410 138 125 110
-0.106893 0.005472 -0.142180 13 63 86
-0.117516 0.008356 -0.163210 213 203 169
-0.032018 0.100679 0.022350 73 83 78
-0.110315 -0.009032 -0.165040 222 213 195
-0.039329 0.049824 0.026810 162 166 166
0.346734 -0.181908 0.300550 158 154 140
0.044753 0.088142 0.031440 83 106 88
-0.108798 0.011317 -0.146360 161 144 89
-0.043756 -0.015268 0.034630 137 170 225
0.198586 0.096691 0.170030 88 95 86
-0.116690 -0.007971 -0.172260 214 198 186
0.226858 0.121240 0.131570 96 99 91
-0.122541 -0.002940 -0.158260 98 103 112
0.372893 0.031942 0.354820 123 123 124
-0.105342 0.043685 -0.151040 40 42 47
-0.124068 0.014380 -0.171140 110 135 154
-0.102015 0.007509 -0.144270 0 53 136
0.295945 0.067624 0.322480 101 109 97
0.357000 -0.142315 0.267760 254 255 252
0.144658 0.109201 0.063540 101 104 96
0.008967 0.065437 -0.009200 176 176 165
-0.011312 -0.030375 0.002340 111 107 107
-0.123380 0.021830 -0.153800 101 102 89
-0.026458 0.004333 0.034630 18 19 66
0.126957 0.093976 0.125400 103 107 96
-0.123169 0.014177 -0.168160 103 130 149
-0.037538 -0.177209 0.421410 249 247 241
0.073576 0.118177 -0.003590 95 97 91
-0.120378 0.008713 -0.161880 163 126 0
-0.086670 -0.014133 -0.136240 190 197 188
0.217066 0.077158 0.134740 109 111 100
-0.107886 -0.004638 -0.162580 199 202 189
0.027213 0.071384 -0.003590 69 67 123
-0.015837 0.104738 -0.014510 79 88 79
-0.121212 0.027611 -0.154500 59 60 81
-0.090590 0.002530 -0.132460 35 133 187
0.370945 -0.313049 0.421410 116 112 100
-0.097536 -0.014018 -0.149860 166 162 162
-0.046928 -0.029051 0.042990 37 58 94
0.038893 0.105528 0.012560 85 92 83
-0.086151 -0.022873 -0.133110 201 222 224
0.399984 -0.227664 0.421410 90 85 68
-0.064896 0.078999 0.055700 137 145 138
0.405792 -0.155863 0.421410 224 195 169
-0.021772 0.068401 0.039580 166 170 159
0.051793 0.108231 -0.019550 104 107 99
-0.120927 0.028028 -0.173320 154 150 138
-0.099288 -0.036973 0.078450 112 123 161
0.286450 0.091532 0.182070 102 104 93
-0.036627 0.108261 -0.013470 97 104 95
-0.051531 0.017123 0.051940 173 184 183
0.314803 -0.260654 0.421410 254 255 249
-0.097112 -0.005327 -0.148320 159 176 190
-0.105903 0.018816 -0.112020 101 112 104
-0.123069 0.030236 -0.160620 17 72 147
-0.065248 0.093487 0.071860 23 23 24
-0.057620 0.114988 -0.028890 106 114 107
-0.120772 0.010048 -0.163270 106 73 0
-0.105386 -0.008526 -0.159710 145 155 191
0.278691 -0.283596 0.381770 129 125 111
-0.091706 -0.014989 -0.140350 102 126 160
-0.121752 0.005055 -0.162710 113 83 0
0.170290 0.084837 0.166180 93 99 92
-0.002007 0.095692 0.019470 28 80 9
-0.112474 -0.003341 -0.164290 41 61 147
-0.026809 -0.006720 0.036260 96 106 108
0.342036 0.054341 0.300550 98 105 96
0.400207 -0.001245 0.363530 85 102 109
-0.114848 -0.002777 -0.168840 218 216 197
0.018605 -0.223783 0.421410 168 172 172
0.158291 0.008904 0.182070 185 189 171
0.534532 0.036254 0.421410 22 50 33
-0.101614 0.045142 -0.150060 102 86 133
-0.096548 0.045355 -0.136980 55 70 50
0.026901 0.054267 -0.000070 92 60 69
-0.108099 0.043133 -0.151040 68 91 107
-0.110892 -0.006198 -0.163570 192 192 192
-0.117584 -0.000551 -0.145560 102 105 97
-0.054643 -0.013809 0.046500 111 136 126
-0.117690 0.030885 -0.164860 29 38 163
-0.126212 -0.045894 0.110890 148 108 54
-0.083460 0.104082 -0.011360 74 86 81
0.389700 0.036939 0.391330 81 98 107
0.034492 0.096775 0.013910 38 74 31
-0.038198 0.101767 -0.019550 99 106 97
-0.062676 0.015177 0.057620 142 155 168
0.069931 -0.155353 0.286910 187 185 171
-0.123242 0.031109 -0.170760 47 80 128
0.441607 -0.220872 0.421410 153 147 133
-0.124400 0.015772 -0.171310 76 134 114
0.035060 -0.253862 0.421410 85 90 86
-0.115625 0.036992 -0.164050 173 123 0
-0.115142 0.009058 -0.158340 199 180 138
-0.070782 0.107563 -0.005870 88 99 91
0.003513 0.099387 0.078450 160 171 155
-0.122208 -0.002214 -0.141280 109 106 103
0.243975 -0.191730 0.194890 102 99 89
-0.097569 0.042422 -0.143910 70 60 10
-0.114635 -0.007747 -0.166520 30 59 185
-0.063326 0.110333 -0.016560 91 99 92
-0.130522 0.038144 0.137980 108 119 118
-0.112993 0.036937 -0.160690 194 129 0
0.051076 0.111656 -0.005870 85 91 84
-0.125902 0.008748 -0.159930 29 19 0
-0.079012 0.035455 0.090120 30 46 49
-0.100281 -0.004712 -0.147350 84 91 102
-0.115296 0.016312 -0.157730 209 193 162
-0.128072 0.001893 -0.153360 90 90 84
0.055517 0.026009 0.031440 139 137 131
0.007959 0.109430 0.002340 170 172 154
-0.054509 0.113462 -0.027100 92 101 92
-0.119145 0.033487 -0.169400 30 130 233
-0.112764 0.005290 -0.154410 129 95 0
0.042804 -0.213110 0.421410 176 179 171
0.086865 0.103749 0.016650 96 96 90
0.097268 0.112046 0.065580 93 101 89
-0.109679 0.040204 -0.155840 144 105 76
-0.007531 -0.265505 0.421410 91 97 96
-0.098225 0.003268 -0.142310 15 139 177
0.409001 -0.233078 0.363530 111 108 98
-0.125670 0.008848 -0.169170 62 109 148
-0.117205 0.012258 -0.162270 35 55 121
0.368041 -0.306257 0.421410 122 120 108
0.447415 -0.210199 0.421410 174 166 150
-0.118220 0.010533 -0.162200 185 179 151
-0.104420 -0.013335 -0.154760 83 109 131
-0.021217 0.106709 -0.000070 84 93 84
-0.125466 0.028835 -0.160410 1 61 121
0.001780 0.014627 0.013910 89 95 102
-0.098760 -0.011660 -0.150850 216 211 188
-0.030585 0.107922 0.008620 76 84 77
0.244141 -0.253862 0.421410 245 253 246
0.408696 -0.200496 0.421410 222 189 166
0.013152 0.002972 -0.024340 55 56 123
-0.110641 -0.005157 -0.164230 183 187 192
0.242706 -0.304094 0.411410 122 118 106
-0.111759 0.013426 -0.152640 22 44 125
-0.118850 -0.000746 -0.174070 193 184 166
0.232526 -0.203407 0.421410 130 108 88
0.045370 -0.141683 0.186250 93 94 86
-0.003419 0.052541 0.019470 106 112 111
0.348682 -0.297525 0.421410 110 108 96
-0.125928 0.011553 -0.169860 94 116 136
-0.021471 0.044206 0.018050 139 142 184
0.195743 -0.242218 0.421410 107 106 98
-0.092776 0.033645 -0.130250 24 22 10
-0.059184 -0.009069 0.067640 104 121 128
-0.028073 -0.028492 0.023820 59 77 82
-0.089496 0.009420 -0.132950 87 172 205
-0.102299 0.031553 -0.148320 189 118 0
-0.123468 0.007171 -0.169120 55 81 96
-0.123870 0.017470 -0.161220 85 84 67
-0.112907 -0.051327 0.110890 118 79 29
-0.086425 0.038226 -0.127530 69 64 91
0.164413 0.073348 0.173960 55 59 48
0.105149 0.097385 0.080710 101 104 96
-0.116066 -0.001405 -0.172300 157 155 155
-0.092487 0.027065 -0.130940 98 100 112
0.016950 0.060125 -0.008100 110 78 109
-0.126837 -0.001972 -0.133600 93 95 89
0.155982 0.089431 0.155090 100 107 98
-0.107775 0.037288 -0.151990 178 152 64
-0.126599 0.008174 -0.166410 64 92 114
-0.098604 0.026831 -0.139120 52 45 22
-0.108264 0.035820 -0.152910 178 130 0
-0.034624 0.102262 0.051940 23 28 24
-0.055556 0.083297 0.051940 106 106 95
-0.051572 -0.011617 0.057620 154 165 157
-0.107263 0.035783 -0.151900 190 157 48
-0.006283 0.105533 -0.024340 87 94 85
-0.096317 0.028971 -0.135020 102 104 123
-0.113950 0.000548 -0.164340 115 109 107
0.265888 -0.256251 0.330220 123 121 109
0.397254 -0.184712 0.293640 254 255 250
-0.099948 0.027743 -0.138990 50 48 24
-0.125820 0.000530 -0.165710 102 102 103
-0.122582 0.026519 -0.170450 9 58 99
-0.112506 0.026838 -0.143550 32 36 96
0.480326 -0.020993 0.421410 85 108 124
-0.019804 -0.005069 0.023820 227 229 211
-0.001264 -0.031339 -0.019550 167 164 255
0.080942 -0.165410 0.233550 100 101 93
-0.102010 0.030082 -0.148740 141 137 161
0.012291 0.032148 -0.016560 116 124 165
0.028688 0.106848 -0.014510 93 100 91
0.127787 0.109362 0.048290 98 99 91
-0.099804 0.006117 -0.142310 32 156 201
-0.112733 0.033356 -0.159640 188 131 0
-0.115536 0.013060 -0.160130 59 91 141
-0.037538 -0.192734 0.421410 253 253 254
0.076879 -0.013947 0.051940 119 123 112
-0.097684 0.012036 -0.139400 5 120 157
