ply
format ascii 1.0
element vertex 1213
property float x
property float y
property float z
property uchar red
property uchar green
property uchar blue
end_header
-0.012988 0.011763 -0.001750 86 98 88
-0.013136 -0.004381 -0.006530 29 109 31
0.045462 -0.011593 0.021300 143 99 71
-0.018481 0.010290 -0.001290 165 188 165
0.013904 0.003672 0.009170 209 185 162
-0.037416 -0.017747 0.008140 80 85 55
0.011158 0.024241 0.018740 92 134 162
-0.029041 0.012060 -0.003410 119 115 116
0.014342 -0.012194 0.002720 243 164 112
0.056647 0.010781 0.037530 140 148 145
0.005005 -0.009057 0.002230 58 118 22
-0.005800 0.008195 0.000850 187 194 172
0.069704 0.001733 0.047690 17 48 87
-0.070250 0.036090 0.043550 118 114 115
-0.022505 0.008095 -0.004590 141 153 48
0.052567 -0.002793 0.026340 102 91 99
-0.022758 0.006467 -0.006880 117 145 41
-0.023892 -0.006788 -0.013660 143 195 83
0.031438 -0.002780 0.015880 140 123 98
0.024974 -0.012227 0.008570 178 113 63
-0.013756 0.005953 -0.001590 61 127 49
-0.024442 0.004709 -0.007830 60 101 25
-0.008510 -0.003230 -0.036330 168 173 180
0.036130 0.000549 0.018820 143 129 123
-0.021463 0.012069 -0.006740 119 120 111
-0.016837 0.012936 -0.004090 98 98 98
-0.008505 -0.003170 -0.036330 154 153 160
0.010671 -0.009059 0.006600 178 131 78
0.013781 -0.002346 0.009060 201 169 137
0.015795 0.001902 0.010260 227 162 108
-0.008468 -0.003211 -0.036330 121 145 47
-0.017807 -0.004696 -0.009880 91 103 27
0.025370 -0.005024 0.011580 159 116 107
-0.016165 0.006135 -0.003580 132 149 45
0.004012 0.007991 0.005680 83 88 95
-0.013205 0.009821 -0.002100 166 177 156
-0.030364 -0.009236 -0.007230 131 172 78
-0.007746 -0.012010 -0.004830 35 98 28
-0.014341 0.008227 0.000040 85 115 76
-0.008534 0.002028 -0.000650 128 186 86
-0.008393 -0.003236 -0.036330 77 66 41
0.006607 0.004139 0.009910 92 147 66
0.081386 -0.037181 0.055570 8 5 0
-0.024450 -0.006594 -0.013560 144 194 92
0.012143 -0.008837 0.005440 204 108 44
-0.031179 -0.009074 -0.006690 106 147 53
-0.018989 -0.017385 0.004170 68 77 25
0.045902 0.026733 0.031980 126 67 18
0.002724 -0.018109 0.007200 58 68 7
-0.016599 0.010634 -0.000820 188 204 181
-0.008447 -0.003248 -0.036330 69 74 41
-0.024461 0.000901 -0.010030 88 133 44
0.033311 0.028427 0.027750 134 127 119
0.027211 0.021579 0.024700 66 109 34
0.038749 -0.031929 0.031480 80 71 64
-0.021900 -0.004491 -0.012880 96 108 28
0.055948 0.007431 0.051040 98 108 111
-0.008490 -0.003189 -0.036330 162 161 168
-0.003246 0.003290 0.003390 88 138 47
-0.008506 -0.003155 -0.036330 129 125 128
0.002873 0.003374 0.006750 160 162 56
0.015910 0.017245 0.022480 108 152 186
-0.009442 0.001860 -0.001430 17 90 14
-0.007071 -0.005547 -0.003700 50 115 29
-0.008391 -0.003242 -0.036330 79 67 40
-0.026143 0.001743 -0.010290 89 139 60
0.004508 0.023294 0.021480 60 119 71
-0.012754 -0.011138 -0.017030 69 74 39
0.002057 0.024480 0.019740 101 156 104
-0.008397 -0.003248 -0.036330 82 71 46
0.034201 -0.020805 0.016030 152 118 83
0.032974 -0.018531 0.012140 247 171 125
0.011399 0.005697 0.009510 151 147 138
-0.025194 0.007973 -0.006240 99 139 54
0.012885 -0.010469 0.003470 202 140 92
-0.008507 -0.003242 -0.036330 175 184 194
0.012266 0.018185 0.021120 66 142 186
-0.008506 -0.003224 -0.036330 174 176 186
0.013381 -0.013110 0.002080 254 183 122
-0.014888 0.024008 0.016320 0 28 72
0.014845 -0.022307 0.017310 84 65 36
0.005523 -0.004745 0.004260 153 171 57
-0.020131 -0.004734 -0.011260 135 147 51
-0.040652 -0.017933 0.006110 137 142 130
0.026822 -0.015682 0.007610 255 186 134
-0.008405 -0.003241 -0.036330 75 68 37
-0.022259 -0.005456 -0.013710 99 139 52
0.027986 0.014339 0.032350 76 111 57
-0.038046 -0.024853 0.004750 130 140 124
-0.015401 0.007122 -0.002660 54 128 47
-0.017186 -0.009881 -0.009670 28 98 25
-0.031842 -0.008910 -0.006830 174 179 184
0.041443 0.027377 0.030630 171 166 162
0.013280 -0.006085 0.006550 204 166 130
-0.008405 -0.003243 -0.036330 78 71 42
-0.008482 -0.003153 -0.036330 126 122 123
-0.005313 -0.014623 -0.000760 51 65 0
0.020086 -0.011311 0.007720 194 110 58
-0.008505 -0.003218 -0.036330 167 174 180
0.019884 -0.011108 0.007720 158 72 11
-0.017601 -0.000034 -0.007870 143 152 44
0.024714 -0.005085 0.011270 242 177 166
-0.012658 0.005354 -0.001850 92 141 55
0.028150 0.029195 0.025820 122 124 113
0.036552 -0.003596 0.017700 179 138 103
0.028372 0.019926 0.024300 81 121 52
-0.010937 -0.013504 -0.016120 83 84 75
-0.008334 -0.003240 -0.036330 75 64 55
-0.008498 -0.003176 -0.036330 157 157 161
-0.015347 -0.008090 -0.009810 107 140 42
-0.008388 -0.003242 -0.036330 85 69 46
0.065660 0.003051 0.048070 14 41 79
0.007774 0.027345 0.021750 1 31 50
0.001978 0.021402 0.021210 16 106 20
0.091026 0.032846 0.067900 159 158 165
-0.008489 -0.003169 -0.036330 148 147 151
-0.023963 0.011889 -0.003780 186 202 179
0.022999 -0.012306 0.010030 203 112 51
0.035834 -0.021456 0.015590 130 100 66
-0.008464 -0.003232 -0.036330 94 101 77
-0.012340 -0.012447 -0.004830 99 112 27
-0.019026 -0.008621 -0.011140 48 138 52
-0.008491 -0.003168 -0.036330 152 152 154
-0.008482 -0.003147 -0.036330 117 117 117
-0.000485 0.003196 0.004750 115 149 59
0.022246 -0.004413 0.010730 190 151 122
-0.008449 -0.003243 -0.036330 70 75 40
0.002171 0.021263 0.021300 18 108 22
-0.017110 -0.004451 -0.009900 140 147 42
-0.008389 -0.003235 -0.036330 79 66 42
-0.018232 0.004162 -0.004700 71 135 44
0.028567 0.019609 0.025720 84 125 62
0.002980 0.019801 0.027310 56 83 103
-0.027701 0.012875 -0.004700 203 199 202
0.023813 -0.016954 0.008680 180 125 92
-0.008437 -0.003216 -0.036330 97 134 41
0.002493 0.022963 0.018900 63 140 65
0.036590 -0.010756 0.016100 214 162 140
-0.024668 -0.005688 -0.013500 112 146 56
0.021717 0.026591 0.022200 0 45 125
-0.001105 0.002118 0.003770 97 143 49
-0.032329 -0.011224 -0.005250 165 183 160
-0.023165 -0.000049 -0.010180 121 151 54
-0.015645 0.013074 -0.003200 83 93 96
-0.008371 -0.003252 -0.036330 181 178 175
0.018198 0.014028 0.024200 120 169 197
-0.001229 0.021999 0.023910 12 80 17
0.045636 0.023604 0.033120 145 140 120
-0.008329 -0.003246 -0.036330 115 82 65
0.007660 0.029080 0.021660 0 11 31
-0.024727 0.010863 -0.003950 110 153 74
0.009526 -0.012620 0.004300 72 135 61
-0.011712 -0.004163 -0.006160 20 95 21
0.062331 0.021470 0.041550 165 151 145
0.075928 -0.039629 0.052920 41 22 16
-0.020831 0.011551 -0.004510 179 187 158
-0.008505 -0.003191 -0.036330 162 161 170
0.037754 0.001625 0.020510 4 26 68
-0.021580 -0.016251 0.002640 60 77 18
0.035560 -0.041569 0.041060 75 66 47
-0.008485 -0.003251 -0.036330 112 120 109
0.024833 0.002375 0.014590 151 144 134
-0.000964 0.001158 0.002890 122 154 47
-0.008505 -0.003149 -0.036330 118 114 115
-0.014896 0.000561 -0.005100 57 126 45
-0.008390 -0.003238 -0.036330 77 66 41
-0.008507 -0.003184 -0.036330 164 163 172
-0.029272 -0.014580 -0.001230 88 97 63
0.015532 -0.006093 0.007670 207 178 137
-0.007983 -0.005832 -0.004510 137 154 52
-0.011874 0.009209 -0.001750 169 181 157
-0.001963 0.004174 0.004570 54 126 55
-0.008374 -0.003235 -0.036330 81 64 39
-0.018310 -0.002083 -0.008700 16 78 11
0.007118 0.022768 0.020330 68 90 100
-0.008489 -0.003227 -0.036330 183 189 172
-0.039024 -0.020080 0.009850 75 81 48
-0.022200 -0.001917 -0.011280 89 125 37
-0.008384 -0.003244 -0.036330 80 65 39
0.060355 0.010132 0.035260 141 147 147
0.039154 -0.013592 0.016180 218 166 114
0.013852 -0.013406 0.002080 245 179 134
0.062741 0.020850 0.041870 178 168 178
-0.015840 -0.004330 -0.008890 133 140 37
0.001264 0.001022 0.003900 145 166 56
-0.026626 -0.009818 -0.010400 125 153 88
-0.008497 -0.003210 -0.036330 172 175 178
-0.003185 -0.010457 -0.003520 157 165 68
-0.008484 -0.003152 -0.036330 123 123 119
-0.022634 0.008930 -0.006280 147 164 62
0.044703 0.020405 0.030990 88 127 61
-0.008464 -0.003236 -0.036330 82 87 59
-0.019208 -0.013885 -0.000480 76 95 15
-0.019766 -0.006450 -0.010510 129 146 46
0.004613 0.006269 0.004930 148 150 134
-0.022548 0.010666 -0.003230 75 126 69
-0.008406 -0.003246 -0.036330 76 70 44
-0.022633 -0.000325 -0.010490 129 160 60
0.005277 -0.019341 0.009970 81 64 23
0.022736 0.017116 0.025100 71 122 156
0.044787 -0.043463 0.043890 66 56 42
-0.008483 -0.003151 -0.036330 122 121 121
0.029328 0.023422 0.025720 113 140 109
0.057688 0.042989 0.051040 124 104 105
0.012955 -0.010615 0.003600 196 138 93
-0.008492 -0.003157 -0.036330 140 136 139
-0.023105 -0.004631 -0.013530 64 131 48
-0.040685 -0.017080 0.006500 146 146 146
-0.008361 -0.003240 -0.036330 91 76 64
-0.011788 -0.010418 -0.007870 123 150 62
0.031588 0.020136 0.025100 67 109 28
-0.008802 -0.011217 -0.005460 92 140 59
-0.314340 -0.140215 0.282800 174 179 195
-0.020671 -0.003577 -0.011180 141 150 44
-0.011293 0.025259 0.018580 21 104 20
0.001654 0.000204 0.004480 145 176 62
-0.014218 -0.000283 -0.004340 95 107 83
-0.007773 -0.005094 -0.003720 30 95 22
0.035476 0.013013 0.039480 31 59 7
-0.014105 -0.012173 -0.016240 125 127 114
-0.014333 -0.017540 0.002560 75 81 44
-0.013224 0.008648 -0.000380 82 138 52
-0.035050 -0.020489 0.010970 89 96 70
-0.032119 -0.008334 -0.006480 176 178 186
-0.008465 -0.003238 -0.036330 81 86 53
-0.008507 -0.003202 -0.036330 165 170 177
-0.008379 -0.003236 -0.036330 81 66 40
0.022447 -0.001995 0.011950 208 134 90
-0.008461 -0.003214 -0.036330 128 155 56
-0.008453 -0.003243 -0.036330 73 78 41
0.010624 0.025928 0.017940 76 137 175
0.000319 -0.003882 0.001410 102 148 52
-0.008324 -0.003250 -0.036330 213 216 233
-0.008857 0.002565 -0.001060 153 184 70
-0.026867 0.000493 -0.011680 162 162 166
-0.008231 -0.010686 -0.005100 136 151 59
-0.027165 0.013184 -0.007270 98 98 94
-0.011300 -0.011935 -0.005610 108 119 28
-0.032015 -0.012142 -0.004180 145 193 112
-0.002608 0.007211 0.004890 182 199 181
-0.039405 -0.023117 0.004300 68 68 44
-0.008505 -0.003193 -0.036330 162 161 170
0.064434 0.041230 0.052080 116 68 49
-0.018294 0.010517 -0.001940 191 207 184
-0.008505 -0.003180 -0.036330 164 163 170
-0.014527 -0.006770 -0.009290 140 147 44
-0.003690 0.022695 0.020940 24 106 27
0.008275 -0.009284 0.005870 46 76 26
-0.020004 -0.003349 -0.010510 135 142 37
0.001653 -0.011952 -0.001590 139 161 64
0.002321 -0.012372 -0.000790 138 158 57
0.011125 0.000479 0.010370 168 125 88
-0.001241 0.023939 0.022300 10 108 19
0.003043 -0.016576 0.003430 85 87 26
0.032568 0.014125 0.035400 64 108 42
-0.000028 -0.003705 0.001150 97 147 54
0.035672 0.013493 0.039020 47 71 43
0.002211 0.021719 0.027970 9 29 26
-0.018807 0.010889 -0.004120 178 185 159
-0.009128 -0.013552 -0.015390 72 69 39
0.017988 -0.001736 0.010730 203 182 138
-0.017155 0.005314 -0.003640 102 143 39
-0.015511 -0.016965 0.003140 60 70 9
0.011392 -0.001580 0.009010 217 155 107
-0.026484 0.012135 -0.004620 190 198 185
0.056742 0.012327 0.038420 134 148 137
-0.014249 -0.009198 -0.009230 66 145 56
-0.010752 0.002489 -0.001850 123 184 85
0.019697 0.019956 0.022480 152 125 161
0.039096 0.017242 0.029790 156 184 148
-0.013663 0.024582 0.016180 0 11 46
-0.008318 -0.001007 -0.001780 154 159 66
0.004768 0.026397 0.018500 74 143 73
-0.008489 -0.003213 -0.036330 82 133 49
0.084561 0.050177 0.066750 79 71 70
0.012340 0.023649 0.018740 130 157 181
-0.008506 -0.003150 -0.036330 125 121 124
-0.036905 -0.017626 0.007770 81 86 56
0.006057 -0.000775 0.006010 143 179 64
0.015640 0.018600 0.022480 97 137 168
-0.006075 0.024000 0.016620 15 104 21
0.053446 0.006645 0.038870 0 28 76
-0.044627 -0.020768 0.006500 186 190 202
-0.008417 -0.003236 -0.036330 71 71 40
-0.008463 -0.003178 -0.036330 141 150 44
0.038453 -0.016574 0.015230 255 177 141
-0.008342 -0.003232 -0.036330 140 115 79
-0.018000 -0.007038 -0.011090 129 149 48
-0.008463 -0.003249 -0.036330 74 75 46
0.048353 -0.002807 0.024100 154 138 135
-0.010615 -0.008597 -0.007770 126 147 55
0.038183 0.011856 0.040110 109 131 102
0.102591 0.051539 0.076410 74 72 64
-0.008500 -0.003172 -0.036330 157 156 165
-0.008496 -0.003142 -0.036330 114 110 111
-0.008374 -0.003248 -0.036330 82 64 44
-0.025702 0.008514 -0.006160 71 132 58
-0.004061 -0.016371 0.003180 61 85 12
-0.017023 -0.000830 -0.008470 109 139 42
-0.014721 0.006417 -0.001260 40 64 23
-0.013590 0.009365 0.000260 82 116 81
-0.008502 -0.003176 -0.036330 159 158 165
0.002517 -0.000364 0.004430 155 213 104
-0.010663 -0.011455 -0.005280 74 121 38
-0.017474 0.024706 0.013240 0 44 99
0.004037 0.006027 0.004700 181 185 155
-0.008498 -0.003159 -0.036330 140 134 138
0.022596 -0.056796 0.082900 83 67 44
0.004078 -0.010810 0.001220 164 167 58
0.001070 0.008087 0.004390 141 139 131
0.054132 0.004254 0.040420 1 25 68
-0.018232 -0.005834 -0.017290 134 151 92
0.004258 -0.015422 0.002480 80 118 43
0.029554 -0.013086 0.011390 151 74 24
0.036910 -0.016886 0.014040 249 177 141
0.009312 -0.003320 0.007980 37 105 42
0.017901 -0.005724 0.009570 236 151 83
-0.008461 -0.003197 -0.036330 134 146 41
-0.026585 0.006832 -0.007270 123 152 82
-0.008367 -0.003240 -0.036330 87 73 56
-0.031248 -0.026131 0.012140 72 77 44
-0.008459 -0.003226 -0.036330 56 75 4
-0.014652 0.005575 -0.002230 42 73 18
0.029958 0.022572 0.025510 73 102 70
-0.001381 0.024320 0.019070 60 140 62
-0.013083 -0.010882 -0.016770 72 77 42
-0.008447 -0.003243 -0.036330 72 78 43
-0.015172 0.012736 -0.002510 80 85 90
-0.012669 -0.011116 -0.017010 62 68 35
-0.020857 0.007687 -0.004060 94 111 45
-0.008426 -0.003251 -0.036330 151 153 140
-0.039343 -0.019805 0.004300 162 165 164
-0.019383 0.008252 -0.003580 153 165 58
-0.003016 0.025866 0.015590 26 98 31
-0.008505 -0.003188 -0.036330 162 161 168
-0.026749 0.003876 -0.010110 151 151 155
-0.024591 0.002477 -0.009270 94 131 38
-0.014547 -0.011991 -0.005410 65 114 30
-0.021896 0.004721 -0.006280 29 88 12
-0.008395 -0.003246 -0.036330 80 67 43
-0.008369 -0.003244 -0.036330 89 71 49
-0.008502 -0.003225 -0.036330 171 173 183
-0.008384 -0.003242 -0.036330 85 70 44
0.228114 -0.203043 0.337070 171 171 175
-0.008367 -0.003236 -0.036330 80 68 50
0.024073 -0.017000 0.007720 186 120 80
0.026734 0.018271 0.028300 119 149 110
0.025414 -0.012479 0.008790 218 142 96
0.020440 -0.003828 0.010260 236 168 119
-0.003942 0.023726 0.018900 1 75 8
-0.001390 -0.007153 -0.000520 24 87 26
-0.008408 -0.003247 -0.036330 77 70 41
0.063221 0.006797 0.041870 0 54 118
-0.008391 -0.003244 -0.036330 81 68 44
0.032519 -0.010245 0.014730 222 161 110
-0.016674 -0.001432 -0.008490 110 146 42
-0.008402 -0.003250 -0.036330 160 161 150
-0.029190 0.009207 -0.005590 134 133 133
0.025696 0.026171 0.024500 88 137 112
-0.007033 -0.002275 -0.001460 161 167 69
0.020725 -0.004615 0.010260 227 168 121
0.085118 0.038608 0.067900 112 119 141
0.028989 0.030487 0.024700 182 181 181
-0.008326 -0.003242 -0.036330 83 64 51
-0.008510 -0.003208 -0.036330 169 168 177
-0.016979 -0.008148 -0.010780 126 178 75
-0.022644 0.007102 -0.005660 115 126 35
-0.037008 -0.022676 0.008790 78 78 43
-0.014152 -0.010554 -0.016920 82 90 59
-0.035244 -0.024770 0.007820 77 79 47
-0.029154 0.005668 -0.007850 150 149 149
-0.008509 -0.003144 -0.036330 112 108 111
0.036048 -0.025748 0.023620 108 78 46
0.012589 0.002941 0.011090 235 145 90
-0.012010 0.010976 -0.001460 134 135 124
-0.036903 -0.021832 0.009970 77 82 49
-0.008501 -0.003206 -0.036330 172 174 182
-0.004363 0.009857 0.002040 84 92 89
-0.015321 -0.010080 -0.016650 117 128 96
0.074412 -0.038762 0.057890 9 6 1
0.033355 0.023206 0.026340 103 139 76
-0.006562 -0.004431 -0.002630 145 168 62
-0.008457 -0.003223 -0.036330 117 134 32
0.015208 0.013668 0.023910 0 18 68
-0.008477 -0.001180 -0.002010 172 147 72
-0.034692 -0.024936 0.014950 77 83 50
-0.022082 -0.000027 -0.010330 121 149 45
-0.011455 0.011898 -0.001060 88 102 91
-0.038754 -0.024134 0.006650 98 98 76
0.004583 -0.011667 0.001180 109 99 42
0.230502 -0.203324 0.340840 175 175 179
0.028830 0.030033 0.024900 154 152 144
-0.008476 -0.003244 -0.036330 70 72 36
0.023625 -0.012464 0.009400 216 138 102
-0.010327 0.001371 -0.001880 93 129 43
0.006704 0.021440 0.020080 79 108 116
-0.008368 -0.003251 -0.036330 165 165 161
-0.008340 -0.003251 -0.036330 199 193 208
-0.019894 -0.001258 -0.009070 141 191 91
-0.008487 -0.003203 -0.036330 174 176 182
0.009281 0.021350 0.019480 52 108 152
0.020195 0.027736 0.021480 46 53 116
0.045422 -0.012439 0.020510 156 122 102
-0.014536 -0.006489 -0.008490 132 141 35
0.044221 -0.013923 0.019150 213 154 107
0.015781 0.000191 0.010370 196 171 133
-0.014482 -0.010668 -0.006880 19 74 13
0.007046 -0.007981 0.004170 148 202 85
0.008856 -0.014940 0.003900 119 145 49
-0.022057 0.011845 -0.005710 173 180 154
0.031223 -0.011497 0.013300 215 162 117
-0.008473 -0.003249 -0.036330 74 79 46
0.007497 0.027865 0.021390 0 22 49
-0.008083 -0.012494 -0.004670 76 90 2
0.006806 0.022017 0.019820 66 90 102
0.098372 0.054133 0.072460 70 67 64
-0.020593 -0.003846 -0.011260 138 146 45
0.011278 0.004662 0.009230 204 192 174
0.018839 -0.013731 0.005490 203 160 94
-0.008500 -0.003151 -0.036330 122 118 119
-0.008398 -0.003237 -0.036330 78 67 42
-0.003229 0.004782 0.003520 59 135 54
0.013830 -0.007998 0.005970 196 149 96
-0.008143 0.010543 0.000400 88 97 88
-0.010621 -0.011524 -0.005200 69 117 36
0.030161 0.013277 0.037530 10 13 12
-0.020192 0.013955 -0.005040 86 96 99
0.057288 0.005768 0.040260 0 27 83
-0.008389 -0.003245 -0.036330 83 68 42
-0.008447 -0.003241 -0.036330 71 77 42
0.015305 0.006107 0.009450 96 103 97
-0.002995 0.009807 0.001720 102 110 107
0.039248 0.016766 0.032350 110 141 99
-0.008370 -0.003236 -0.036330 83 66 50
-0.023657 -0.004633 -0.013490 70 140 56
0.070157 0.043818 0.056950 112 76 53
0.019050 -0.019998 0.013170 93 62 21
-0.039252 -0.025763 0.013300 74 76 40
-0.008498 -0.003170 -0.036330 158 157 164
-0.001568 -0.006980 -0.000590 32 118 45
0.023534 -0.006237 0.012140 254 152 88
-0.011227 -0.012032 -0.016490 70 72 40
-0.008417 -0.003238 -0.036330 71 71 38
-0.374364 0.124262 0.378570 155 153 160
-0.007229 0.026189 0.015880 63 140 63
-0.013640 -0.013370 -0.015630 69 74 39
-0.040207 -0.022574 0.004210 78 72 46
0.065431 0.009648 0.038870 159 171 187
-0.020074 0.002788 -0.006690 124 137 36
-0.027475 0.005643 -0.008070 149 149 153
-0.009289 0.003420 -0.001130 148 162 52
0.024398 0.001928 0.014040 161 143 132
0.051805 -0.036762 0.044070 74 65 58
-0.012440 0.004341 -0.002350 110 145 50
0.021877 -0.014439 0.007770 179 138 99
-0.015857 0.007908 -0.001490 59 133 62
0.023373 -0.005386 0.011450 253 154 107
0.020807 -0.005078 0.011090 250 194 126
-0.002462 0.009243 0.002150 88 96 97
-0.008481 -0.003146 -0.036330 115 114 114
-0.016779 0.001646 -0.005230 129 140 40
0.040590 -0.007595 0.017860 233 182 139
-0.008329 -0.003242 -0.036330 84 65 52
-0.002560 -0.008059 -0.001910 37 93 34
0.083725 0.041244 0.064790 158 118 119
-0.023252 0.004509 -0.007590 58 104 26
0.026499 -0.001023 0.013840 171 141 107
-0.008504 -0.003192 -0.036330 160 162 172
0.007162 -0.000679 0.006550 124 164 54
-0.008497 -0.003203 -0.036330 169 171 177
-0.008509 -0.003186 -0.036330 159 161 169
0.010124 -0.020198 0.012650 76 61 22
-0.008465 -0.003251 -0.036330 107 113 96
0.009117 -0.001054 0.008350 77 137 54
0.048057 0.014258 0.035950 33 36 53
-0.000063 0.003321 0.004350 164 170 58
0.021764 0.019130 0.023910 102 131 159
-0.008414 -0.003238 -0.036330 74 71 37
0.045227 -0.011792 0.020860 116 87 62
-0.018282 -0.005550 -0.017910 123 147 47
0.002030 -0.000298 0.004480 156 208 105
0.012973 -0.014426 0.003180 182 152 106
-0.015656 -0.008983 -0.010020 61 143 53
-0.006741 -0.011090 -0.005020 145 167 79
-0.021879 -0.003788 -0.012070 141 149 48
-0.008506 -0.003207 -0.036330 165 167 175
-0.008488 -0.003166 -0.036330 146 146 150
-0.006265 -0.019574 0.007720 68 65 33
-0.020786 0.006631 -0.005360 139 152 49
-0.024555 -0.004524 -0.013560 88 140 65
0.025677 0.022746 0.024800 29 65 31
-0.019282 -0.010106 -0.009750 90 104 12
0.022659 0.015351 0.025510 73 126 144
-0.006574 -0.018503 0.006800 63 71 15
-0.014559 -0.011453 -0.005820 33 102 23
-0.008472 -0.005772 -0.004640 140 156 52
0.031599 0.026050 0.026450 113 125 97
0.047769 -0.020115 0.020770 0 43 94
-0.005055 -0.010293 -0.003580 146 157 59
0.006248 0.027286 0.019990 0 18 18
0.042845 -0.002732 0.021840 175 150 130
-0.014418 -0.011248 -0.006060 20 91 11
0.051389 0.009179 0.046570 104 112 109
-0.008359 -0.003249 -0.036330 144 139 121
-0.008493 -0.003162 -0.036330 143 142 146
-0.023063 0.005927 -0.006720 126 154 48
0.030292 0.015820 0.030870 144 163 137
-0.008487 -0.003146 -0.036330 119 119 121
-0.015174 -0.009224 -0.009850 53 136 52
-0.008363 -0.003251 -0.036330 205 210 215
-0.008456 -0.003212 -0.036330 129 149 48
-0.007303 0.021079 0.020250 21 97 25
-0.021238 0.005422 -0.006090 128 158 49
-0.021041 0.006873 -0.005200 140 152 47
-0.008491 -0.003153 -0.036330 123 122 122
0.022749 -0.017767 0.008840 161 115 70
-0.008467 -0.003247 -0.036330 75 77 43
-0.008506 -0.003153 -0.036330 125 121 122
-0.008374 -0.003240 -0.036330 88 70 48
-0.012206 -0.006717 -0.007680 51 127 46
-0.015879 -0.006907 -0.010370 131 148 48
-0.018305 -0.005378 -0.017920 117 140 45
0.019138 0.027623 0.020940 0 56 131
-0.017349 -0.000235 -0.008520 142 154 47
-0.012868 -0.011011 -0.017050 69 74 41
0.018883 0.018852 0.022670 61 105 153
-0.008509 -0.003166 -0.036330 154 152 161
-0.024965 0.013439 -0.006570 141 137 128
-0.022763 0.000233 -0.010180 121 148 49
0.043003 -0.019901 0.017000 218 157 104
0.012610 -0.010151 0.004480 172 176 153
-0.014494 0.000325 -0.004180 65 75 50
-0.005566 -0.003889 -0.001190 136 156 51
-0.006395 -0.019204 0.007820 62 65 11
-0.033993 -0.008707 -0.005940 174 176 184
-0.008394 -0.003245 -0.036330 86 71 45
-0.028691 -0.000816 -0.009290 165 163 170
0.008489 -0.000038 0.008140 97 142 44
-0.008461 -0.003216 -0.036330 118 175 82
0.001017 -0.006226 0.000960 142 186 73
0.004170 -0.000877 0.005350 141 204 93
0.022561 0.027976 0.021930 53 108 127
-0.008398 -0.003241 -0.036330 81 69 42
-0.008335 -0.003246 -0.036330 103 77 64
0.047574 -0.011033 0.021750 216 154 124
-0.047256 -0.019723 0.009450 178 183 192
-0.008412 -0.003247 -0.036330 72 69 39
0.010669 -0.010585 0.005160 154 163 145
-0.008502 -0.003185 -0.036330 164 163 170
-0.024528 -0.000512 -0.010760 129 178 81
-0.008316 -0.003245 -0.036330 128 77 61
-0.008367 0.006656 0.001530 158 171 72
-0.012655 0.011492 -0.000990 114 114 114
-0.008438 -0.003235 -0.036330 76 81 53
0.016143 0.021184 0.022390 70 91 122
-0.025041 -0.003734 -0.012820 177 179 185
-0.015784 -0.009754 -0.009850 21 101 21
-0.026183 0.003642 -0.009440 59 117 46
0.011523 0.006815 0.007610 64 81 65
0.042703 -0.005596 0.019820 135 113 87
0.023387 0.016971 0.025820 117 149 156
0.070821 -0.001316 0.044240 98 112 116
-0.010604 0.008912 0.000080 181 197 176
-0.017517 -0.003753 -0.008130 132 144 37
-0.008700 0.009909 -0.000410 134 135 124
0.030585 0.015852 0.032480 133 151 130
0.017769 -0.074210 0.097440 252 255 247
-0.009513 0.007836 0.000990 82 145 63
-0.008498 -0.003214 -0.036330 173 175 183
-0.010717 0.006444 -0.000760 165 167 63
-0.009276 0.021484 0.018820 20 95 21
-0.043457 -0.022492 0.004300 95 92 60
-0.013249 0.024636 0.017860 0 54 11
-0.023330 -0.005641 -0.013930 109 146 55
-0.014633 0.000243 -0.004480 43 55 27
-0.023563 0.012039 -0.003780 188 203 176
0.052839 0.006337 0.038270 0 23 72
-0.017598 -0.006654 -0.009540 135 147 42
0.000114 0.024141 0.019400 71 147 75
0.003578 0.003368 0.007150 154 161 56
-0.002487 -0.003930 0.000880 76 130 54
0.035793 0.017431 0.029100 135 150 125
0.001410 -0.006472 0.001150 149 201 87
0.037607 0.014439 0.036240 128 131 115
-0.002898 0.023958 0.018340 31 116 36
-0.008451 -0.003244 -0.036330 68 74 34
0.054358 0.009969 0.038720 140 151 149
-0.011660 0.005895 -0.001190 157 159 57
-0.008374 -0.003235 -0.036330 83 65 43
0.084668 0.041038 0.063970 128 121 132
-0.014322 -0.011051 -0.016950 121 126 112
0.023380 -0.018386 0.009450 146 108 68
-0.047727 -0.016769 0.010430 179 181 191
0.031087 0.017905 0.025200 125 145 126
-0.005903 0.022777 0.015160 21 113 31
0.059522 0.010515 0.035540 129 132 133
0.022509 -0.012912 0.007610 196 166 150
-0.008495 -0.003197 -0.036330 163 168 175
0.082823 0.041485 0.065340 136 79 60
-0.022926 -0.006414 -0.013590 120 162 53
-0.043622 -0.017628 0.008840 188 190 198
-0.022964 0.006850 -0.006550 115 146 46
0.041476 0.011473 0.039950 111 132 110
-0.014534 0.000320 -0.004230 60 70 45
-0.009359 0.022210 0.018740 0 62 3
0.023447 -0.006708 0.011450 227 141 83
-0.004165 -0.009360 -0.002900 157 159 55
-0.014227 -0.011473 -0.006090 34 103 22
0.064020 0.040747 0.054450 159 154 152
-0.008506 -0.003182 -0.036330 161 159 166
0.017564 -0.012361 0.005400 179 146 117
-0.014118 0.008561 -0.000310 92 137 79
0.027024 0.021672 0.024700 51 91 22
-0.008509 -0.003251 -0.036330 145 148 149
0.024485 -0.010888 0.009230 253 170 113
-0.041273 -0.019573 0.010430 96 99 78
-0.018855 -0.001299 -0.009050 133 180 70
-0.008509 -0.003184 -0.036330 159 161 171
0.009354 -0.014100 0.003770 108 134 38
0.000723 0.004751 0.005970 142 159 57
-0.012930 -0.002284 -0.005430 129 160 60
-0.024398 0.012825 -0.006260 164 167 149
0.023285 -0.001441 0.012910 195 125 75
0.014472 -0.013149 0.002230 252 171 118
0.011206 0.002554 0.010910 238 160 103
0.036884 -0.017735 0.013500 248 169 131
-0.021149 0.002855 -0.007250 129 137 38
-0.047010 -0.021250 0.008350 183 185 195
-0.008494 -0.003251 -0.036330 134 141 135
-0.022325 -0.000735 -0.010620 121 161 74
-0.008371 -0.003238 -0.036330 86 70 49
0.041828 -0.004562 0.019900 168 146 118
-0.020690 0.006370 -0.005120 137 153 51
-0.008425 -0.003251 -0.036330 145 146 140
-0.008362 -0.003251 -0.036330 220 222 228
-0.019102 -0.002608 -0.009380 90 125 30
-0.008504 -0.003210 -0.036330 167 169 175
-0.006113 -0.007425 -0.004310 149 154 51
0.058255 0.010533 0.036810 4 70 133
0.050270 0.014711 0.035540 111 124 107
0.013986 0.013164 0.024100 13 50 96
-0.000402 0.001826 0.003900 107 145 49
-0.008394 -0.003241 -0.036330 81 69 42
0.013883 -0.006889 0.006700 219 168 109
0.002520 -0.005624 0.001410 140 161 49
-0.008498 -0.003234 -0.036330 176 181 188
-0.024598 -0.009156 -0.011500 96 133 51
-0.018281 0.004162 -0.004700 68 131 47
0.008942 0.017457 0.020330 102 135 162
-0.021873 -0.006994 -0.013890 125 182 78
0.005834 -0.009181 0.003050 50 108 24
-0.024780 0.001783 -0.009640 94 137 49
0.060715 0.021449 0.039640 162 147 137
-0.008340 -0.003246 -0.036330 100 78 68
-0.020607 0.001073 -0.007790 138 145 42
-0.023479 0.003963 -0.007830 115 135 32
0.020150 0.023399 0.022300 163 160 174
0.003585 -0.008202 0.002040 0 74 7
0.000070 -0.005611 0.000330 131 172 57
-0.020127 -0.001519 -0.009210 58 114 44
0.042744 0.017851 0.029790 67 101 29
-0.010905 0.006428 -0.000410 168 170 66
0.016357 -0.017577 0.008680 128 114 81
-0.008489 -0.003160 -0.036330 136 135 137
0.021957 -0.003906 0.010730 180 147 107
-0.039437 -0.019780 0.006500 97 100 79
0.040746 -0.035264 0.035950 90 76 68
-0.009155 0.008477 0.000300 191 202 181
-0.008495 -0.003155 -0.036330 127 123 126
0.020288 0.014861 0.024500 31 153 193
-0.008506 -0.003210 -0.036330 174 173 180
-0.012125 0.026371 0.017230 35 102 33
0.011469 0.005062 0.009510 176 163 150
-0.009735 -0.002328 -0.003460 119 125 25
-0.023419 -0.002380 -0.012410 122 130 49
-0.008427 -0.003240 -0.036330 70 72 38
0.009314 0.025848 0.018260 118 152 170
0.002317 -0.009363 0.000510 158 168 55
-0.014452 0.023090 0.018990 1 19 42
0.035211 -0.013866 0.014040 255 184 131
0.005167 -0.015350 0.003220 128 153 64
-0.047569 -0.015391 0.009570 174 176 182
-0.016849 -0.010173 -0.009170 29 97 21
-0.008508 -0.003234 -0.036330 179 177 191
0.010599 0.002732 0.011760 146 135 110
-0.006904 -0.015643 -0.006360 74 69 40
0.002944 0.000385 0.004390 153 168 55
0.060041 0.012623 0.036090 152 151 153
-0.020996 -0.004183 -0.011530 141 149 48
-0.008501 -0.003190 -0.036330 163 165 173
-0.008491 -0.003157 -0.036330 139 135 136
0.082755 0.051750 0.067030 81 76 74
-0.008374 -0.003247 -0.036330 84 66 46
0.003067 -0.005155 0.002480 163 170 55
-0.008421 -0.003242 -0.036330 70 72 40
0.027161 0.002186 0.015020 137 123 117
-0.010004 -0.003435 -0.004150 146 164 53
-0.008452 -0.003237 -0.036330 79 84 54
-0.009828 -0.007778 -0.006810 154 155 58
0.040830 -0.018132 0.016250 203 141 93
0.074798 -0.035647 0.049630 15 6 1
-0.008409 -0.003218 -0.036330 147 153 55
-0.021570 -0.000700 -0.009830 127 167 68
-0.017204 -0.012279 -0.018090 72 77 42
0.060867 0.006496 0.041380 0 48 99
-0.008482 -0.003167 -0.036330 147 147 151
0.044416 -0.039100 0.037680 94 79 69
-0.008503 -0.003150 -0.036330 122 121 123
-0.021478 -0.005172 -0.013370 107 139 50
0.031607 -0.016439 0.010790 239 175 116
0.024683 -0.000949 0.013770 193 139 99
-0.018008 -0.004649 -0.010000 117 132 58
-0.019606 -0.005263 -0.011400 144 148 48
-0.019460 -0.000800 -0.009110 124 153 42
0.037548 -0.032581 0.039640 86 79 60
0.074793 0.040604 0.062640 129 69 27
-0.006148 0.022519 0.020940 18 97 26
0.001887 0.001102 0.004660 143 161 54
-0.014988 -0.010920 -0.006430 9 77 5
-0.036073 -0.019378 0.010490 89 99 72
-0.022551 0.012618 -0.006650 118 119 108
-0.023251 -0.001749 -0.011710 94 112 37
-0.008436 -0.003146 -0.036330 0 31 82
-0.008383 -0.003249 -0.036330 146 144 123
-0.009491 0.024241 0.016930 22 107 25
-0.020007 0.005461 -0.005280 124 152 46
0.012483 0.021715 0.020510 147 155 185
0.040280 0.012608 0.038120 77 114 64
0.012325 -0.013526 0.002310 198 152 96
-0.008128 -0.003335 -0.004310 154 166 61
0.021359 0.013527 0.029560 0 24 74
-0.008504 -0.003148 -0.036330 120 119 119
0.028376 -0.006194 0.012650 251 187 133
-0.015002 0.005860 -0.003110 63 130 47
-0.025732 -0.000908 -0.010780 114 185 92
-0.013840 -0.004275 -0.006930 4 48 23
-0.010437 -0.003957 -0.005100 130 166 80
-0.009635 0.009443 -0.000480 189 199 176
0.138957 -0.101847 0.148470 252 255 254
0.039424 0.026858 0.030390 130 121 114
0.015936 0.013534 0.023430 0 33 77
0.035284 0.016667 0.032740 148 155 161
-0.004885 -0.000839 0.000880 94 109 14
-0.008483 -0.003145 -0.036330 119 118 118
0.025051 0.025847 0.025200 0 56 132
-0.007221 -0.005397 -0.003700 26 94 20
-0.019340 -0.002822 -0.009810 116 136 33
-0.047682 -0.019784 0.009620 178 183 190
-0.007016 -0.002664 -0.002350 160 166 56
-0.027102 0.000399 -0.011000 161 160 164
-0.020813 -0.014910 0.001220 24 70 15
-0.018599 -0.004590 -0.010350 94 106 33
-0.008477 -0.003250 -0.036330 133 137 114
0.034282 -0.020805 0.016030 150 116 81
-0.024921 -0.013930 -0.002100 73 92 12
0.014998 0.017931 0.023140 48 73 98
0.003977 0.017931 0.025000 72 92 105
-0.008508 -0.003248 -0.036330 99 92 61
-0.027974 -0.012886 -0.003840 102 117 29
-0.021962 -0.000747 -0.010330 125 165 76
-0.008450 -0.003238 -0.036330 79 84 54
-0.000325 0.023503 0.019320 37 122 42
0.014582 -0.022389 0.017080 79 62 37
-0.008498 -0.003161 -0.036330 141 137 142
0.001880 0.021942 0.026550 12 53 19
-0.026030 0.000088 -0.010690 147 194 91
-0.017044 -0.015189 0.001370 35 84 12
-0.001382 -0.007102 -0.000480 28 89 29
-0.006173 -0.001865 -0.000550 161 166 59
-0.022634 0.005011 -0.006570 85 135 54
-0.008330 -0.003243 -0.036330 92 71 54
0.011908 -0.004379 0.006850 195 125 75
-0.010696 0.022501 0.020510 28 97 29
0.038223 -0.020370 0.014040 182 132 100
0.016398 0.020008 0.021930 129 167 192
-0.026606 0.001840 -0.010200 130 149 119
0.016054 0.018866 0.021750 100 156 196
-0.008501 -0.003165 -0.036330 145 144 148
-0.004795 0.001377 0.001220 149 213 104
0.031145 -0.001819 0.015810 170 140 106
-0.008331 -0.003248 -0.036330 76 67 50
-0.017833 -0.005125 -0.010150 84 97 17
-0.021455 -0.002555 -0.008870 119 139 36
-0.008510 -0.003159 -0.036330 142 136 140
-0.008490 -0.003177 -0.036330 159 158 162
0.028972 0.024847 0.025920 90 129 67
0.023276 -0.006166 0.012200 255 157 94
-0.000138 0.007077 0.003390 175 175 151
0.042730 0.022519 0.031110 65 101 40
0.023881 0.001412 0.014320 214 171 146
-0.008438 -0.003235 -0.036330 75 80 52
0.008248 0.004452 0.008410 195 205 182
-0.008446 -0.003226 -0.036330 94 108 23
-0.019735 -0.004135 -0.010760 130 136 47
0.064390 0.021281 0.041710 152 126 124
0.014158 -0.006140 0.007360 203 166 134
-0.015291 -0.011089 -0.006310 25 93 17
-0.008492 -0.003152 -0.036330 119 118 118
-0.013024 0.009127 0.000220 68 111 73
-0.045540 -0.021915 0.005820 176 179 196
0.054157 0.024963 0.037530 126 111 110
0.069543 0.003078 0.050230 0 42 100
-0.024317 0.001574 -0.009660 106 141 46
-0.008410 -0.003229 -0.036330 86 96 14
0.033620 0.022481 0.026450 96 133 83
0.000636 -0.008856 -0.000550 140 147 42
-0.001718 -0.018786 0.007410 28 54 3
0.070924 -0.039499 0.057180 17 10 4
0.030948 0.014962 0.033120 30 75 4
-0.022416 0.007237 -0.005540 142 153 53
-0.024206 0.000992 -0.009710 112 145 51
0.004347 -0.013143 0.000660 149 162 61
-0.004958 -0.004095 -0.001590 124 151 52
-0.008498 -0.003249 -0.036330 88 84 57
0.010137 0.018879 0.019740 84 103 146
-0.001114 0.026393 0.016100 60 139 68
0.020238 0.024932 0.021930 93 104 113
0.015885 0.018407 0.022200 99 145 181
0.030643 -0.026473 0.024800 80 64 43
0.000808 0.024343 0.019990 69 145 73
-0.018380 -0.008861 -0.011110 36 125 42
-0.023888 -0.004847 -0.013460 81 136 53
-0.012646 0.008675 -0.000130 68 133 60
-0.008496 -0.003198 -0.036330 165 167 173
-0.008581 -0.001930 -0.002290 134 89 6
0.016233 0.014337 0.023040 121 170 198
-0.004796 0.025631 0.017540 58 135 60
0.007924 0.024826 0.019230 66 93 102
-0.023416 0.012032 -0.005230 177 184 160
-0.008491 -0.003176 -0.036330 156 155 159
-0.015783 -0.006595 -0.010000 138 147 43
-0.015282 -0.000148 -0.005940 61 126 40
0.002627 0.024530 0.019150 90 159 91
-0.001360 -0.001533 0.002040 86 130 75
-0.008506 -0.003212 -0.036330 169 171 181
-0.002402 -0.002837 0.001410 56 105 51
0.000707 0.025427 0.016400 65 145 69
-0.008496 -0.003183 -0.036330 160 159 166
-0.033092 -0.011512 -0.004510 183 188 195
-0.009695 -0.013586 -0.003200 83 93 25
-0.011843 0.010791 -0.001520 130 132 121
-0.003436 0.003607 0.003820 97 130 36
-0.001722 0.006833 0.003390 199 214 189
-0.024354 0.004665 -0.007830 63 105 24
-0.024193 0.008170 -0.006210 134 144 62
-0.008333 -0.003248 -0.036330 78 68 54
-0.009984 0.011745 -0.001290 68 102 71
-0.008481 -0.003153 -0.036330 127 121 123
0.014163 0.018296 0.022390 42 83 116
0.013682 -0.021585 0.015730 94 74 38
-0.008498 -0.003174 -0.036330 154 152 159
0.035191 0.017632 0.029100 62 69 47
0.029109 0.002483 0.016320 137 126 119
-0.008457 -0.003251 -0.036330 117 122 108
-0.014681 0.010518 -0.002070 161 172 151
-0.008508 -0.003165 -0.036330 152 150 157
0.027445 0.025038 0.025920 80 98 77
0.005638 0.008445 0.005920 32 76 94
-0.008710 -0.012051 -0.005200 59 87 2
-0.018397 0.004371 -0.004640 119 181 86
-0.026653 0.000465 -0.010810 156 164 151
0.035423 -0.026538 0.023520 76 66 54
-0.025235 0.001551 -0.010020 73 132 43
0.021551 -0.019500 0.011700 131 95 56
-0.381649 0.139232 0.374010 145 143 150
0.024787 -0.015686 0.007150 225 137 93
-0.008479 -0.003247 -0.036330 71 73 39
0.051163 0.014180 0.036090 112 135 110
-0.007959 -0.014421 -0.014900 135 137 124
0.008074 -0.011424 0.003650 101 119 28
-0.006784 -0.006772 -0.003980 138 142 58
0.042232 -0.018432 0.017310 211 155 118
-0.024138 -0.004890 -0.013350 83 131 50
-0.024517 0.001709 -0.009600 102 140 44
-0.013490 0.003533 -0.002990 168 205 96
-0.008506 -0.003249 -0.036330 93 90 58
-0.008492 -0.003183 -0.036330 155 154 161
-0.014752 -0.012704 -0.004120 66 101 22
-0.008504 -0.003187 -0.036330 162 161 170
-0.010658 -0.012078 -0.016660 71 73 41
-0.015512 0.023161 0.019320 0 25 64
-0.008369 -0.015192 -0.000030 56 86 20
-0.016747 0.002503 -0.004990 59 123 46
-0.008464 -0.003241 -0.036330 79 85 50
-0.024542 0.012167 -0.003720 186 202 179
-0.008435 -0.003249 -0.036330 78 77 51
-0.027315 -0.012509 -0.004450 74 89 1
-0.008385 -0.003241 -0.036330 82 65 40
0.005456 -0.010903 0.001680 164 171 68
-0.009779 0.021835 0.018660 18 99 25
-0.013600 -0.008837 -0.009360 85 155 69
-0.023566 -0.008191 -0.012810 79 96 68
-0.008385 -0.003242 -0.036330 83 68 42
-0.010923 0.024719 0.017860 27 113 28
-0.018734 -0.006257 -0.017760 118 174 75
-0.018035 -0.005821 -0.017390 146 160 109
0.015665 0.013393 0.024600 0 18 70
-0.028070 -0.024051 0.011640 69 75 40
0.011720 -0.005355 0.006450 203 142 89
0.014055 -0.023913 0.019650 82 65 40
0.062334 0.022474 0.040260 160 130 123
-0.016550 -0.003319 -0.008180 56 86 9
-0.004043 -0.008160 -0.001940 157 159 55
0.022885 0.024461 0.023230 0 60 134
-0.008455 -0.003247 -0.036330 68 73 38
-0.048358 -0.018514 0.008790 177 179 187
0.026788 0.018622 0.026450 87 125 66
-0.008465 -0.003158 -0.036330 148 161 60
-0.015104 0.002483 -0.001230 12 50 6
-0.013934 -0.013987 -0.015360 71 72 43
-0.012086 0.000533 -0.004090 163 163 58
0.026974 0.026743 0.025100 65 109 41
0.023624 0.000727 0.014530 217 137 88
-0.008505 -0.003153 -0.036330 124 120 123
-0.015287 0.001448 -0.004620 47 123 42
0.060293 0.010295 0.035540 141 147 147
-0.023611 -0.005827 -0.013820 107 139 48
-0.019174 -0.007896 -0.011690 99 164 66
-0.026896 0.004984 -0.008680 149 149 153
-0.006974 -0.008318 -0.004880 81 94 32
-0.008379 -0.003239 -0.036330 82 66 43
0.054199 0.005316 0.044940 0 14 57
-0.002379 -0.013900 -0.001160 69 105 62
0.014469 0.024123 0.020250 120 162 179
-0.015556 -0.009001 -0.009940 62 144 54
0.045202 0.019286 0.031360 58 90 51
0.009481 0.025512 0.018260 94 125 150
0.031097 -0.032537 0.041380 85 76 59
0.005412 -0.011321 0.001720 149 151 75
-0.008506 -0.003215 -0.036330 170 172 180
0.029559 -0.014093 0.010670 220 171 116
-0.016882 0.001938 -0.005200 85 96 5
-0.000234 0.002268 0.004430 116 154 58
-0.002031 0.024615 0.019320 63 140 63
-0.008506 -0.003238 -0.036330 175 179 191
-0.011192 -0.001701 -0.004120 126 153 52
0.046275 -0.034672 0.036380 83 69 61
0.005609 0.023607 0.022760 39 68 67
-0.015508 -0.006720 -0.009030 140 147 40
-0.027381 0.011446 -0.004420 184 189 177
0.005276 0.023762 0.022110 24 56 49
-0.008457 -0.003230 -0.036330 34 72 13
0.007351 -0.014255 0.003220 134 150 50
0.023156 0.018967 0.025000 73 122 148
-0.008316 -0.003247 -0.036330 150 98 76
-0.008509 -0.003217 -0.036330 163 168 175
-0.008494 -0.003189 -0.036330 165 164 171
-0.000010 -0.010667 -0.001850 65 135 51
0.013945 -0.009194 0.003950 218 151 109
-0.022813 -0.000073 -0.010380 124 152 48
-0.008395 -0.003242 -0.036330 83 71 44
0.036501 -0.010955 0.015810 224 176 143
-0.008492 -0.003165 -0.036330 145 145 149
0.039585 -0.032036 0.032230 79 70 63
0.074217 0.001000 0.051250 0 33 83
-0.020125 -0.005760 -0.012150 121 143 46
-0.015484 -0.004024 -0.007770 53 120 37
0.001455 0.009211 0.003180 6 15 48
0.022938 0.022032 0.023330 152 160 159
-0.008496 -0.003229 -0.036330 181 183 193
-0.020123 -0.008190 -0.011360 63 142 55
-0.008455 -0.003236 -0.036330 85 93 64
-0.008398 -0.003251 -0.036330 252 255 245
-0.022928 0.006445 -0.006810 122 149 48
0.042297 0.024174 0.031360 131 130 113
-0.007958 0.006588 0.001720 156 172 70
-0.012241 -0.007452 -0.008070 54 120 40
-0.032430 -0.007955 -0.006550 177 180 183
-0.022145 0.005380 -0.006240 130 178 70
-0.008329 -0.003242 -0.036330 88 67 54
0.063700 0.012411 0.038270 148 154 156
-0.008392 -0.003240 -0.036330 83 71 44
-0.008501 -0.003234 -0.036330 172 177 186
-0.008410 -0.003142 -0.036330 61 141 65
-0.009123 0.008307 0.001600 141 162 138
0.033501 -0.017340 0.011890 235 166 120
-0.008500 -0.003200 -0.036330 167 169 175
-0.014432 -0.015521 0.001680 46 88 18
-0.008485 -0.003152 -0.036330 123 123 119
-0.008410 -0.003166 -0.036330 203 206 188
-0.022437 0.005781 -0.006600 127 157 48
0.037866 -0.027235 0.025310 68 64 57
-0.008486 -0.003205 -0.036330 171 182 178
0.005140 0.004410 0.008570 122 164 81
0.027432 -0.001569 0.013640 172 151 118
-0.008402 -0.003250 -0.036330 136 139 123
-0.011318 -0.012302 -0.016700 69 73 43
-0.017673 0.003986 -0.004620 54 120 40
-0.008402 -0.003243 -0.036330 81 74 43
-0.027159 0.005683 -0.008220 147 150 153
-0.008457 -0.003238 -0.036330 78 83 50
0.035919 -0.021152 0.014950 138 104 71
-0.008447 -0.003239 -0.036330 73 79 44
0.012474 0.020036 0.020250 70 127 164
-0.025039 0.000456 -0.011410 110 150 53
-0.024409 0.012334 -0.006670 178 181 165
0.023109 0.020650 0.024010 117 159 185
-0.022652 0.008242 -0.004590 146 154 53
0.008914 -0.004387 0.007150 46 97 42
-0.017135 0.024745 0.013040 0 47 102
-0.043777 -0.017439 0.007820 182 187 196
0.012049 0.002039 0.010850 225 150 97
0.017984 -0.009565 0.007820 237 186 127
-0.008771 0.022094 0.019230 0 60 0
-0.025264 0.000148 -0.011130 111 146 47
-0.008499 -0.003178 -0.036330 155 154 161
-0.023619 -0.002383 -0.012500 86 130 48
0.043602 -0.040749 0.039640 61 54 35
-0.008390 -0.003244 -0.036330 83 70 46
-0.011773 0.009066 0.000040 176 193 175
-0.023898 -0.002134 -0.012690 69 132 50
-0.034035 -0.024586 0.007720 72 77 44
-0.014476 -0.003280 -0.006690 11 69 16
-0.004540 -0.010037 -0.004310 153 157 57
-0.007110 -0.007382 -0.004640 143 148 57
0.014542 -0.007657 0.006450 162 121 59
-0.036005 0.008282 -0.003780 148 144 147
-0.002647 0.006620 0.005070 80 128 90
-0.008405 -0.003179 -0.036330 162 167 62
-0.004086 0.000003 0.001370 27 89 37
-0.008502 -0.003150 -0.036330 118 117 117
0.021599 -0.015196 0.007560 204 167 137
-0.008507 -0.003149 -0.036330 117 116 116
0.023360 -0.004425 0.011210 206 126 81
0.069622 -0.034341 0.047880 19 9 9
-0.013629 0.000258 -0.004340 55 124 54
-0.008455 -0.003242 -0.036330 74 76 40
-0.008509 -0.003168 -0.036330 152 150 159
-0.006654 0.002194 -0.000270 145 170 63
0.038242 -0.031826 0.030750 80 71 64
-0.010174 -0.002085 -0.003750 106 110 12
-0.007430 0.006374 0.001800 167 175 74
0.029629 -0.017594 0.009620 254 188 141
-0.008457 -0.003233 -0.036330 85 93 64
-0.006514 0.010456 0.001410 83 97 88
0.008530 -0.004379 0.006850 52 93 59
0.010563 -0.012892 0.004930 135 151 128
-0.022508 0.006405 -0.006930 121 150 48
-0.008376 -0.003250 -0.036330 161 162 156
-0.008510 -0.003160 -0.036330 140 134 138
-0.008325 -0.003251 -0.036330 216 209 233
0.010761 -0.004826 0.008190 175 128 77
0.015969 0.001805 0.008730 226 157 100
-0.008423 -0.003581 -0.004370 150 167 60
-0.018243 -0.003887 -0.009690 135 141 45
-0.003332 -0.007978 -0.002480 66 126 45
-0.012943 -0.007806 -0.008560 79 118 36
-0.023399 0.001620 -0.009170 94 100 15
-0.007044 -0.004365 -0.003050 146 171 66
-0.014020 -0.007503 -0.009130 118 144 50
-0.017535 -0.017158 0.003520 68 77 21
-0.008498 -0.003213 -0.036330 169 174 183
-0.008459 -0.003236 -0.036330 84 88 63
0.000352 0.025509 0.016700 71 147 75
-0.015170 -0.010019 -0.016650 116 129 96
-0.006988 0.025788 0.015880 62 144 65
-0.008404 -0.003246 -0.036330 76 68 42
-0.008489 -0.003143 -0.036330 120 116 117
-0.021761 0.004393 -0.006480 50 106 34
0.004703 -0.019635 0.010200 77 61 29
-0.008505 -0.003234 -0.036330 172 176 188
-0.040589 -0.023841 0.007720 72 67 47
0.010465 -0.003252 0.008460 112 109 93
-0.018465 0.003587 -0.005330 67 101 29
-0.008436 -0.003251 -0.036330 120 125 111
-0.006841 0.022592 0.021300 18 100 23
-0.008491 -0.003207 -0.036330 177 179 185
-0.017196 -0.008172 -0.016990 118 126 77
0.056009 0.022620 0.037970 162 146 139
-0.007598 0.002388 -0.000450 157 183 71
-0.008497 -0.003152 -0.036330 122 121 121
0.072077 -0.035873 0.048840 19 10 3
-0.002492 -0.006646 -0.001190 28 111 55
-0.009254 -0.007681 -0.006240 154 156 54
-0.009215 0.005024 0.000480 126 113 30
0.051348 -0.012181 0.024700 153 159 157
-0.008507 -0.003184 -0.036330 162 161 170
-0.000374 0.007350 0.003730 174 177 152
-0.012686 0.003763 -0.002870 141 171 62
0.015075 -0.007643 0.006950 171 129 49
0.015654 -0.006167 0.007770 209 178 128
-0.008486 -0.003190 -0.036330 162 164 170
-0.008507 -0.003243 -0.036330 174 181 189
-0.026588 -0.000646 -0.010110 133 192 105
-0.008337 -0.003244 -0.036330 94 75 62
-0.022557 -0.008218 -0.011600 78 143 49
-0.008496 -0.003180 -0.036330 160 159 166
0.014149 -0.011791 0.002800 237 161 113
-0.025263 0.011966 -0.005170 189 200 181
-0.023564 0.006765 -0.007070 116 146 49
0.091510 -0.141022 0.309400 82 64 42
-0.023217 0.010431 -0.003550 113 157 64
0.011775 0.016542 0.021480 32 147 182
-0.052716 -0.001549 0.014250 162 164 172
-0.046413 -0.016274 0.009450 174 176 186
-0.014825 -0.006420 -0.008350 136 143 38
-0.019537 0.010659 -0.001850 180 201 177
-0.022379 -0.006113 -0.014020 111 150 47
-0.015375 -0.002012 -0.006930 82 160 55
0.045648 0.012234 0.037970 118 140 111
-0.028626 -0.005852 -0.010130 176 178 186
-0.012046 -0.011747 -0.016000 70 72 38
0.016628 -0.015388 0.005440 187 145 101
0.014584 -0.006840 0.006900 154 119 62
0.028493 0.019319 0.026240 109 149 109
0.031210 0.018310 0.027530 152 177 142
-0.013817 -0.013340 -0.015560 72 77 42
-0.011542 -0.011605 -0.006450 111 126 38
-0.035710 -0.012744 -0.002010 185 187 197
-0.008425 -0.003251 -0.036330 159 164 154
-0.008502 -0.003217 -0.036330 171 176 185
-0.014859 -0.006544 -0.008390 136 143 38
-0.299978 -0.134740 0.272250 175 184 196
-0.008113 0.025546 0.015300 63 140 61
-0.003182 0.025465 0.016320 7 83 15
0.023543 0.002996 0.013910 135 128 122
-0.011454 -0.011955 -0.016800 70 72 40
-0.008464 -0.003225 -0.036330 100 114 31
-0.009724 -0.000163 -0.002440 163 164 56
0.018548 -0.001282 0.011210 198 184 140
-0.034028 -0.021252 0.009400 77 82 49
0.006708 -0.004523 0.005120 149 160 44
0.014453 -0.014683 0.003650 193 152 113
-0.008495 -0.003154 -0.036330 123 122 124
-0.025488 -0.007504 -0.013000 98 145 60
-0.021283 0.005328 -0.005760 136 180 71
0.001228 0.002824 0.004800 167 169 56
0.010267 0.015831 0.021750 32 125 159
0.017573 0.017367 0.022570 127 157 201
-0.039310 -0.017523 0.007250 142 147 137
-0.022068 0.003118 -0.007480 138 147 43
-0.023662 -0.007316 -0.013640 87 128 61
0.004768 -0.003812 0.004430 144 151 44
-0.015944 0.005758 -0.003670 130 158 54
-0.008504 -0.003248 -0.036330 90 90 55
0.021633 -0.014534 0.007610 178 144 111
-0.019291 0.013500 -0.004150 99 102 101
-0.052003 -0.016656 0.010790 167 172 179
0.028582 0.003498 0.016030 98 102 95
-0.010391 0.002302 -0.001690 94 155 65
-0.025628 0.004410 -0.008600 79 100 21
-0.007878 -0.003934 -0.004010 156 173 64
-0.026644 0.008865 -0.006210 128 158 121
-0.032905 -0.021848 0.006110 74 79 44
-0.020092 0.004531 -0.005560 81 140 53
-0.016148 0.007137 -0.002780 58 132 49
-0.040728 -0.018883 0.006210 55 56 52
0.011385 -0.001046 0.008520 219 146 97
-0.008483 -0.003156 -0.036330 132 131 131
-0.021855 0.004957 -0.005740 86 141 58
-0.024580 -0.005783 -0.014200 89 144 65
0.009069 -0.010845 0.004840 101 118 102
-0.001316 -0.003761 0.001030 130 160 123
-0.008472 -0.003248 -0.036330 72 77 42
0.014858 -0.013085 0.002680 253 166 115
0.041228 0.015326 0.036660 130 155 136
-0.014280 -0.004955 -0.007650 40 110 35
-0.003148 -0.008476 -0.002630 83 126 40
-0.016277 0.002498 -0.004750 112 128 119
-0.027360 0.006636 -0.007450 146 146 146
-0.019835 0.008658 -0.003290 147 163 61
-0.016824 0.001217 -0.004880 137 146 40
-0.046717 -0.018047 0.009060 178 180 190
0.009300 -0.012225 0.004210 76 137 63
-0.022622 0.012468 -0.006500 125 126 113
-0.453968 0.159921 0.448640 150 149 156
-0.002083 0.006129 0.005440 74 133 73
0.014762 -0.009933 0.004300 241 159 115
-0.008478 -0.003149 -0.036330 112 108 109
0.062527 0.006417 0.042700 0 36 95
-0.005350 -0.006781 -0.002960 151 158 55
-0.011263 0.002769 -0.002070 142 197 89
-0.008505 -0.003153 -0.036330 127 123 126
-0.013740 -0.012325 -0.005410 65 100 21
-0.008509 -0.003176 -0.036330 160 158 165
-0.008500 -0.003145 -0.036330 109 108 108
-0.004789 -0.010818 -0.004340 133 148 53
-0.026828 0.002879 -0.009880 153 153 157
-0.011357 -0.008282 -0.007810 89 137 49
0.061699 0.043473 0.053790 142 119 118
-0.008489 -0.003216 -0.036330 112 156 63
0.007501 -0.011319 0.003140 163 169 57
0.037153 0.028720 0.028750 179 174 170
-0.013850 0.024807 0.017230 0 16 47
-0.012610 -0.004740 -0.006690 84 132 51
-0.025287 0.001793 -0.009810 60 123 37
0.040575 -0.025888 0.025510 67 53 36
0.055649 -0.007399 0.029100 160 172 178
-0.017670 -0.005742 -0.017540 135 152 86
-0.043534 -0.017423 0.007770 185 190 199
-0.008498 -0.003150 -0.036330 122 121 121
-0.008487 -0.003251 -0.036330 116 126 114
-0.008368 -0.003240 -0.036330 87 73 54
-0.015804 -0.007718 -0.010070 113 142 40
-0.008508 -0.003189 -0.036330 162 161 172
-0.008366 -0.003245 -0.036330 89 73 52
0.095169 0.036632 0.071210 128 86 102
0.029288 -0.028524 0.031850 80 69 46
-0.018336 -0.003966 -0.009770 139 145 47
-0.020381 -0.005796 -0.012160 120 142 45
-0.008491 -0.003161 -0.036330 139 138 140
-0.026374 -0.000037 -0.010420 155 207 102
0.037336 -0.041996 0.040260 74 65 48
0.005777 -0.011446 0.001760 158 163 72
0.063043 0.021976 0.040900 154 123 123
-0.026194 0.007356 -0.007180 99 139 50
-0.000123 -0.012403 -0.002100 116 151 56
-0.014284 -0.012103 -0.016260 76 78 62
-0.012801 -0.012190 -0.016410 112 120 109
-0.008488 -0.003176 -0.036330 153 152 156
-0.023061 0.012014 -0.005070 171 183 159
-0.008500 -0.003192 -0.036330 165 164 171
-0.008507 -0.003218 -0.036330 166 173 179
