ply
format ascii 1.0
element vertex 1215
property float x
property float y
property float z
property uchar red
property uchar green
property uchar blue
end_header
-0.125030 0.005814 0.031620 103 104 100
0.028800 -0.071817 0.060460 158 161 160
0.109446 0.017549 0.014040 1 5 0
-0.094125 0.009166 0.053300 113 114 105
-0.006784 0.026459 0.064220 110 101 94
-0.054354 0.029583 0.058020 114 110 101
0.049926 -0.076046 0.068120 153 156 155
-0.066283 -0.046275 -0.013790 147 161 163
0.093626 0.018956 0.019520 11 12 8
-0.000776 -0.001139 -0.154100 138 156 165
-0.136668 0.048350 0.044470 94 97 96
-0.075241 -0.060350 0.034440 151 165 167
-0.018683 -0.058938 0.047690 157 157 159
-0.084919 0.047921 0.033490 94 98 91
0.143050 0.002634 0.044470 4 11 5
0.087599 -0.005583 0.074940 90 86 75
0.061145 0.021052 0.028000 57 59 50
-0.125059 -0.029221 -0.002370 126 140 146
0.049578 0.037100 -0.084120 185 148 116
-0.138263 0.003834 0.021980 94 95 89
0.060952 -0.029248 0.031620 21 25 20
0.000200 0.083838 0.000780 220 222 228
0.082672 0.030995 -0.055650 175 141 110
-0.000753 -0.001136 -0.154100 151 165 171
-0.071459 0.015261 0.042380 120 118 110
0.037598 0.027135 0.001430 27 30 29
0.013011 0.037921 -0.058680 4 8 3
-0.119813 -0.009041 0.008900 105 106 102
0.000447 0.077598 0.002080 221 224 227
-0.149538 -0.153390 0.208420 159 171 175
-0.000792 -0.001132 -0.154100 125 143 152
-0.089644 0.004646 0.051020 116 117 108
0.094157 -0.065133 0.068120 108 104 97
0.051449 0.033690 -0.081820 192 153 122
-0.000684 -0.001098 -0.154100 38 39 35
-0.134326 0.058609 0.036360 78 84 82
-0.000762 -0.001129 -0.154100 148 165 170
-0.121324 0.024335 0.072160 105 106 100
-0.020162 -0.051132 0.019520 156 159 160
0.008179 0.025057 0.012540 26 26 22
-0.000719 -0.001109 -0.154100 150 156 156
-0.122077 0.052470 0.036360 77 85 82
-0.000767 -0.001133 -0.154100 143 159 167
-0.118256 0.012285 0.034440 103 104 98
-0.400318 -0.060770 0.256240 136 146 160
0.016395 -0.045046 0.015570 146 146 142
0.119707 -0.045743 0.020330 104 106 97
-0.181230 0.086517 0.035390 70 73 72
-0.132171 0.080395 -0.007150 81 92 92
0.051568 -0.043786 0.031620 138 141 140
0.045891 0.031408 -0.071200 186 141 107
-0.071042 0.038429 0.049900 108 106 96
-0.041411 -0.007387 0.053300 125 118 110
0.065743 0.025079 -0.060590 200 156 126
-0.020681 0.067041 0.017130 169 166 163
0.082147 -0.042041 0.076360 104 100 91
0.109989 0.014890 -0.030520 168 136 112
-0.127367 0.040227 0.032550 98 99 95
-0.016760 0.042639 0.068120 117 118 109
-0.000780 -0.001134 -0.154100 137 152 165
0.054616 0.029861 -0.069510 188 146 114
-0.000626 -0.001109 -0.154100 105 106 100
0.000014 -0.007370 0.105180 116 109 101
-0.094096 0.002218 0.056820 115 116 107
-0.000732 -0.001108 -0.154100 152 160 161
0.003212 -0.028598 0.045530 120 113 105
-0.134692 0.042507 0.028890 96 97 91
0.136820 -0.027985 0.004060 98 102 97
0.156389 0.037543 0.167780 70 68 58
0.086646 0.001093 0.000140 6 10 5
-0.096225 0.058636 0.038330 98 102 97
0.135613 -0.051997 -0.011640 110 114 109
-0.031309 0.069995 0.017920 189 189 183
0.027123 0.035484 -0.085540 196 151 115
0.072679 0.030662 -0.075570 182 150 126
-0.000781 -0.001135 -0.154100 132 152 163
-0.119243 -0.058143 -0.024060 128 140 154
-0.089930 -0.064110 0.162330 147 155 154
0.005048 -0.009436 0.056820 102 93 88
-0.108526 -0.023751 0.010340 108 112 107
0.125052 -0.095962 0.028890 115 116 110
-0.140522 -0.080318 0.165030 147 161 165
-0.113356 0.015961 0.033490 105 107 98
-0.125310 0.005611 0.042380 105 106 100
-0.133080 -0.029800 -0.008870 103 104 100
-0.109607 -0.075050 0.024510 141 157 165
0.121772 -0.049575 0.018720 106 107 98
0.110203 -0.013287 0.088330 87 80 72
-0.084933 0.047146 0.051020 56 54 42
-0.000798 -0.001073 -0.154100 20 27 19
0.148127 -0.082046 0.019520 117 118 114
-0.135289 0.057140 0.034440 150 164 170
0.118371 -0.081782 0.070800 97 93 84
0.066477 -0.065694 0.023660 141 147 145
-0.106058 0.065296 0.014040 104 110 108
-0.092157 -0.059577 0.051020 151 163 165
0.031994 0.026298 -0.065480 226 171 127
-0.110527 0.036600 0.031620 99 103 96
-0.000678 -0.001100 -0.154100 39 39 33
0.054642 -0.070370 0.037340 150 153 156
0.097528 -0.102102 0.083700 140 146 146
0.029047 -0.041377 0.046610 104 100 93
-0.110724 0.035911 0.035390 99 103 96
0.086202 0.020333 -0.050160 179 148 119
-0.112645 0.075682 0.004060 100 106 104
0.071724 0.036677 -0.079650 176 147 124
-0.005413 0.020287 0.098170 108 101 93
-0.085247 0.014090 0.051020 111 112 103
0.087802 -0.005181 0.093150 93 86 78
-0.099872 0.059091 0.029790 109 113 108
-0.000700 -0.001135 -0.154100 168 175 179
-0.079679 -0.086141 0.108830 152 163 163
0.149928 -0.000557 0.002080 88 91 90
-0.106180 -0.010965 0.011800 110 111 105
-0.133661 0.047519 0.029790 72 76 71
-0.134214 0.024988 0.017130 87 88 82
0.022428 0.028385 -0.067740 222 163 125
0.149762 -0.083852 0.008900 113 116 115
0.093132 -0.023329 0.014800 47 48 42
0.057084 0.036702 -0.083860 184 152 120
-0.142484 0.004291 0.038330 103 104 100
-0.138271 -0.022374 0.002080 98 99 95
0.054862 0.010684 0.046610 13 17 10
-0.074895 0.033294 0.030700 105 106 95
0.137211 -0.055675 0.003400 108 109 103
-0.000748 -0.001131 -0.154100 149 166 171
0.065634 0.037901 -0.082650 189 158 131
-0.140311 0.021537 0.007490 37 38 67
0.014970 -0.023552 0.055630 104 97 89
-0.046205 0.076109 -0.007150 179 179 179
0.040411 0.029899 -0.070460 197 149 112
-0.143649 -0.016841 0.006790 90 91 85
-0.079687 0.053675 0.058020 100 102 93
0.145897 -0.083224 -0.001130 105 105 105
-0.044459 0.053646 0.060460 143 141 133
0.015209 0.028777 -0.068140 105 91 76
-0.000738 -0.001123 -0.154100 157 167 170
0.118543 0.027440 0.118430 11 12 3
0.123741 -0.059060 0.004060 113 113 107
-0.000779 -0.001132 -0.154100 139 155 165
-0.142800 0.002984 0.032550 100 101 97
-0.132535 0.049495 0.029790 17 17 13
-0.124802 0.077475 0.004740 85 93 92
0.045990 0.031440 -0.075730 202 159 124
-0.088970 -0.012048 0.025370 110 110 104
-0.081095 -0.014959 0.047690 121 119 111
0.065567 -0.027679 0.045530 18 22 15
-0.192324 0.092820 0.047690 80 83 82
0.002377 0.020387 0.051020 87 80 72
0.003629 -0.004745 0.066810 113 106 98
0.135534 -0.007790 0.008900 90 91 85
0.072533 -0.090670 0.065510 151 154 153
0.016375 0.051869 -0.035250 4 11 5
-0.096955 0.014065 0.028000 109 111 102
-0.025215 -0.019100 0.045530 124 117 109
0.090827 -0.067207 0.077790 15 12 9
0.037092 0.035299 -0.082370 195 152 117
0.056916 0.025587 0.011070 74 74 68
-0.007142 -0.039708 0.035390 98 94 85
-0.093438 0.074618 -0.009990 104 110 108
0.061365 0.023521 -0.059400 202 159 124
-0.020111 -0.034746 0.040330 125 118 110
-0.082204 0.076077 0.001430 127 131 126
-0.140104 -0.133920 0.208420 156 168 170
-0.112781 -0.040760 0.033490 137 149 151
-0.068016 -0.070053 0.019520 155 169 173
-0.019141 0.073699 0.008190 204 203 203
-0.121764 0.067619 0.014040 84 90 88
0.093517 -0.053376 0.060460 106 102 93
-0.000741 -0.001140 -0.154100 161 175 181
-0.195983 -0.049239 0.049900 95 98 99
-0.099355 0.057183 0.043420 87 90 89
0.029835 0.027615 0.009620 31 32 28
0.062123 -0.125557 0.188460 160 166 166
0.023745 0.035288 0.012540 8 12 7
-0.000790 -0.001139 -0.154100 131 149 158
0.123392 -0.014514 0.014800 6 10 5
-0.046905 0.058062 0.040330 152 150 140
-0.130959 0.059744 0.034440 82 85 84
0.138497 -0.042966 0.108830 94 92 82
0.104212 -0.007283 0.015570 7 11 6
0.059453 0.036379 -0.083860 180 147 118
0.015347 0.057879 0.021150 14 12 4
0.132947 -0.065527 0.002080 114 115 111
0.046384 -0.035876 0.038330 41 45 40
0.058572 0.017039 0.048790 31 35 30
-0.100055 0.051843 0.038330 87 91 86
0.064480 -0.105718 0.041350 149 157 156
0.101622 -0.086651 0.051020 114 110 101
-0.073679 0.041098 0.047690 102 103 92
0.076986 0.020802 -0.052430 188 146 116
0.132470 -0.042367 0.093150 96 94 82
0.075868 0.040220 0.051020 106 87 74
0.126270 -0.048086 0.026240 105 105 99
0.017324 -0.006674 -0.039630 25 26 20
-0.147952 -0.008743 0.039320 103 104 100
0.145161 0.006756 0.009620 82 86 81
0.068440 0.030909 -0.079500 177 145 121
-0.108633 -0.012263 0.028890 108 109 103
0.061997 0.028219 -0.063320 194 150 118
0.163889 -0.016382 0.024510 95 99 94
0.130591 -0.039092 0.077790 98 96 88
0.032658 0.028601 -0.071570 198 145 110
0.033249 0.028910 -0.012720 23 27 20
-0.000798 -0.001096 -0.154100 2 6 1
0.013795 -0.076281 0.089920 152 152 152
0.119640 -0.018196 0.094800 92 88 79
-0.108739 -0.011538 -0.011640 99 103 98
0.036322 0.026794 -0.067740 229 174 132
-0.096124 -0.003697 0.039320 112 112 106
-0.096611 -0.003316 0.011070 109 110 104
-0.067849 0.054464 0.042380 119 120 114
-0.065289 0.067883 0.017920 162 166 161
-0.121591 -0.031534 -0.020810 100 103 102
0.011637 0.062010 -0.040330 72 75 76
-0.000751 -0.001130 -0.154100 153 170 175
0.148028 -0.051585 0.028890 107 111 106
0.151849 0.001900 0.019520 85 89 82
-0.015350 0.072385 0.007490 201 200 200
0.044697 0.024685 -0.063980 212 158 120
-0.104507 -0.017323 0.022810 109 110 104
-0.135356 -0.063150 -0.011640 93 96 95
0.134398 -0.084833 0.020330 117 118 114
0.146750 -0.002736 0.004060 88 92 87
-0.000784 -0.001135 -0.154100 132 149 161
-0.118814 -0.045821 0.008900 133 151 158
0.045488 0.025355 -0.065900 227 175 137
-0.068327 0.066958 0.011800 151 152 148
-0.024663 0.021641 0.056820 118 109 102
-0.145364 -0.009851 0.005420 124 135 133
0.140707 -0.033536 0.002730 103 104 98
-0.000672 -0.001071 -0.154100 28 32 27
-0.000631 -0.001093 -0.154100 8 12 7
-0.000709 -0.001139 -0.154100 167 177 182
0.027735 0.030368 -0.075400 197 147 111
0.051216 0.023368 -0.054070 223 167 128
-0.091456 -0.009211 0.036360 113 113 107
-0.150867 -0.075681 0.086770 140 154 158
0.072062 0.028580 -0.062200 184 147 115
-0.055200 0.056880 0.043420 131 129 121
-0.168438 0.041330 0.022810 21 30 23
0.164681 -0.036565 0.025370 103 107 102
0.044804 0.028728 -0.008300 29 33 28
0.088185 0.006062 0.055630 84 80 71
0.097779 -0.034590 0.023660 97 95 87
-0.076675 -0.013260 0.040330 121 119 111
0.049200 0.032612 -0.077980 186 144 114
-0.038984 0.039956 0.062950 32 23 18
0.128253 -0.047511 0.059230 101 99 91
-0.057645 -0.031571 0.021980 120 118 108
-0.044002 0.078322 0.011070 199 199 199
0.067194 0.025478 -0.059160 199 155 125
-0.149028 0.077321 0.005420 79 87 86
-0.140423 -0.028367 0.002080 98 102 97
0.095895 -0.027540 0.096470 99 92 84
0.032580 0.036250 -0.084900 195 150 116
0.133685 -0.047091 -0.015870 111 112 108
-0.071317 0.068879 0.024510 152 153 149
-0.117168 0.078242 -0.001750 89 95 93
-0.061549 0.068504 0.015570 170 173 172
0.145003 -0.051817 0.015570 107 108 102
0.097360 -0.080281 0.053300 113 109 100
-0.043685 0.065176 0.011800 186 186 186
0.087463 -0.063612 0.048790 111 104 98
-0.072972 0.079132 -0.009430 133 136 135
-0.018301 0.065859 0.019520 172 169 164
0.168243 0.006998 0.026240 84 88 83
0.095737 -0.024424 0.017130 28 29 20
0.084321 0.031032 -0.064420 167 134 107
0.093211 -0.049900 0.056820 102 98 89
-0.040598 0.062349 0.034440 152 152 146
0.078280 0.022944 -0.056420 192 155 123
-0.092823 -0.054993 -0.008870 138 156 163
0.116972 0.004474 0.069450 80 78 68
0.138172 -0.028686 0.008190 101 102 96
0.149466 -0.014592 0.026240 94 95 91
0.145591 -0.037650 0.000780 109 110 106
-0.145207 0.019581 0.002080 4 11 5
0.018771 0.016663 -0.002370 30 33 32
0.106672 -0.027121 0.082190 94 90 81
-0.122414 -0.014962 0.017130 102 106 101
0.015343 0.021497 -0.062880 247 177 136
-0.133644 -0.014092 0.003400 93 97 90
-0.099693 0.064743 0.013290 116 120 115
-0.000764 -0.001126 -0.154100 140 157 162
0.001378 -0.012666 0.045530 118 111 103
0.002773 -0.069795 -0.010550 166 173 177
-0.022123 0.069714 0.008190 195 194 194
0.054026 0.035984 -0.079200 183 146 116
0.055683 0.023479 -0.056680 217 165 125
0.107095 -0.024814 0.021980 13 21 10
-0.102920 0.016654 0.044470 108 109 100
-0.093727 0.040850 0.051020 104 105 96
0.031559 0.035728 -0.081960 197 154 119
0.107079 -0.088105 0.008900 115 115 111
0.042346 0.024766 -0.066520 219 163 124
-0.033640 0.047691 0.079240 124 122 114
0.038007 -0.045916 0.064220 112 108 99
-0.137982 0.060706 0.006790 139 152 161
-0.057908 -0.072263 -0.005390 161 173 177
0.082464 -0.085392 0.051020 140 146 146
-0.118082 -0.012092 0.009620 106 110 105
0.040157 -0.057297 0.066810 142 142 142
0.122974 0.015336 0.007490 74 75 66
0.046768 0.021007 -0.050740 252 185 143
-0.000750 0.079330 0.007490 214 217 218
-0.000681 -0.001098 -0.154100 35 35 29
0.113291 -0.010395 0.025370 8 12 7
-0.067884 0.081948 -0.005990 150 156 154
0.016821 0.030110 -0.069890 102 85 67
-0.129150 0.033353 0.037340 100 101 95
-0.131447 -0.046643 0.027110 132 151 155
0.101363 0.019979 -0.046250 167 136 109
-0.094347 0.030443 0.039320 108 108 102
0.063480 0.037590 -0.085540 185 153 129
-0.029030 -0.013614 0.051020 123 116 108
0.059520 0.022330 -0.053250 221 166 131
0.015833 0.021157 0.046610 32 32 32
0.060048 0.034717 -0.077980 187 153 122
0.096620 -0.064335 0.091520 7 7 3
-0.107639 -0.021074 0.013290 109 113 108
-0.000730 -0.001130 -0.154100 161 173 175
-0.000759 -0.001123 -0.154100 145 162 167
-0.070684 -0.037672 0.035390 151 162 158
-0.158583 0.064263 0.014040 10 21 17
0.075214 0.033320 -0.065270 177 142 114
-0.048234 -0.010734 0.064220 125 121 112
-0.000673 -0.001097 -0.154100 39 40 31
0.018906 0.004214 0.046610 5 6 2
-0.000683 -0.001090 -0.154100 8 9 5
-0.107628 0.055341 0.048790 86 90 85
0.139278 0.000467 0.008900 86 90 85
0.030816 0.032492 -0.079800 205 157 120
-0.145159 0.048222 0.009620 36 43 47
-0.156942 0.079133 0.009620 78 84 84
-0.139529 -0.040852 0.004060 98 102 97
-0.174027 -0.090093 0.223070 150 162 164
0.058878 0.022754 -0.054070 219 165 127
0.010776 0.079131 -0.006570 208 216 217
-0.130750 -0.029565 0.003400 124 136 142
-0.104976 -0.062376 0.034440 144 158 162
-0.030879 -0.022894 0.046610 127 120 112
-0.089580 -0.017319 0.028890 115 115 109
-0.001828 0.066218 0.021150 177 174 171
-0.077120 0.075993 0.000780 131 134 133
0.119390 -0.088086 0.027110 112 112 106
0.013911 0.063231 -0.037480 16 20 15
0.141590 -0.026404 -0.006570 102 106 99
-0.042359 -0.024423 0.041350 124 117 111
-0.071624 -0.032583 -0.049870 133 150 155
-0.034190 0.069811 0.000780 196 196 192
0.065282 0.012049 0.016350 76 77 64
0.104421 -0.054923 0.066810 102 98 89
-0.078116 0.009566 0.048790 114 112 102
-0.121398 0.010265 0.025370 102 106 101
0.065324 0.033125 -0.075730 188 153 125
-0.008703 0.028265 0.053300 110 103 93
0.136770 -0.091477 0.035390 117 118 112
-0.000752 -0.001111 -0.154100 143 155 157
-0.000750 -0.001135 -0.154100 153 169 177
0.005071 0.015938 0.027110 26 23 18
-0.072948 0.003110 0.038330 118 116 108
-0.092004 0.074507 0.013290 119 123 118
0.014836 0.035949 0.015570 25 30 20
-0.123732 0.051009 0.047690 17 18 14
-0.034188 0.068158 0.021980 190 187 182
-0.139266 0.054666 0.019520 122 134 138
0.060484 0.034463 -0.080680 182 148 117
-0.129025 0.027208 0.024510 96 97 91
-0.139750 0.079233 0.010340 86 94 93
0.152959 -0.044134 0.014040 108 112 107
-0.058580 0.053332 0.059230 122 120 112
0.134151 -0.064524 -0.004800 110 110 110
-0.112060 -0.078739 0.179280 151 162 162
-0.137585 0.005051 0.011070 90 90 84
0.011698 0.059362 -0.041360 75 78 79
-0.019492 0.052987 0.060460 147 143 134
-0.093048 0.066778 0.017130 113 117 112
0.068229 0.026254 -0.062430 187 145 113
0.113219 0.017564 -0.035250 163 134 109
-0.118766 -0.054390 -0.002990 135 148 157
-0.053816 -0.015129 0.037340 121 119 111
0.046187 0.035003 -0.079800 194 152 120
0.078980 -0.061399 0.069450 120 126 126
-0.084819 -0.096349 0.124530 154 164 167
-0.000781 -0.001128 -0.154100 131 148 160
0.085149 -0.014705 0.080710 97 90 82
-0.047474 0.043705 0.073540 28 24 17
-0.042987 0.052372 0.058020 141 137 130
0.028557 0.021299 0.004060 29 32 31
0.115973 0.017043 0.072160 74 72 62
0.044429 0.006475 0.041350 15 16 10
-0.054472 -0.023197 0.033490 126 122 113
-0.000788 -0.001130 -0.154100 129 147 156
0.103522 0.040289 0.088330 70 71 62
0.036682 -0.041708 0.032550 142 146 141
-0.000678 -0.001099 -0.154100 35 35 31
-0.000762 -0.001130 -0.154100 146 163 168
0.121147 -0.017866 0.022810 6 10 3
0.146152 -0.084347 0.026240 118 119 113
-0.047826 -0.182393 0.260800 163 171 172
-0.000632 -0.001092 -0.154100 6 10 5
0.094535 0.027361 -0.052980 169 138 111
0.119980 -0.037364 0.028000 98 99 93
-0.107512 -0.016757 0.028890 112 113 107
-0.098470 -0.003682 0.062950 115 116 107
0.001134 0.082901 -0.000500 220 225 232
-0.132338 0.012587 0.030700 99 103 98
0.122928 -0.043916 0.049900 99 100 91
-0.016734 0.077867 0.004060 189 189 189
0.126474 -0.049879 0.017920 109 109 103
-0.050654 0.058018 0.072160 133 131 123
-0.117546 0.073129 0.007490 89 92 91
-0.000764 -0.001135 -0.154100 141 157 165
0.145223 -0.071120 0.000140 115 115 115
0.072531 0.035950 -0.076870 165 133 109
-0.093095 0.045988 0.037340 42 40 30
-0.102046 0.068791 0.019520 115 119 114
0.087123 0.018958 -0.007730 6 10 3
-0.066662 -0.055007 -0.039630 143 157 163
-0.031912 -0.037099 0.043420 121 117 108
0.008314 -0.071457 0.010340 160 166 166
0.128705 -0.045829 0.099880 94 92 84
0.027439 -0.089525 0.085220 161 167 167
-0.016876 0.055359 0.044470 164 159 155
0.012425 0.031231 -0.055390 61 62 56
-0.135199 0.073201 0.008190 80 86 86
-0.092660 0.003411 0.052150 112 113 104
0.037450 -0.057980 0.062950 145 146 142
-0.158704 0.039386 0.042380 116 124 121
-0.126412 -0.037953 -0.014310 97 103 101
-0.091963 0.012178 0.055630 115 116 107
-0.051268 -0.028308 0.043420 125 121 112
-0.147487 0.074369 0.007490 82 90 89
-0.061560 -0.029958 0.028890 124 122 112
0.126797 0.011673 0.029790 4 8 1
0.138781 -0.074579 -0.007150 113 116 117
0.032861 0.014910 0.045530 29 33 28
0.098087 0.017858 0.065510 75 71 62
-0.059016 -0.020588 0.025370 122 120 110
-0.000777 -0.001130 -0.154100 139 157 166
0.013778 0.025702 -0.059400 120 92 73
-0.073351 -0.029962 0.032550 120 118 110
0.083468 -0.014754 0.064220 97 93 84
0.054789 -0.044796 0.055630 111 104 96
0.133798 -0.010233 -0.000500 88 92 87
0.045496 0.027785 -0.069120 198 150 115
-0.140938 -0.037339 0.006790 98 102 97
0.055172 0.023029 -0.051590 227 169 126
0.040536 0.025107 -0.058920 226 171 129
-0.083389 0.058052 0.039320 109 113 108
0.018667 -0.058881 0.027110 152 155 154
-0.143522 0.010320 0.026240 93 94 88
0.026746 0.021206 0.003400 27 30 29
-0.077818 0.043930 0.052150 26 18 15
0.045848 -0.091819 0.037340 161 167 167
0.042569 0.019925 0.046610 29 32 31
-0.155215 0.039816 0.044470 81 82 76
-0.000626 -0.001109 -0.154100 105 107 98
0.135276 -0.069107 -0.013790 112 115 116
-0.099594 -0.064179 0.070800 149 161 165
0.033595 -0.053166 0.055630 144 144 144
0.103820 0.043429 0.099880 75 73 63
-0.076400 -0.036491 -0.034490 135 152 155
-0.144518 -0.027327 0.007490 98 99 95
-0.039635 -0.012478 0.059230 125 118 110
0.148036 -0.101149 0.038330 121 122 116
0.012242 0.044665 -0.061060 9 10 6
0.102352 0.022607 -0.049280 167 135 113
-0.056295 0.083292 -0.003590 163 167 162
-0.000759 -0.001134 -0.154100 145 159 165
-0.092799 0.079039 -0.004200 109 113 108
-0.005474 0.060112 0.038330 127 122 118
0.147093 -0.012048 0.025370 89 93 88
-0.099250 -0.065215 0.070800 150 162 166
0.018981 0.029244 -0.074220 219 164 122
0.105146 0.019430 0.012540 15 24 15
0.119918 -0.088222 0.026240 114 115 109
0.044138 0.033747 -0.079800 195 153 121
0.143282 -0.013447 -0.007150 96 97 93
-0.000769 -0.001125 -0.154100 141 157 165
0.147861 -0.086976 0.015570 116 120 115
-0.000770 -0.001119 -0.154100 138 155 160
0.038156 0.012692 0.044470 16 20 15
-0.111326 0.070524 0.008900 99 105 103
-0.061455 0.064180 0.023660 164 168 163
-0.101917 -0.025509 -0.017890 127 144 149
0.072688 -0.102554 0.039320 133 136 135
-0.151013 0.073776 0.008900 80 86 86
0.008007 0.076743 0.004740 207 207 209
-0.000781 -0.001120 -0.154100 129 147 156
0.107682 -0.046920 0.085220 104 100 91
0.011684 0.052493 -0.043040 74 77 78
0.100601 -0.020661 0.018720 9 13 6
-0.093804 -0.019952 0.019520 111 112 106
0.039602 -0.066410 0.056820 145 148 147
-0.076055 0.028859 0.046610 115 113 103
-0.000733 -0.001137 -0.154100 161 173 175
-0.136691 0.040318 0.008190 8 17 10
-0.000780 -0.001128 -0.154100 136 154 163
0.022567 0.036498 -0.085030 188 156 122
0.003331 -0.062422 0.012540 162 165 166
-0.119575 -0.060717 0.018720 136 154 161
0.121689 -0.068372 0.022810 106 107 98
-0.000732 -0.001113 -0.154100 151 162 162
-0.000774 -0.071811 0.083700 151 151 151
0.049589 0.031500 -0.000500 122 91 62
0.138213 -0.026526 0.017130 88 87 87
-0.025992 -0.010943 0.054460 123 116 108
0.017180 0.010743 0.085220 87 80 74
0.073105 -0.054292 0.064220 133 139 137
0.137411 -0.018835 0.004740 100 104 97
-0.000770 -0.001123 -0.154100 137 155 162
-0.022002 0.078056 0.005420 179 179 179
-0.112806 0.070651 0.010340 103 109 107
0.051286 -0.092567 0.054460 154 160 160
0.038215 0.001578 0.034440 1 5 0
0.113066 -0.057572 0.011070 109 109 103
0.001777 0.065583 0.029790 132 127 123
-0.141228 0.021672 0.021980 81 82 76
0.006076 -0.024345 0.069450 115 108 102
0.000632 0.026053 0.074940 95 88 80
0.024949 0.023666 -0.059400 237 170 128
-0.077914 0.047509 0.049900 89 90 81
0.047508 -0.066706 0.021980 154 160 160
-0.110060 -0.097897 0.120430 154 166 168
-0.000736 -0.001132 -0.154100 158 172 176
-0.000774 -0.001122 -0.154100 132 150 157
-0.094089 -0.083151 0.120430 153 163 166
0.122662 -0.059534 0.002080 111 112 106
-0.085182 -0.064111 0.017130 150 164 168
-0.047448 -0.066396 0.021150 154 165 165
-0.105706 0.007768 0.043420 109 110 104
-0.000673 -0.001093 -0.154100 30 35 25
-0.000755 -0.001118 -0.154100 145 159 163
-0.000675 -0.001094 -0.154100 32 33 24
-0.073516 -0.112033 0.058020 159 171 175
-0.109713 0.020188 0.052150 102 103 97
-0.007897 0.070843 0.012540 193 189 190
0.139428 -0.000514 0.014800 85 89 82
-0.067783 0.061795 0.035390 149 150 144
-0.125415 -0.031454 -0.000500 129 143 149
-0.000755 -0.001118 -0.154100 145 159 163
0.060383 -0.050912 0.031620 140 146 144
-0.147633 0.078746 0.003400 80 91 91
-0.046374 -0.067417 0.025370 155 166 166
-0.144381 0.048708 0.035390 83 84 78
-0.040173 0.041968 0.098170 115 108 100
-0.061560 -0.019565 0.028890 120 118 110
-0.132171 0.009608 0.038330 101 105 100
0.113860 -0.069479 0.042380 104 102 94
-0.022097 0.078996 -0.008870 169 169 165
-0.089825 0.077032 0.001430 119 123 118
-0.025696 0.076167 0.004060 168 168 170
0.016514 -0.004015 0.062950 92 85 77
-0.103628 -0.026719 -0.015870 128 145 150
-0.139816 -0.019886 0.007490 95 99 94
-0.064684 0.013764 0.046610 120 116 109
0.109461 -0.015891 0.088330 89 82 74
-0.000675 -0.001096 -0.154100 32 33 27
-0.000765 -0.001126 -0.154100 139 157 164
-0.125167 0.068914 -0.004200 85 91 91
0.105378 -0.027797 0.088330 98 94 85
-0.066595 0.076197 -0.004800 149 152 151
0.114906 -0.059403 0.021150 109 110 101
-0.000784 -0.001125 -0.154100 127 145 154
0.136406 0.014802 0.103390 76 74 62
-0.032961 0.010178 0.060460 120 116 107
-0.000771 -0.001114 -0.154100 133 149 157
-0.127430 0.057422 0.033490 82 88 86
0.027528 0.027652 -0.069510 218 165 122
0.128265 -0.061602 0.023660 110 110 104
0.091892 -0.067563 0.077790 19 17 9
-0.084967 -0.020738 0.046610 116 117 108
0.143195 -0.056226 0.017130 108 109 103
0.076499 0.025671 -0.067940 176 143 116
0.041949 0.018183 0.051020 31 34 33
0.060384 0.021642 -0.050740 231 177 137
0.059285 0.023122 0.055630 30 33 32
0.062921 -0.043683 0.048790 105 103 95
0.089103 -0.031642 0.080710 101 94 88
-0.000758 -0.001134 -0.154100 148 162 168
-0.000775 -0.001130 -0.154100 139 155 163
-0.000674 -0.001098 -0.154100 40 41 32
-0.064082 -0.023779 0.028890 121 119 111
-0.038870 -0.062389 0.049900 156 164 163
0.094864 -0.024531 0.017920 42 39 34
0.156500 -0.015018 0.021150 94 98 93
-0.005196 -0.077795 0.027110 155 161 161
-0.106066 0.077463 -0.007150 105 111 109
0.091769 0.018905 -0.015870 86 66 44
-0.019315 -0.027723 0.041350 123 116 108
0.043284 -0.158311 0.162330 164 172 171
-0.099861 -0.050622 -0.021750 133 151 158
0.050925 -0.070206 0.044470 150 156 154
0.035337 0.034523 -0.081250 191 146 112
0.021489 0.030590 -0.072650 203 149 111
-0.172805 0.052563 0.031620 24 35 31
-0.066696 0.047489 0.058020 98 99 90
-0.000786 -0.001136 -0.154100 133 151 160
-0.136889 0.082412 0.000780 86 94 93
-0.041798 -0.030409 0.037340 124 117 109
-0.000719 -0.001135 -0.154100 165 175 178
-0.060643 0.026867 0.043420 118 114 105
-0.166365 -0.071122 0.167780 139 151 153
-0.000719 -0.001113 -0.154100 155 158 159
-0.110963 0.077442 -0.013260 85 91 89
-0.000725 -0.001138 -0.154100 164 176 180
-0.012945 -0.010727 0.049900 121 114 106
-0.074895 -0.027407 0.030700 121 119 111
0.070453 0.029887 -0.066110 187 150 118
0.124007 -0.108737 0.059230 111 108 103
-0.000719 -0.001136 -0.154100 165 177 179
0.140736 -0.082011 0.000140 113 117 112
-0.085332 0.072056 0.036360 125 126 122
0.143598 -0.042829 0.036360 105 106 100
0.139201 -0.028896 0.047690 11 19 8
-0.117380 0.021834 0.013290 100 101 95
-0.155788 0.085456 0.021980 86 94 93
0.004490 0.065625 0.036360 121 118 115
-0.143378 0.007315 0.027110 91 95 90
0.028305 -0.004589 0.000140 8 9 5
-0.199236 -0.049404 0.053300 94 97 98
-0.109993 -0.034022 0.041350 103 107 100
0.142654 0.009018 0.009620 25 32 24
-0.019182 -0.031579 0.053300 124 117 109
-0.103122 -0.040940 -0.036000 125 143 150
0.181289 -0.084625 0.147010 102 103 94
-0.147508 0.033347 0.019520 13 16 19
0.062794 0.019964 -0.052710 221 169 131
-0.069972 0.023755 0.047690 118 114 107
0.022058 0.027985 -0.068140 220 161 123
-0.082696 -0.030946 0.029790 110 111 102
-0.033047 0.031003 0.065510 116 109 99
-0.000668 -0.001115 -0.154100 142 148 148
0.029188 0.008995 0.070800 10 14 7
-0.088213 0.061999 0.032550 118 119 115
-0.122688 0.049325 0.061700 95 96 90
-0.022209 0.077773 -0.006570 162 161 161
-0.150084 0.009114 0.024510 77 77 71
0.003931 0.071573 0.006790 216 215 215
-0.059204 0.072855 0.014800 173 176 177
-0.139989 0.010718 0.005420 134 146 150
-0.006252 0.067287 0.025370 172 169 164
-0.000780 -0.001117 -0.154100 132 150 157
0.024914 0.027520 -0.060590 227 167 127
-0.015961 0.067566 0.017130 182 179 174
-0.110122 -0.029808 0.007490 125 142 143
-0.083227 -0.019556 0.031620 119 120 111
0.074315 0.030556 -0.062200 179 142 112
-0.148312 0.006033 0.010340 137 148 159
0.090009 0.017204 -0.001750 16 24 13
0.052504 0.033546 -0.084780 186 152 119
-0.031964 0.058902 0.036360 150 146 139
-0.140689 -0.019409 0.021980 100 103 102
0.034639 -0.042325 0.035390 142 143 139
-0.063008 -0.055621 0.041350 154 162 163
0.089739 -0.076143 0.053300 116 109 103
0.076151 0.019964 -0.052710 190 148 116
-0.126745 -0.139859 0.162330 158 170 174
0.076669 -0.107102 0.086770 151 157 155
-0.145608 0.021492 0.005420 1 8 0
0.088186 -0.073332 0.045530 115 108 100
-0.131483 0.065551 0.018720 89 94 99
-0.036228 0.057741 0.037340 164 162 154
0.079562 0.027668 -0.056680 183 146 116
0.133076 -0.076104 0.077790 105 103 93
-0.044312 -0.001327 0.043420 121 117 108
-0.131483 0.065286 0.018720 91 98 102
0.110794 -0.080192 0.046610 105 103 93
-0.082237 -0.072304 0.000140 150 164 170
-0.047969 0.071707 0.008190 194 194 196
-0.047915 0.021641 0.056820 118 114 105
-0.046179 0.075528 0.008900 189 189 189
0.093480 -0.026430 0.093150 97 90 82
-0.135941 0.021319 0.032550 100 101 97
0.019042 0.026847 -0.066320 225 162 121
-0.043861 0.062707 0.045530 158 156 148
-0.123709 0.072815 0.011800 86 92 90
0.044970 -0.028529 0.032550 48 49 43
0.123633 0.011724 0.089920 79 75 64
0.085428 -0.070020 0.041350 114 107 97
-0.140726 0.005482 0.047690 107 108 104
-0.048080 0.020943 0.053300 118 114 105
-0.022399 -0.037743 0.027110 143 144 140
0.126053 -0.069052 0.079240 100 98 90
0.079585 0.032705 0.059230 70 71 62
-0.008605 -0.027211 0.059230 122 115 107
0.103221 0.041871 0.086770 73 74 65
0.065725 0.036577 -0.086040 176 147 122
0.093945 -0.083964 0.062950 114 110 103
-0.016185 -0.082876 0.043420 160 168 169
0.087254 0.022334 -0.045310 190 153 123
0.098306 -0.032961 0.072160 101 94 84
0.147863 -0.079337 0.023660 114 115 109
-0.000728 -0.001138 -0.154100 164 176 178
0.114922 0.014667 -0.029280 161 132 107
-0.028456 0.059226 0.038330 155 151 144
0.037805 -0.006370 -0.009430 26 28 19
-0.159270 0.045656 0.018720 18 31 26
0.049435 0.023416 -0.056930 224 165 127
0.027483 0.028461 -0.073000 212 160 122
0.014264 0.032428 -0.057190 5 6 2
-0.088005 0.056876 0.042380 99 103 98
0.019173 -0.066256 0.037340 155 158 157
-0.144177 0.037867 0.017130 8 14 12
0.028859 0.077033 -0.005390 183 183 185
0.046275 0.035748 -0.086410 185 148 116
-0.046872 -0.066908 0.026240 157 165 166
-0.065650 0.069556 0.026240 165 168 167
0.064809 0.033244 -0.074900 186 151 123
-0.000686 -0.001083 -0.154100 9 13 6
0.111013 -0.018780 0.082190 90 85 81
-0.000779 -0.001117 -0.154100 132 148 156
-0.019026 -0.031377 -0.016880 149 152 153
-0.049615 0.038225 0.072160 116 112 103
0.122298 0.031204 0.118430 13 14 5
-0.142426 -0.008706 0.024510 83 83 83
0.140368 -0.016108 0.024510 74 74 70
0.076127 0.017075 -0.048690 208 165 130
0.041868 -0.073511 0.052150 149 155 153
-0.000779 -0.001135 -0.154100 136 153 165
-0.000642 -0.001116 -0.154100 102 103 94
0.084891 0.001475 -0.017390 6 10 5
0.050034 0.034993 -0.082100 185 146 115
-0.080633 -0.069381 -0.004200 150 164 170
-0.000725 -0.001127 -0.154100 160 170 173
0.003366 0.074725 0.025370 186 183 178
-0.128227 -0.012443 0.011070 99 103 98
-0.000773 -0.001122 -0.154100 133 151 158
-0.097730 -0.037229 0.031620 137 149 151
-0.084802 0.013534 0.047690 115 116 107
-0.000769 -0.001116 -0.154100 133 150 153
-0.000798 -0.001047 -0.154100 42 54 56
-0.000675 -0.001098 -0.154100 40 41 32
-0.117850 0.021157 0.046610 103 104 98
-0.010519 -0.007420 0.065510 117 110 102
0.115491 0.016211 -0.015350 170 139 110
-0.015062 0.022981 0.079240 109 102 94
-0.000786 -0.001130 -0.154100 131 148 160
0.121931 -0.087675 0.028000 112 113 104
-0.126577 0.020153 0.048790 102 103 97
0.082765 0.029977 -0.067740 174 141 114
-0.068437 -0.050116 0.099880 107 110 109
0.093566 0.021283 -0.048690 173 140 111
0.084969 -0.006384 0.079240 96 89 79
-0.024091 0.021045 0.060460 117 110 102
-0.137117 0.025431 0.013290 72 73 64
-0.055759 0.010127 0.047690 120 116 107
0.121960 -0.007819 0.022810 6 10 5
-0.034941 -0.041754 0.028890 150 156 156
0.028411 0.076901 -0.002990 185 185 187
-0.112578 -0.029677 0.027110 101 105 100
0.142002 -0.001875 0.029790 89 90 84
0.026030 -0.033138 0.026240 44 45 41
-0.168147 -0.112134 0.395070 149 157 158
0.091569 -0.033903 0.066810 100 93 85
0.030329 0.024436 -0.066730 221 163 122
-0.097247 -0.003336 0.061700 115 115 109
-0.000741 -0.001114 -0.154100 147 159 161
0.042923 0.034823 -0.086780 190 151 118
-0.054962 -0.020129 0.021150 123 119 110
-0.102611 -0.029270 0.022810 107 108 102
0.058721 0.035537 -0.083190 174 141 114
-0.000676 -0.001038 -0.154100 153 154 150
0.080385 0.028551 -0.058180 180 145 117
-0.137418 0.054234 0.035390 85 91 89
0.075950 0.021959 -0.052150 193 149 117
-0.064386 -0.015895 0.021980 120 118 110
-0.000683 -0.001135 -0.154100 168 174 174
0.018747 0.029414 -0.072110 218 162 123
0.066730 0.032287 -0.067940 183 146 114
-0.076370 0.056577 0.043420 118 119 113
-0.000673 -0.001136 -0.154100 153 159 159
-0.063874 0.071707 0.008190 160 163 164
0.117040 -0.077226 0.035390 109 110 101
0.019136 -0.054260 -0.006570 158 164 164
0.091546 -0.040205 0.060460 104 100 91
-0.111420 0.066731 0.016350 97 105 102
0.123890 -0.001000 0.116450 84 80 71
-0.139157 0.054940 0.018720 124 136 140
0.135429 -0.034829 0.017920 101 102 96
0.040199 0.027322 -0.066520 226 172 132
0.031242 -0.019429 -0.000500 39 39 33
0.003947 -0.035021 0.051020 124 117 109
-0.151631 0.068909 0.014040 75 86 86
0.020706 0.026349 -0.064420 224 158 118
0.115335 -0.003161 0.079240 88 84 73
0.054533 0.033006 -0.076550 183 146 112
-0.111096 -0.036089 0.031620 133 147 149
-0.193194 -0.132947 0.108830 141 159 168
-0.110263 0.076963 0.002730 97 103 101
-0.133378 0.022228 0.059230 102 103 97
0.027710 -0.004937 0.004740 8 9 5
-0.028383 0.079463 0.000140 158 159 155
-0.140897 0.040180 0.009620 48 57 50
0.049124 0.021547 -0.050450 245 179 137
0.116168 -0.058315 0.059230 100 98 88
0.093900 -0.060100 0.079240 122 120 112
-0.086656 -0.015269 0.047690 115 115 109
-0.000708 -0.001119 -0.154100 155 158 159
-0.074560 0.080846 -0.007150 124 127 126
-0.000784 -0.001110 -0.154100 128 144 152
-0.014976 -0.035636 0.035390 122 115 107
-0.017661 0.074019 0.021150 197 197 193
0.067892 -0.097228 0.080710 142 148 148
-0.007299 0.008149 0.059230 115 108 100
-0.080616 -0.028719 0.024510 116 117 108
0.015382 0.021832 -0.062660 250 175 136
-0.104971 -0.027681 0.019520 105 109 104
0.136136 0.016809 0.009620 13 4 0
0.047845 0.034532 -0.079350 190 151 120
-0.189249 -0.227685 0.371860 161 173 177
0.038880 -0.026436 0.021980 44 45 39
0.093658 0.010468 -0.001130 4 8 3
-0.190084 -0.077189 0.198160 139 153 157
-0.046199 -0.044030 -0.059880 154 168 174
0.091411 0.012344 0.010340 10 14 9
0.082115 0.027193 -0.068140 169 138 111
0.135257 -0.055260 0.012540 110 111 107
-0.136411 -0.014021 0.011800 100 104 97
0.022889 0.036418 -0.084390 183 142 107
0.014229 0.032750 -0.036380 9 10 4
0.010731 0.021484 0.008900 35 35 31
0.020134 0.034423 -0.080530 93 81 63
0.124069 -0.070613 0.074940 100 98 90
0.142034 -0.039552 0.000780 107 108 104
-0.136506 -0.030843 -0.003590 101 104 103
-0.000692 -0.001138 -0.154100 172 178 180
-0.085523 -0.071488 0.060460 153 165 167
0.029387 0.002853 0.074940 13 14 8
-0.099039 0.032300 0.036360 103 104 98
0.027963 0.021115 0.026240 28 31 30
-0.158215 0.054104 0.021980 12 25 20
0.131599 -0.038021 0.027110 103 103 97
-0.149660 -0.026118 0.006100 87 91 86
-0.000732 -0.001127 -0.154100 158 168 171
-0.134895 0.067877 0.014040 89 94 99
-0.072933 -0.086805 0.054460 159 171 175
-0.080964 0.070372 0.041350 130 131 127
0.003847 -0.053083 0.046610 152 152 148
-0.140544 -0.024286 0.030700 103 110 104
0.143349 0.010519 0.002730 33 35 26
0.152987 -0.093554 0.045530 115 116 112
-0.000753 -0.001129 -0.154100 150 167 172
0.138940 -0.056370 0.028000 108 109 103
0.125890 -0.044136 0.017130 103 104 100
-0.000688 -0.001080 -0.154100 29 30 26
-0.145463 0.042200 0.059230 100 101 95
-0.000785 -0.001118 -0.154100 126 143 148
-0.134867 0.059983 0.007490 145 157 171
0.137931 -0.037381 0.035390 102 103 97
-0.051916 -0.012773 0.032550 123 119 112
-0.082590 0.061701 0.042380 124 125 121
0.100719 -0.089571 0.045530 115 111 102
-0.037626 -0.027670 0.032550 128 121 113
0.016814 0.032873 0.017130 17 21 16
0.013918 0.069195 0.011070 125 125 119
0.037592 0.031312 -0.070460 204 154 118
-0.008653 0.023911 0.116450 113 106 98
-0.102922 -0.113338 0.208420 153 164 164
-0.104369 -0.061747 0.004740 141 158 163
-0.061344 -0.075791 0.006100 159 171 175
0.108298 -0.018986 0.017920 9 13 6
-0.138398 -0.002832 0.013290 92 96 89
-0.093546 -0.055640 -0.007730 139 155 163
-0.129997 0.022545 0.011070 86 87 81
-0.110266 -0.012657 0.030700 108 109 103
0.082753 -0.008023 0.053300 92 88 77
0.030524 -0.034379 0.031620 40 41 37
0.098119 -0.047764 0.074940 103 101 91
0.065255 0.036074 -0.077350 177 142 114
-0.006134 -0.074775 0.030700 161 167 169
-0.000746 -0.001122 -0.154100 148 162 164
-0.040003 0.041309 0.089920 114 107 99
-0.149751 0.027972 0.002080 20 27 21
-0.039768 0.069215 0.008190 188 188 190
0.011458 0.058347 0.015570 25 25 21
0.090158 0.016679 -0.004200 12 21 12
-0.161450 0.048159 0.021980 19 30 26
0.033701 0.028892 -0.069310 205 153 115
0.033707 0.033336 -0.079950 200 157 120
-0.000682 -0.001102 -0.154100 53 50 45
-0.000690 -0.001140 -0.154100 171 178 182
-0.129695 -0.026881 0.019520 100 107 101
0.046161 0.036550 -0.087020 189 152 120
-0.145066 -0.064017 0.000140 98 101 100
-0.086653 -0.007996 0.043420 115 115 109
0.141999 -0.007361 0.033490 80 82 71
0.107061 -0.099337 0.058020 114 112 104
-0.020213 -0.048121 0.041350 149 149 149
-0.000734 -0.001130 -0.154100 158 170 172
-0.000673 -0.001093 -0.154100 28 33 23
0.135485 -0.081965 0.062950 109 110 101
-0.005517 0.070591 0.018720 200 197 194
0.001840 -0.081150 0.089920 158 161 162
0.061448 -0.088389 0.052150 137 140 139
-0.000766 -0.001127 -0.154100 143 159 167
-0.050616 0.051616 0.062950 126 123 118
0.049502 -0.046425 0.026240 140 143 142
0.064700 -0.031997 0.062950 38 42 37
0.121920 -0.010451 0.016350 8 12 7
-0.048116 0.079316 -0.005390 178 181 180
-0.069983 0.002716 0.033490 117 115 107
-0.000628 -0.001079 -0.154100 3 7 0
0.153945 -0.014173 0.017130 93 97 92
-0.143281 0.029949 0.006100 1 5 0
-0.057610 0.057850 0.051020 128 125 120
0.069549 -0.093848 0.032550 139 139 139
0.133568 -0.100723 0.032550 117 117 111
0.038927 0.026061 -0.067540 226 170 131
0.060775 -0.091355 0.036360 153 156 155
0.019912 0.029281 -0.072470 223 167 128
0.011427 0.018169 0.035390 27 27 21
-0.000770 -0.001125 -0.154100 138 154 162
-0.145879 0.075120 -0.000500 79 87 86
-0.000689 -0.001079 -0.154100 30 31 27
0.067532 0.031939 -0.075400 187 154 127
-0.098197 -0.033087 0.039320 111 108 103
0.156232 0.015378 0.021150 5 6 0
-0.015879 -0.045092 0.002730 157 157 159
0.064090 0.027947 -0.061520 194 150 118
-0.019234 0.033508 0.077790 106 99 89
0.016140 -0.012112 0.046610 93 86 78
-0.041835 0.062913 0.012540 178 179 175
0.105673 -0.020675 0.023660 7 11 4
0.088745 -0.075003 0.051020 114 107 99
0.018390 -0.037720 0.029790 58 54 45
-0.005112 -0.043372 0.048790 147 151 146
0.111683 -0.085871 0.049900 103 101 93
0.032763 -0.032545 0.015570 45 45 45
-0.053149 0.071342 0.009620 177 180 181
0.130145 -0.111406 0.185350 145 151 151
-0.139072 -0.021571 0.021980 101 105 100
0.118654 -0.068543 0.068120 101 99 91
0.137800 -0.089749 0.017920 114 115 111
-0.000764 -0.001123 -0.154100 140 157 162
0.081908 -0.058653 0.068120 128 134 136
0.080850 0.031213 -0.065060 173 140 113
-0.116485 0.003488 0.029790 105 106 100
0.129049 -0.057195 0.029790 104 104 98
-0.074248 -0.027559 0.029790 119 117 109
-0.105991 -0.007457 0.020330 108 109 105
0.019430 0.047891 -0.045310 148 149 140
-0.061030 0.033543 0.048790 115 111 102
-0.000671 -0.001098 -0.154100 37 39 30
-0.085386 -0.019386 0.027110 116 116 110
0.042678 -0.105001 0.101620 161 167 167
0.109159 -0.087281 0.051020 89 87 79
-0.000781 -0.001133 -0.154100 133 151 160
-0.143404 0.033196 0.004060 0 9 2
-0.096919 0.049408 0.040330 86 90 83
0.114250 -0.053389 0.074940 93 89 82
-0.164298 -0.029946 0.018720 85 91 89
-0.013854 -0.005847 0.070800 118 111 103
0.139650 -0.020712 0.037340 6 13 7
-0.052235 -0.030122 0.041350 129 122 114
-0.141713 0.017607 0.027110 90 91 85
-0.000740 -0.001139 -0.154100 162 176 182
0.080225 0.029694 -0.056420 180 146 115
0.070978 0.035044 -0.079950 176 147 122
-0.024766 -0.058068 0.016350 157 163 163
0.067692 0.009772 0.009620 14 21 15
-0.045280 -0.026940 0.033490 126 122 113
0.084938 0.021313 -0.060120 181 148 119
0.060417 0.033016 -0.072830 188 151 119
-0.000791 -0.001134 -0.154100 127 143 153
0.128728 -0.081499 0.008190 116 117 113
-0.004529 0.066537 0.021980 178 175 170
-0.135772 0.016781 -0.007150 2 6 0
-0.157549 0.092009 0.017130 77 88 86
-0.124271 0.060014 0.033490 91 94 93
-0.154043 0.060951 0.015570 112 118 131
-0.000692 -0.001138 -0.154100 174 182 183
-0.000719 -0.001108 -0.154100 149 155 155
0.134177 0.016178 0.006100 7 4 0
-0.000784 -0.001139 -0.154100 133 150 162
-0.094038 0.075133 -0.011100 99 105 103
0.017194 0.025345 -0.065480 242 175 135
-0.093868 0.048298 0.038330 84 88 81
-0.000742 -0.001137 -0.154100 155 172 177
0.141839 -0.046258 0.042380 101 102 96
-0.000779 -0.001134 -0.154100 135 151 161
-0.055476 0.012765 0.045530 121 117 110
-0.018683 -0.073494 0.047690 161 167 167
0.095668 -0.022450 0.020330 18 18 12
0.051806 0.030046 -0.065270 195 150 116
0.139024 -0.021219 -0.002990 96 97 93
0.116253 -0.095819 0.041350 106 106 100
-0.000781 -0.001124 -0.154100 131 149 156
-0.079444 0.071166 0.013290 131 135 130
0.141669 -0.002274 0.049900 4 11 5
-0.144804 -0.010280 -0.003590 6 10 3
0.021124 0.023918 0.024510 34 37 36
-0.000671 -0.001094 -0.154100 31 32 26
-0.000771 -0.001114 -0.154100 131 148 153
0.138221 -0.034473 0.035390 101 102 96
-0.000770 -0.001131 -0.154100 140 156 164
-0.000670 -0.001071 -0.154100 30 34 29
0.017697 -0.016542 0.040330 17 16 18
-0.147377 0.040318 0.008190 64 74 81
0.115096 -0.078960 0.046610 105 103 95
-0.086207 -0.033766 0.036360 105 105 99
0.064486 0.028398 -0.066520 189 150 119
0.083174 -0.097826 0.042380 142 148 146
-0.260048 -0.139334 0.112590 97 97 97
0.052301 -0.075792 0.088330 144 147 146
-0.000682 -0.001138 -0.154100 171 179 180
0.021433 0.004463 0.044470 9 13 8
0.031400 0.032627 -0.079500 206 158 121
0.119314 -0.025970 0.002080 100 101 95
0.033086 0.034944 -0.081530 194 149 115
-0.095319 0.013301 0.044470 111 112 106
0.129207 -0.077189 0.005420 116 117 111
0.099186 -0.098969 0.054460 115 113 105
0.046282 0.035866 -0.087140 189 152 120
-0.046429 0.018985 0.043420 119 115 106
-0.018233 0.060427 0.039320 150 142 139
-0.007115 0.053412 0.053300 155 151 144
-0.000654 -0.001080 -0.154100 78 74 65
-0.128375 -0.039313 -0.011640 97 103 101
-0.039026 0.069389 0.010340 198 198 194
-0.049235 0.067006 0.012540 183 183 183
-0.078623 0.015702 0.047690 115 113 105
-0.116470 -0.049645 -0.001130 133 151 158
-0.001127 -0.117386 0.077790 169 177 178
-0.113731 0.000314 0.021150 105 109 104
0.146827 -0.093487 0.043420 112 113 107
-0.000797 -0.001052 -0.154100 42 55 52
0.090153 -0.032848 0.064220 102 95 87
0.003731 -0.067007 0.055630 157 157 157
-0.016267 -0.063172 0.056820 155 155 155
0.081111 0.005385 -0.027160 4 8 3
0.137386 -0.063109 -0.005990 112 112 112
-0.001155 0.058945 0.093150 147 143 134
-0.083640 0.013011 0.032550 111 112 106
0.142035 -0.037238 0.002080 105 106 100
0.161005 -0.086399 0.032550 116 117 113
0.007974 0.049878 0.065510 84 85 74
0.020771 0.031750 -0.074390 207 157 121
0.015959 0.014708 0.073540 31 26 22
0.033383 0.030533 -0.077350 196 148 113
0.139995 -0.076600 -0.005390 109 110 106
0.082692 0.027593 -0.059400 172 139 110
0.093185 -0.055444 0.079240 124 125 119
-0.062704 -0.006673 0.029790 121 117 110
-0.121628 -0.019167 0.017130 107 111 106
0.131476 -0.041257 -0.013260 108 109 105
-0.000791 -0.001125 -0.154100 122 135 146
-0.146332 0.016754 0.029790 90 91 85
-0.000686 -0.001099 -0.154100 40 40 34
0.080196 0.031361 -0.067940 174 141 114
0.041123 0.030402 -0.070830 199 149 113
-0.023268 -0.027743 0.039320 125 118 110
0.088723 0.017078 -0.006570 14 23 14
0.086628 0.025524 -0.057940 174 141 112
-0.116339 -0.022331 0.011070 109 113 108
-0.043637 0.052047 0.058020 137 133 126
-0.000701 -0.001135 -0.154100 168 175 179
-0.067627 -0.057457 -0.038570 145 159 163
0.135133 -0.055317 0.009620 112 113 109
0.069911 0.031989 -0.075570 183 148 122
-0.038613 0.074628 0.005420 194 194 194
-0.021227 0.014282 0.058020 118 111 103
-0.137085 0.034420 -0.001130 0 5 0
-0.047291 -0.051702 0.033490 153 161 162
0.029738 0.001799 0.074940 18 19 13
-0.075126 -0.036562 -0.026290 140 154 158
0.024209 -0.080938 0.042380 167 173 173
0.148104 -0.051077 0.051020 106 106 100
-0.012033 -0.056322 0.009620 155 161 161
-0.127120 -0.005144 0.013290 102 102 102
0.158108 0.003871 0.014040 85 88 87
0.081012 0.027374 -0.059160 174 142 110
-0.042276 0.077307 -0.001750 171 171 171
-0.110811 -0.034094 0.031620 116 127 123
0.033996 -0.077412 0.064220 158 161 160
-0.094803 0.004335 0.029790 112 112 106
-0.058154 -0.061991 0.004740 158 170 172
-0.128247 0.009364 0.028890 103 104 100
-0.086932 0.021660 0.035390 112 110 102
-0.113493 0.061810 0.017920 121 128 122
-0.110359 -0.035796 0.027110 134 148 150
0.040512 0.034692 -0.082920 193 151 119
-0.106082 0.060050 0.035390 94 98 93
0.130470 -0.069624 0.021150 114 115 109
0.033173 0.025343 -0.062660 225 167 126
0.029712 0.031850 -0.075900 199 149 113
0.128728 -0.051107 0.008190 109 110 106
0.121099 -0.076327 0.080710 98 94 87
0.108048 0.043798 0.085220 143 116 90
-0.087077 -0.033437 0.034440 108 108 102
-0.006901 0.007397 0.056820 115 108 100
0.124248 -0.048596 0.064220 100 98 90
0.054511 0.021193 -0.049870 234 171 132
0.075029 0.030926 -0.072110 180 147 118
0.098356 -0.099053 0.061700 119 115 108
0.075427 0.021248 -0.048090 203 158 122
0.157698 -0.089507 0.019520 113 116 115
0.025366 0.036504 0.006790 16 20 13
-0.001562 -0.099900 0.101620 162 168 168
-0.006448 -0.034575 0.052150 124 117 109
-0.060584 -0.003400 0.039320 122 118 111
-0.023277 0.058008 0.034440 156 152 145
0.111847 -0.092129 0.032550 106 106 100
-0.142941 0.013756 -0.001130 3 7 0
-0.046216 0.072255 0.019520 190 190 190
-0.136384 0.059531 0.009620 147 160 171
-0.000766 -0.001132 -0.154100 145 161 169
-0.024386 0.029177 0.069450 113 106 98
0.094595 0.001025 -0.019360 3 7 2
0.063584 0.033879 -0.083460 172 139 110
0.057977 0.034124 -0.076710 188 151 119
-0.091595 0.074776 -0.012180 105 111 109
-0.022422 -0.102651 0.042380 168 178 181
-0.038344 -0.053252 0.052150 152 155 156
-0.000677 -0.001098 -0.154100 36 38 29
-0.102217 0.015589 0.032550 106 107 98
-0.024780 0.065681 0.026240 182 179 174
-0.112735 0.052746 0.037340 84 91 85
0.112822 -0.026395 0.082190 91 87 80
0.025368 0.035072 -0.083460 197 152 114
-0.004543 0.080272 0.000780 219 222 225
0.051762 -0.065751 0.047690 148 151 150
0.045974 0.035660 -0.087140 187 150 118
0.081380 0.027896 -0.055390 183 146 116
0.007001 -0.080182 0.004060 168 175 179
-0.098957 -0.055303 0.010340 141 155 161
0.022379 0.031265 -0.075570 202 149 114
-0.135238 -0.021789 0.026240 105 109 104
0.144881 -0.005551 0.056820 7 11 6
-0.142652 -0.017369 0.009620 95 96 90
0.139103 -0.059507 -0.001130 110 110 110
0.144640 -0.024114 0.027110 97 97 93
-0.141640 -0.006411 0.021150 95 99 94
-0.000678 -0.001077 -0.154100 30 33 32
0.010081 0.000328 0.022810 81 74 68
-0.000769 -0.001119 -0.154100 134 151 156
-0.152761 -0.028807 0.008900 93 94 90
-0.047403 0.064486 0.013290 186 185 185
-0.121946 -0.043254 0.059230 138 150 152
-0.000761 -0.001128 -0.154100 141 158 163
-0.138640 0.057772 0.009620 95 106 115
-0.000776 -0.001131 -0.154100 138 154 162
0.147169 0.013945 0.033490 78 79 70
-0.059082 0.075356 -0.000500 162 165 166
0.012004 0.035066 -0.052710 72 73 64
-0.111361 0.075278 -0.002990 99 105 105
-0.111240 -0.048116 -0.015350 132 151 155
0.001554 -0.079739 0.099880 153 153 153
-0.029040 -0.102047 0.042380 167 179 183
-0.061030 0.019530 0.048790 119 115 108
-0.046012 -0.004009 0.040330 125 118 110
0.153757 -0.098929 0.051020 114 115 109
-0.210519 -0.140578 0.126630 141 159 168
-0.030764 -0.039640 0.052150 119 115 106
-0.000640 -0.001087 -0.154100 6 10 5
0.057595 0.023583 -0.059160 207 159 122
0.030608 0.033270 -0.080820 199 151 116
-0.022248 0.000028 0.072160 118 111 103
0.131193 -0.076703 0.076360 105 103 93
0.125915 -0.101987 0.047690 112 109 104
0.093070 -0.088123 0.061700 110 108 100
-0.104451 -0.011429 0.011070 108 109 103
0.110229 -0.021337 0.062950 92 90 82
0.039251 0.018879 0.042380 29 32 31
0.032790 0.008922 0.021150 2 6 1
-0.010405 -0.065206 0.011800 160 166 166
-0.000677 -0.001100 -0.154100 45 46 37
-0.118173 0.065596 0.014800 84 92 89
0.067891 -0.087125 0.054460 150 153 152
-0.089705 -0.012209 0.028000 112 112 106
0.123178 -0.046869 0.015570 108 108 102
0.126882 -0.046922 0.027110 106 106 100
0.016653 0.030685 -0.070080 100 88 70
-0.000669 -0.001123 -0.154100 144 147 148
0.125000 -0.012238 0.011800 87 89 78
-0.098812 -0.076801 0.082190 150 164 166
0.060463 0.036259 -0.083060 180 149 122
-0.159228 0.095096 0.022810 81 92 90
-0.092689 0.001928 0.038330 113 113 107
-0.057633 -0.032669 0.031620 120 118 108
-0.038873 -0.064144 0.056820 158 164 164
0.007155 -0.066844 0.037340 155 158 159
-0.095030 0.065872 0.041350 114 115 111
-0.000755 -0.001118 -0.154100 144 158 162
0.021570 0.031390 -0.076710 197 147 111
0.021046 -0.060992 0.019520 158 161 160
-0.000674 -0.001035 -0.154100 151 151 151
-0.000736 -0.001110 -0.154100 148 159 159
0.033659 0.035030 -0.083330 194 151 116
0.149940 -0.083823 0.024510 116 117 111
0.006569 -0.052152 0.037340 150 150 146
0.113579 0.010805 -0.037120 149 125 102
-0.012066 0.008643 0.062950 113 106 98
0.081652 0.025872 -0.056680 181 147 116
0.007541 -0.031331 0.062950 116 109 101
-0.009046 0.063145 0.032550 136 133 128
0.025926 0.023518 -0.061060 234 167 125
0.048534 0.028059 -0.066730 200 152 115
-0.000784 -0.001121 -0.154100 126 145 149
-0.000770 -0.001117 -0.154100 133 150 155
0.055431 0.031491 0.055630 28 31 30
0.119877 -0.036608 0.042380 99 97 89
-0.137243 0.009090 0.006790 69 73 66
-0.144242 -0.000799 0.000780 7 10 9
0.138564 -0.084687 0.058020 110 110 104
-0.075672 0.082055 -0.005390 124 127 126
-0.130763 -0.006710 -0.017390 3 7 2
-0.142871 -0.004939 0.015570 93 94 88
0.043729 0.022239 -0.059880 234 174 134
-0.002844 0.056869 0.040330 119 117 109
0.104409 0.011096 0.059230 80 76 67
-0.057627 0.006614 0.037340 122 118 111
-0.007792 -0.056787 0.045530 147 147 147
