ply
format ascii 1.0
element vertex 1214
property float x
property float y
property float z
property uchar blue
property uchar green
property uchar red
end_header
0.262352 0.002797 0.094386 100 106 99
0.209994 -0.121659 0.099386 103 99 92
0.041832 0.011582 -0.025714 174 173 170
0.041642 -0.005800 0.004786 77 90 89
0.092392 0.044402 -0.079614 140 132 125
0.273725 -0.031336 0.125286 17 27 47
0.045287 0.044482 -0.082914 159 158 150
-0.107809 -0.080878 0.036386 104 106 100
-0.008078 0.062534 -0.110214 98 99 96
0.030488 0.047548 -0.089814 173 171 165
-0.054209 0.060887 -0.012814 104 116 118
0.241758 -0.084720 0.121286 93 88 83
-0.085093 -0.101193 0.035686 110 112 106
-0.029051 -0.061203 0.045586 67 85 83
-0.171088 -0.060408 0.031086 55 60 56
-0.141053 0.010259 0.061486 15 18 80
0.090142 0.059763 -0.087114 97 96 88
-0.027973 -0.003564 -0.003414 78 94 92
0.229919 -0.112966 0.108586 97 97 86
-0.174421 -0.084313 0.013786 30 43 30
-0.131218 -0.029821 0.036186 17 18 94
-0.017024 0.046293 -0.085614 78 94 92
-0.003013 0.026567 -0.054314 169 173 173
-0.061926 0.084848 -0.055414 108 116 118
-0.181707 -0.049428 0.033886 53 59 58
0.045472 0.029443 -0.055714 83 84 81
0.086531 0.074082 -0.084714 75 84 93
-0.111362 -0.076939 0.048686 102 108 101
0.077468 0.024338 -0.045014 163 161 155
-0.060474 -0.097749 0.043686 112 113 110
-0.148794 0.053283 -0.005714 106 111 107
0.079370 -0.000164 -0.002214 171 168 165
-0.100558 0.044525 0.014886 115 123 125
0.070688 -0.002494 -0.002514 158 159 156
-0.018562 -0.008171 0.006386 72 83 82
-0.065529 -0.058417 0.060486 75 83 85
0.007665 0.042753 -0.081614 145 146 143
0.133248 -0.100296 0.104086 97 99 93
-0.112814 0.070044 -0.031914 112 118 117
0.119453 0.023966 -0.042414 172 166 159
0.044348 0.051191 -0.093914 144 139 134
0.106099 0.035103 -0.062714 158 151 146
0.077544 0.035219 -0.064914 158 150 148
-0.173784 -0.046972 0.038786 80 85 81
-0.013134 0.012523 -0.029614 171 175 175
0.048571 0.042626 -0.079014 144 142 136
-0.099107 0.058733 -0.011214 111 120 119
0.136333 0.024940 -0.041214 161 153 146
0.033189 0.052841 -0.096814 135 129 127
-0.079156 0.087714 -0.061114 119 125 125
-0.165370 -0.060684 0.030886 69 71 65
0.088157 -0.061967 0.066686 65 78 70
0.352173 -0.073921 0.179586 41 47 40
-0.046028 -0.059402 0.057386 105 122 141
-0.147203 0.000422 0.060486 70 74 74
0.126470 -0.012436 0.018086 125 131 138
0.248771 -0.097191 0.125786 95 91 84
-0.004771 0.061348 -0.108914 136 134 128
-0.091542 0.012274 0.046986 130 139 138
-0.106658 0.086935 -0.059114 120 126 125
0.019137 0.010538 -0.025514 166 170 169
-0.004779 0.042435 -0.079914 165 166 163
0.000668 -0.055588 0.050186 67 83 80
-0.070068 0.014829 0.050186 124 136 138
0.078285 0.059304 -0.090614 114 105 100
0.004654 0.035129 -0.067114 169 169 169
-0.177107 -0.052646 0.013186 14 32 23
0.266642 -0.057009 0.141686 70 71 63
-0.016711 0.034527 -0.068814 159 163 162
-0.162185 -0.000911 0.067386 76 81 77
0.070821 0.017354 -0.032814 167 167 161
-0.039347 0.073743 -0.032714 112 124 126
0.264186 -0.050495 0.140586 68 67 64
-0.070369 -0.008891 0.039886 129 137 139
-0.059621 -0.104590 0.046186 112 118 111
-0.008739 0.051427 -0.095414 41 47 40
-0.030831 -0.045813 0.044986 45 63 61
-0.024605 0.011977 -0.028714 169 169 170
0.192578 -0.035142 0.124286 90 88 82
0.071142 0.026240 -0.048014 172 170 164
0.003468 0.054018 -0.099414 144 144 138
0.091040 0.055426 -0.088414 131 121 112
-0.073430 0.064029 -0.016814 109 118 117
0.070091 0.004888 -0.009914 170 170 164
-0.159741 0.053123 -0.003414 110 117 113
-0.019388 0.048441 -0.086114 67 83 80
0.064638 0.054951 -0.093914 115 108 98
-0.087947 0.015238 0.048386 127 138 137
0.071357 -0.106314 0.079286 114 115 112
-0.135057 0.011759 0.064386 5 13 27
0.083735 -0.037160 0.067986 104 117 123
0.088369 0.047569 -0.083914 140 130 121
-0.005076 -0.075589 0.054886 110 133 149
0.061781 0.048773 -0.089914 156 149 139
-0.063321 0.081614 -0.048914 105 114 113
0.035650 0.069102 -0.097214 87 82 77
-0.035937 -0.081835 0.049586 112 137 156
-0.155644 -0.084219 0.022786 88 90 84
-0.058664 0.004342 0.048386 121 132 136
-0.059097 0.079653 -0.046214 110 119 118
0.131079 -0.037175 0.075686 86 104 121
-0.130310 -0.082585 0.031586 105 105 99
0.074321 0.057164 -0.091314 123 117 110
-0.187024 0.013802 0.030586 4 12 5
-0.132233 0.036342 0.025586 109 120 118
-0.024194 0.040890 -0.070414 61 77 74
0.028192 0.028600 -0.055714 158 158 158
0.036558 0.022955 -0.045614 167 167 167
0.093427 0.044483 -0.080014 151 139 135
0.012570 0.061623 -0.105114 115 117 111
-0.026124 0.041656 -0.068314 64 80 78
-0.063992 0.065741 -0.019514 110 122 124
-0.152246 0.047740 0.003886 106 112 111
0.051909 -0.101148 0.067386 111 115 114
-0.189775 -0.056814 0.010686 21 31 33
0.015015 -0.007583 0.008886 78 94 92
0.196039 -0.108368 0.112186 102 101 93
0.123176 0.029577 -0.051114 164 153 147
0.102746 0.040144 -0.069314 155 143 139
-0.090180 0.064773 -0.018114 114 125 124
-0.094012 0.085647 -0.058414 121 127 126
0.027560 0.042543 -0.080214 146 147 144
0.009514 0.049933 -0.093614 146 146 140
-0.090708 0.087036 -0.059314 120 126 125
0.089534 0.006594 -0.013914 164 164 158
0.027767 0.007494 -0.018914 162 162 162
-0.062726 0.079400 -0.040714 104 113 111
0.293032 -0.063274 0.159286 71 66 61
-0.121718 -0.002022 0.056786 16 20 93
0.042642 -0.093143 0.063086 116 133 154
-0.013939 0.001033 -0.011014 124 133 132
-0.143333 -0.080118 0.026986 91 93 87
-0.108743 0.073578 -0.037314 114 120 119
-0.184702 -0.064330 0.008286 4 15 7
-0.018308 0.067091 -0.098814 56 69 67
-0.051561 0.064767 -0.017114 115 125 127
-0.063116 -0.013929 0.037186 130 139 138
0.197671 -0.071136 0.125286 95 97 86
0.073572 -0.066109 0.059886 66 80 75
-0.145020 0.048730 0.002386 102 113 112
0.084467 0.047376 -0.084014 135 127 120
-0.194464 -0.025139 0.022386 76 75 79
0.002712 0.063414 -0.108614 115 112 109
-0.125398 0.055494 -0.007714 112 118 117
-0.195234 -0.010986 0.028886 44 53 52
-0.056683 0.031417 0.041686 100 111 115
-0.180661 -0.017535 0.051386 81 82 79
-0.130873 0.046971 0.007086 103 112 110
-0.147057 0.069957 -0.031414 105 111 104
0.056279 -0.091541 0.072486 114 134 152
-0.105220 0.071216 -0.033614 117 123 122
0.056033 0.046121 -0.085014 155 149 142
0.042037 0.064294 -0.098414 108 101 96
-0.113752 0.025460 0.051386 89 98 107
0.211851 -0.060724 0.129386 87 86 78
-0.154378 -0.071268 0.032086 88 90 84
0.038175 0.031051 -0.058914 175 173 173
-0.110705 -0.087447 0.027986 105 108 100
-0.084587 -0.040390 0.056186 10 20 15
0.040798 0.056045 -0.098614 134 130 123
0.249117 -0.147439 0.111286 99 95 88
-0.169426 -0.028889 0.051086 90 91 88
-0.087456 -0.025957 0.040086 107 128 137
-0.086392 0.082864 -0.052414 116 122 122
0.022581 0.050214 -0.093214 163 161 162
0.069048 0.043710 -0.079614 147 139 132
0.190374 -0.109171 0.095986 104 100 93
0.080598 -0.009766 0.013186 18 28 30
-0.033544 -0.107406 0.045886 114 115 112
0.086722 0.025633 -0.046614 164 159 154
0.026179 -0.015940 0.017486 131 142 155
0.099683 0.028392 -0.052514 159 151 144
0.060505 0.054352 -0.094714 130 124 117
-0.065566 0.058072 -0.005014 110 123 122
-0.042332 -0.000310 -0.000814 70 83 82
0.089510 -0.001073 -0.002014 144 142 136
0.041788 -0.010522 0.009686 32 45 43
0.071799 0.069979 -0.087314 102 94 92
-0.152371 0.034591 0.029686 103 112 111
-0.006904 0.059089 -0.107314 140 140 134
0.349420 -0.077391 0.170786 33 39 32
-0.012435 0.055638 -0.101314 75 92 86
0.009586 0.056097 -0.102514 134 133 125
0.073625 0.058661 -0.091814 134 129 119
-0.071454 -0.008528 0.039886 121 132 131
0.131596 -0.112198 0.087186 109 105 98
-0.049688 -0.048858 0.060186 99 124 143
-0.153482 0.049337 0.000486 106 112 111
-0.127750 0.058567 -0.013214 109 115 114
0.062596 0.042843 -0.078814 154 146 139
0.064670 0.044911 -0.081114 155 149 142
-0.141496 -0.085149 0.026786 105 103 97
-0.008326 0.047442 -0.088514 162 166 165
-0.065905 -0.020110 0.035686 88 104 116
-0.035863 0.074492 -0.036114 113 125 127
0.035939 0.020947 -0.042714 172 172 172
0.067080 0.031142 -0.057914 156 153 143
-0.095926 0.088529 -0.062214 122 122 123
-0.017619 0.048701 -0.088014 73 89 86
-0.140630 0.018988 0.055186 96 102 102
0.053796 0.035493 -0.065814 164 163 155
-0.108011 0.067004 -0.027914 117 124 120
0.236005 -0.118721 0.106786 102 99 89
0.030704 -0.105504 0.069686 114 118 117
-0.128522 -0.055071 0.044986 91 97 97
-0.052139 -0.034312 0.056786 113 129 141
0.054441 -0.119864 0.065986 116 116 110
-0.024647 -0.111077 0.049886 115 119 118
-0.083083 0.060703 -0.011214 107 118 117
-0.017287 0.030245 -0.061114 162 162 162
0.005850 0.064221 -0.107614 118 118 112
-0.137959 0.010999 0.063086 1 9 55
-0.115194 0.049408 0.006786 114 120 119
0.003231 0.054985 -0.101214 148 148 142
0.073857 0.057549 -0.091514 117 111 104
0.034047 0.014849 -0.031614 169 168 165
0.029599 0.030587 -0.059514 166 164 164
0.018136 0.019327 -0.040914 154 155 152
-0.068205 0.000111 0.044986 126 136 138
-0.002790 0.013074 -0.030814 168 172 171
0.178218 -0.103444 0.109486 102 103 95
-0.193816 0.000584 0.048386 9 2 0
-0.138793 -0.093721 0.018086 105 102 99
0.018831 0.021844 -0.044314 164 162 162
-0.040765 0.070985 -0.025814 119 129 131
0.112589 0.003477 -0.006714 168 163 158
0.005953 0.031440 -0.061314 165 165 165
0.230458 -0.119978 0.113586 102 98 91
-0.007214 0.062339 -0.110114 123 122 119
-0.141271 0.000890 0.054286 21 24 79
0.086619 -0.102994 0.076686 100 104 109
-0.038824 -0.081596 0.046386 115 140 157
0.112058 0.036031 -0.064714 163 153 144
-0.151960 0.038465 0.022786 101 110 108
0.168688 -0.095190 0.107686 102 102 96
0.108564 0.017342 -0.031814 154 146 144
0.038024 -0.015984 0.019686 131 143 151
-0.061876 0.088213 -0.061314 108 117 116
-0.190082 -0.042147 0.013386 10 20 22
-0.122449 0.058925 -0.011614 111 117 116
-0.096305 0.080288 -0.049914 110 119 118
-0.124947 0.070610 -0.033214 102 111 110
-0.016367 -0.033848 0.044486 47 63 61
-0.105413 0.041720 0.018786 108 116 118
-0.048133 0.089402 -0.059114 107 117 119
-0.044451 0.085585 -0.053914 110 119 118
0.031941 0.032026 -0.061514 170 169 166
0.050649 0.060580 -0.097114 135 130 125
-0.048843 0.065583 -0.017114 117 127 129
0.244235 -0.117732 0.107686 99 96 86
0.056368 0.072017 -0.092414 65 62 59
0.048336 -0.009235 0.009486 82 96 91
-0.058390 0.073461 -0.029914 107 118 117
-0.172806 -0.084312 0.015686 39 49 37
-0.165764 -0.035398 0.046386 91 93 87
-0.113669 -0.053973 0.056186 98 102 102
0.102774 0.005439 -0.009714 164 159 154
-0.105733 0.055922 -0.007014 108 117 115
0.093648 -0.014728 0.020086 126 139 145
0.079276 -0.032354 0.060486 124 134 141
0.079227 0.052523 -0.090414 130 119 113
0.134155 -0.040067 0.079286 97 113 125
0.099287 -0.033291 0.061186 122 132 139
-0.120766 0.086346 -0.056214 114 115 112
0.115942 0.035968 -0.063714 156 147 142
-0.108453 0.021312 0.055786 94 103 112
0.092051 0.028622 -0.052314 167 163 156
-0.094143 0.080901 -0.050514 117 123 123
0.068598 0.027769 -0.052114 174 169 164
0.098773 -0.039601 0.067986 30 47 41
-0.014907 -0.033916 0.044786 40 56 54
-0.122065 0.061527 -0.018114 114 123 121
-0.003727 0.005177 -0.016914 166 166 166
-0.086533 0.015626 0.047586 126 137 136
-0.138537 0.020900 0.052186 95 103 105
-0.190410 -0.026029 0.044186 76 81 77
-0.008589 0.034628 -0.068014 161 165 164
-0.080583 0.084798 -0.054214 116 125 123
-0.123475 -0.052002 0.049586 93 97 96
0.123359 0.018103 -0.033814 160 154 147
-0.044509 0.075870 -0.036314 114 123 122
-0.135293 -0.039494 0.041986 137 133 155
0.022792 0.034225 -0.065014 157 157 157
-0.131047 0.018597 0.056786 90 100 107
-0.098377 -0.070730 0.048186 104 108 107
-0.170502 -0.036244 0.043686 90 91 83
0.026767 0.054004 -0.098714 162 159 156
-0.116464 0.083183 -0.053114 112 116 115
0.114554 0.093037 -0.055514 66 69 72
-0.153098 -0.068756 0.026786 81 83 77
-0.083425 0.063961 -0.018114 117 128 127
0.110391 0.018356 -0.035114 161 156 146
0.197134 -0.124508 0.095986 108 104 97
0.033115 -0.035289 0.057686 31 45 53
-0.022784 -0.065431 0.050186 76 93 94
-0.206260 0.028967 0.035686 79 88 92
-0.069405 0.020531 0.054586 42 64 84
0.092208 0.045350 -0.081414 156 143 137
-0.131863 -0.022248 0.043686 20 19 93
0.108537 -0.028784 0.048686 128 135 139
0.031557 -0.118608 0.063686 118 118 112
-0.057322 0.081126 -0.049514 107 117 112
0.043446 0.002630 -0.010014 171 170 167
0.270903 -0.111972 0.127786 94 90 78
-0.127110 -0.034004 0.040386 16 15 96
0.045377 -0.056344 0.062786 46 59 58
0.018402 0.026475 -0.052014 144 142 142
-0.174754 0.007584 0.067986 0 5 1
0.065175 0.048626 -0.088814 146 138 131
0.324801 -0.076744 0.166286 43 45 34
0.094771 0.017859 -0.034014 170 163 158
-0.127893 0.079495 -0.045514 114 118 117
-0.007102 0.028838 -0.058214 164 168 168
-0.127210 -0.072298 0.032886 100 106 99
-0.001246 -0.019117 0.022386 125 139 156
-0.114119 0.043034 0.013186 109 118 116
0.031048 0.043275 -0.082314 159 160 152
-0.006357 0.059873 -0.107814 140 139 136
-0.170851 -0.068683 0.011086 11 26 13
-0.014649 0.044312 -0.085014 160 160 161
0.006785 0.058138 -0.104614 137 132 127
-0.100821 0.074852 -0.038414 115 124 122
-0.027188 -0.007820 0.003886 71 80 91
-0.190282 -0.054435 0.016386 36 48 43
-0.054534 -0.100113 0.048386 115 117 111
0.241165 -0.104058 0.119286 98 93 83
-0.142815 0.038468 0.019186 112 118 117
0.218735 -0.073491 0.138886 94 93 85
-0.169358 0.017064 0.054286 88 95 91
-0.076879 0.069685 -0.029114 106 117 116
-0.107765 0.044153 0.014486 116 121 124
0.004689 0.034832 -0.066414 166 170 169
0.032095 0.053056 -0.097414 157 154 151
-0.097180 -0.048772 0.062786 72 83 81
0.003046 0.041374 -0.078314 128 126 127
0.336139 -0.079507 0.154386 35 43 31
0.035505 0.053275 -0.097214 133 126 121
0.206254 -0.092050 0.113186 99 98 90
0.101370 -0.034153 0.063386 115 126 130
-0.087223 0.084652 -0.055814 120 126 126
0.278656 -0.032413 0.105886 91 96 105
0.040545 0.033082 -0.062914 164 163 160
-0.091521 0.047997 0.009886 108 118 120
-0.185745 0.011654 0.032386 4 11 7
-0.158169 0.036018 0.025786 96 105 103
-0.119739 0.029618 0.042286 95 109 112
-0.023578 0.072661 -0.089214 48 61 60
-0.119845 -0.091662 0.031586 104 110 103
0.136959 -0.068677 0.089186 78 90 105
0.169723 -0.132568 0.085286 108 105 95
0.008135 -0.090601 0.057386 115 135 153
-0.171900 -0.038181 0.042586 86 87 84
0.062018 -0.092817 0.077486 112 133 149
-0.071100 0.081614 -0.048414 107 116 115
0.023356 0.060189 -0.103114 15 18 10
-0.088901 0.007303 0.041986 135 144 143
-0.079609 -0.088311 0.044786 104 109 105
-0.138054 0.073111 -0.035914 104 109 105
-0.103510 -0.030884 0.046186 57 64 75
-0.192103 -0.003789 0.039586 19 28 37
0.069545 0.021892 -0.041614 171 171 165
0.023551 0.047544 -0.088714 167 166 163
-0.005231 0.000102 -0.010214 153 162 161
0.074040 0.004154 -0.007914 160 160 154
-0.159138 0.045112 0.009486 99 110 109
-0.036503 0.013330 -0.024014 68 81 80
-0.109198 0.054173 -0.002514 109 115 114
-0.015984 0.042670 -0.081214 150 156 156
0.134020 -0.060060 0.086786 57 72 91
-0.002640 0.023779 -0.048214 172 172 172
-0.153490 0.061429 -0.017414 62 68 67
-0.116012 0.060273 -0.015414 112 121 119
0.053119 0.013990 -0.028214 172 173 170
0.051623 -0.067150 0.064086 64 78 73
-0.093049 0.081339 -0.050514 114 119 122
-0.191189 -0.011056 0.029386 81 80 77
0.226217 -0.038564 0.159886 84 86 80
0.077170 0.004321 -0.009914 168 168 162
0.250760 -0.027218 0.161786 35 40 36
-0.012991 0.048068 -0.090714 156 162 161
0.024743 0.060645 -0.103014 15 18 10
-0.070585 0.067756 -0.023614 105 116 114
-0.170404 -0.055099 0.006186 30 51 35
-0.164352 -0.066453 0.022786 46 56 44
-0.090458 -0.046333 0.059586 64 73 71
0.039422 0.064666 -0.098814 115 112 109
0.079227 0.055174 -0.090414 105 99 92
-0.178316 -0.057304 0.007086 47 64 51
-0.137938 0.076191 -0.040514 106 112 112
0.103983 -0.010226 0.016386 4 12 14
-0.035024 0.003430 -0.012614 80 96 93
-0.123730 -0.073480 0.037486 104 106 100
0.310608 -0.087616 0.149086 61 56 51
0.104758 0.018354 -0.034814 154 146 139
-0.144203 -0.002495 0.053386 72 76 76
0.248029 -0.004144 0.114586 73 74 66
-0.024250 0.071955 -0.086914 56 66 68
0.078209 0.045107 -0.081714 162 156 149
0.052460 -0.011184 0.011986 71 84 83
0.255223 -0.038512 0.131986 12 19 35
0.288585 -0.020990 0.134086 2 6 5
0.000956 0.061670 -0.107814 121 121 115
-0.075355 0.069353 -0.026914 108 118 120
0.008547 0.024582 -0.050514 168 168 168
-0.096641 -0.036596 0.058286 95 114 123
0.190382 -0.085694 0.118386 100 102 91
-0.061345 -0.106835 0.042786 114 116 110
0.006503 0.048852 -0.091714 142 142 136
-0.164624 0.026619 0.040086 94 103 102
0.028243 0.032197 -0.061814 175 174 171
0.016449 0.050574 -0.094414 142 142 136
0.071351 0.048307 -0.087714 142 134 127
0.029164 0.013238 -0.028514 166 167 164
-0.053325 0.066350 -0.020214 110 121 120
-0.187433 -0.016324 0.048386 79 81 75
0.043094 -0.057723 0.063386 41 54 52
-0.041337 0.083738 -0.049114 116 122 122
-0.099498 0.042377 0.018786 105 112 116
0.113059 0.037883 -0.068014 157 147 145
-0.096881 0.049007 0.004186 108 117 115
0.135837 -0.108931 0.089586 108 107 99
-0.066722 0.069415 -0.026714 112 123 122
0.194783 -0.071003 0.113186 100 99 91
-0.011785 -0.008537 0.006786 75 87 89
0.060619 0.044649 -0.082214 151 145 138
0.082713 0.042811 -0.077314 147 140 135
-0.059631 -0.053316 0.053986 106 128 146
-0.137732 0.073757 -0.036814 106 111 107
-0.157419 -0.053558 0.039086 86 88 82
0.153436 -0.103892 0.087186 107 106 98
0.022513 0.064483 -0.103214 106 105 97
0.079395 -0.007976 0.011786 82 95 87
-0.054253 0.043893 0.020486 108 119 123
-0.000168 0.058506 -0.105814 114 113 105
-0.020795 -0.044450 0.040086 62 80 77
-0.112108 0.005254 0.065986 9 16 75
0.305850 -0.106611 0.139986 73 72 64
0.080900 0.038187 -0.069714 165 160 150
0.035338 0.020495 -0.041414 171 171 171
-0.096413 0.078112 -0.046114 112 121 120
0.047423 0.058433 -0.097714 121 111 109
-0.133702 -0.043220 0.044986 39 36 97
-0.141964 -0.070523 0.034586 97 99 93
-0.100754 0.036189 0.027986 103 113 115
-0.016496 0.044264 -0.082414 78 91 89
-0.140846 0.035678 0.025786 101 111 106
0.099593 0.001650 -0.005714 167 162 157
-0.084739 0.075166 -0.036914 126 132 131
0.038113 0.042651 -0.080514 148 143 138
-0.011163 -0.087018 0.052786 112 134 152
-0.090159 -0.076427 0.049286 105 109 108
-0.168557 0.008351 0.069086 6 10 9
0.121491 0.091086 -0.053214 71 75 80
0.010964 0.039635 -0.076314 159 159 159
0.136455 -0.108907 0.082986 107 106 98
0.030441 0.009812 -0.021814 168 168 168
-0.193864 -0.006722 0.057086 74 80 73
0.003086 0.004326 -0.016514 158 158 158
-0.112333 0.025824 0.050786 94 103 112
0.115665 0.032258 -0.057114 160 153 143
0.003211 0.049671 -0.093014 148 147 144
-0.051721 -0.094154 0.049286 111 117 116
-0.178470 0.018208 0.056786 75 81 80
0.037720 0.045474 -0.084314 145 145 139
-0.021645 0.064835 -0.092414 64 75 74
0.100908 -0.081541 0.077786 81 100 107
-0.008506 0.060855 -0.109614 119 119 119
-0.100307 0.077033 -0.043714 114 120 119
-0.126039 -0.043832 0.045886 47 42 101
-0.002774 -0.105268 0.057086 116 117 114
-0.024738 -0.060936 0.046986 69 85 83
-0.120673 -0.077850 0.038486 105 107 101
0.001474 -0.107317 0.054286 116 118 112
-0.191624 -0.010432 0.029886 81 80 77
0.024725 0.056991 -0.101714 143 140 137
-0.005715 0.059873 -0.107814 139 139 133
0.048773 0.012620 -0.025814 160 161 158
0.257210 -0.036674 0.148486 0 9 16
-0.012669 0.020690 -0.045214 152 153 150
-0.141529 0.042164 0.013986 111 117 116
0.029456 0.056152 -0.100414 147 145 139
-0.070737 -0.086121 0.049886 99 105 104
0.172198 -0.037544 0.096486 90 89 86
0.061102 0.027535 -0.052414 159 159 153
0.068587 -0.012709 0.013586 127 141 151
-0.156345 0.063144 -0.020214 98 104 103
0.066175 -0.085886 0.070786 113 134 150
0.041015 0.002413 -0.010714 152 151 148
-0.071535 -0.099143 0.044986 112 113 110
-0.130726 -0.071969 0.039086 100 102 96
-0.017693 -0.011683 0.007086 125 136 154
-0.155866 0.063920 -0.021314 106 110 109
-0.059070 0.064688 -0.017414 106 118 120
-0.102722 0.039670 0.021386 107 117 119
0.056903 0.052932 -0.094514 134 128 121
-0.125425 0.039404 0.022086 107 116 115
-0.024919 0.025668 -0.050714 78 94 91
0.014825 0.060505 -0.104414 126 124 118
0.053956 0.051812 -0.093414 152 145 140
0.002399 0.020946 -0.042814 171 171 172
0.077335 0.033738 -0.062414 180 174 167
-0.027723 -0.048397 0.043686 59 77 75
0.043617 -0.118025 0.064086 116 116 110
0.073964 -0.057447 0.061186 60 75 67
0.131909 0.004244 -0.005514 161 155 148
0.017262 -0.093156 0.059586 115 140 157
-0.098888 0.075949 -0.039914 120 124 123
-0.005301 0.035816 -0.069114 151 151 151
0.107574 0.042314 -0.073614 145 138 128
-0.110731 0.088839 -0.062014 116 120 119
0.261260 -0.079201 0.138886 82 83 75
0.322210 -0.083319 0.158086 40 42 36
-0.014171 0.044998 -0.086214 154 158 158
0.074089 0.062551 -0.091014 102 97 87
0.021850 0.028252 -0.054614 173 173 174
0.139689 -0.055413 0.082586 73 94 117
-0.176041 0.006329 0.068686 7 14 10
0.000266 -0.006015 0.004086 78 94 92
0.230557 -0.041376 0.150886 81 81 75
0.122623 0.029184 -0.050514 161 155 148
-0.061632 -0.106540 0.036986 110 112 106
-0.125825 -0.025405 0.044786 25 17 92
-0.140862 0.059880 -0.015914 112 118 117
-0.012236 -0.098807 0.059886 109 115 114
-0.101626 -0.055607 0.055186 90 94 93
-0.090968 -0.023991 0.028386 155 161 154
0.361224 -0.073278 0.181686 46 47 39
0.022093 -0.107932 0.060786 114 114 114
-0.098952 0.071149 -0.033814 113 124 122
-0.083102 -0.030099 0.049586 101 120 134
-0.150502 0.054960 -0.007514 105 109 108
-0.059769 -0.094475 0.045286 112 116 115
-0.191256 -0.031355 0.016386 10 23 10
0.025943 0.025481 -0.050014 171 171 171
-0.004530 0.043567 -0.082514 164 165 162
-0.177035 0.050784 0.001986 96 102 101
-0.005630 0.025161 -0.052314 171 175 174
-0.040922 -0.043185 0.059586 95 116 132
0.001571 0.010241 -0.024814 170 174 173
-0.101270 0.059703 -0.014314 115 124 123
0.268257 -0.105961 0.125286 89 86 76
-0.118813 0.054985 -0.005914 108 117 115
-0.075118 0.044872 0.017686 106 116 118
0.062102 0.047629 -0.088414 152 145 140
-0.000557 -0.022442 0.027486 115 129 146
-0.154739 0.053637 -0.006914 104 108 107
0.024523 0.035335 -0.067014 170 168 168
-0.036931 0.074516 -0.036714 112 124 126
-0.045901 0.064281 -0.013714 112 123 127
-0.192307 0.012364 0.057086 4 5 2
0.062267 0.070044 -0.090614 109 107 101
-0.057349 -0.093719 0.047586 111 116 112
0.087205 0.046026 -0.082114 152 144 137
-0.016542 0.012209 -0.028214 155 159 158
0.031660 0.000715 -0.007914 171 175 174
0.070855 0.058434 -0.091614 99 96 86
0.036157 0.026217 -0.052814 169 167 167
-0.138764 -0.006370 0.046686 21 18 91
0.053480 0.021408 -0.042814 166 165 162
-0.165093 -0.084785 0.019886 73 75 69
-0.071036 0.068643 -0.025014 107 118 117
-0.028504 -0.037477 0.047286 62 78 76
-0.085538 0.008729 0.042786 131 140 139
0.025374 0.053373 -0.098114 162 162 156
-0.008153 0.039973 -0.078314 140 140 140
0.063010 0.025517 -0.049214 173 173 167
0.084325 0.079281 -0.077514 62 69 65
-0.057595 0.071138 -0.029314 108 119 118
-0.191318 -0.023331 0.026786 23 35 43
-0.007752 0.049708 -0.092414 45 41 41
-0.022246 0.020920 -0.045014 137 137 137
0.109267 0.040931 -0.072214 167 155 151
0.053625 0.062188 -0.095514 109 104 99
-0.002944 0.038916 -0.075314 163 167 166
-0.007818 -0.082428 0.056486 114 136 154
0.028692 0.064257 -0.101814 114 109 104
0.233380 -0.064491 0.136186 88 87 79
0.062864 0.049404 -0.090414 150 144 137
0.022265 0.037158 -0.071514 163 161 161
-0.058552 0.053878 0.005786 106 118 120
0.070186 0.036244 -0.067414 159 153 146
-0.128977 0.054071 -0.004614 103 112 110
0.054703 -0.005136 0.004386 76 90 85
0.047074 0.025485 -0.049914 171 172 169
0.008710 0.052111 -0.096814 145 145 139
-0.184386 0.014596 0.062786 57 64 60
-0.019587 0.066569 -0.095914 53 66 65
-0.035365 0.085748 -0.050914 110 119 123
0.035426 0.032450 -0.061314 173 172 169
0.087030 0.024794 -0.045014 168 162 160
-0.125521 0.031127 0.036186 108 117 116
0.015281 0.065770 -0.104814 102 99 96
0.063203 0.034766 -0.063814 177 176 168
0.030302 0.047189 -0.089414 144 142 143
-0.056670 -0.099487 0.047886 114 115 112
0.060530 0.050416 -0.092114 145 142 132
0.050244 0.068430 -0.096014 116 112 105
-0.062603 -0.090609 0.043386 108 113 109
0.107318 0.041903 -0.072914 139 127 118
0.280840 -0.118178 0.129386 88 86 74
-0.061292 -0.072309 0.048386 120 135 149
-0.103295 0.083115 -0.054614 113 119 118
-0.193210 -0.040080 0.013986 41 46 42
-0.051736 0.080716 -0.045314 108 117 116
0.025695 0.061053 -0.103014 10 16 9
-0.095410 0.069590 -0.029414 115 126 124
0.101911 -0.018585 0.026986 127 135 142
0.046778 -0.055647 0.061786 56 67 65
-0.060939 -0.079239 0.046986 123 138 152
0.075033 0.049269 -0.087714 146 139 129
0.055972 -0.017814 0.022586 126 138 148
-0.147866 -0.049414 0.043386 87 91 90
0.008619 0.012885 -0.032314 149 149 149
0.087701 -0.049474 0.065386 53 70 64
-0.014688 0.022226 -0.047914 147 145 145
0.021725 0.058104 -0.102614 128 123 118
-0.068749 -0.059414 0.063686 77 85 87
-0.191430 -0.054397 0.014486 16 33 34
-0.116663 0.059048 -0.012314 111 117 117
0.034035 -0.030560 0.048186 122 134 142
-0.147032 -0.054324 0.041486 94 96 90
0.092006 -0.031519 0.054586 124 137 143
0.084988 0.044215 -0.078914 152 145 135
-0.002139 0.058064 -0.105914 130 130 124
0.052519 0.043680 -0.080514 146 142 135
0.097219 -0.093610 0.080386 110 127 141
0.055571 -0.036660 0.062086 75 89 99
-0.171167 -0.030116 0.042586 87 88 85
0.035890 -0.059323 0.065986 32 46 41
0.344168 -0.078833 0.163686 33 39 32
-0.045943 0.088069 -0.058914 103 114 113
-0.161567 0.021995 0.047886 87 96 94
-0.064559 0.076779 -0.040814 110 118 120
-0.013673 0.057925 -0.103314 64 81 75
-0.012031 0.039854 -0.078014 171 175 174
0.035700 -0.086227 0.064686 115 135 147
0.148157 -0.065971 0.079286 90 104 121
-0.083864 0.083936 -0.055114 115 124 123
0.116213 0.033738 -0.058814 167 159 152
-0.053794 0.061719 -0.015114 109 119 121
-0.165762 -0.091060 0.016186 55 57 46
-0.023423 -0.024356 0.026786 91 106 120
-0.044604 -0.007608 0.006786 127 139 147
-0.044286 0.081138 -0.045914 112 121 120
-0.163604 -0.067328 0.025786 51 58 49
0.073372 0.043233 -0.077814 174 167 157
0.341353 -0.088699 0.163086 31 39 27
0.196959 -0.124458 0.097686 108 104 97
0.069766 0.034908 -0.065814 144 143 135
-0.031648 -0.042638 0.045586 52 70 68
0.086889 0.051225 -0.088614 133 123 114
0.070393 0.036394 -0.067714 157 151 144
0.061845 0.036969 -0.069014 166 164 158
0.093421 -0.100793 0.079286 104 120 132
-0.068936 -0.069044 0.057086 98 102 101
0.031557 -0.119008 0.063686 117 117 111
-0.169205 0.005028 0.070086 5 11 4
0.065228 0.045920 -0.084514 154 146 139
-0.025826 -0.110076 0.046686 115 119 118
-0.010302 0.015675 -0.035014 172 172 172
0.256780 -0.039353 0.128286 18 31 44
0.032545 0.062811 -0.101114 112 110 104
0.020627 0.051323 -0.095714 119 117 117
0.025050 0.021640 -0.042814 162 163 160
0.091696 0.007709 -0.014014 161 159 153
-0.076770 0.068234 -0.025514 110 122 124
0.068105 0.036969 -0.069014 159 156 146
0.009218 0.015416 -0.034414 162 162 162
-0.044238 -0.072772 0.049586 110 135 154
-0.018776 0.055402 -0.093914 56 69 67
-0.071681 0.043413 0.022086 108 119 123
-0.050424 0.067462 -0.021914 111 124 123
0.108849 -0.004175 0.006586 159 154 149
0.156905 -0.035368 0.083386 130 131 128
-0.121738 0.075721 -0.040514 104 110 109
-0.084612 -0.087557 0.046386 105 110 106
0.015041 -0.089112 0.055786 111 136 153
0.075234 0.075682 -0.082314 56 63 59
0.209185 -0.107393 0.109886 106 102 95
0.071113 0.045489 -0.082914 145 140 130
-0.062388 -0.096856 0.041186 110 112 106
-0.083173 -0.034152 0.054286 91 106 120
0.111570 0.024628 -0.043314 168 161 151
-0.073665 -0.049470 0.068386 60 71 75
-0.169008 -0.094204 0.016586 48 56 49
-0.015138 -0.085884 0.055486 112 137 154
-0.062357 0.037435 0.030586 108 120 122
-0.187733 -0.043557 0.033086 48 59 51
-0.021300 0.050023 -0.084614 64 77 75
-0.114999 0.082781 -0.050714 115 119 118
-0.061734 -0.083972 0.040086 95 99 99
-0.124475 0.063787 -0.021814 111 117 116
0.049268 -0.084914 0.068386 113 133 151
-0.090418 0.006616 0.041186 133 142 141
-0.066832 0.041913 0.023686 106 120 123
-0.125445 -0.042791 0.047586 42 37 110
-0.100886 -0.086132 0.038486 108 110 104
0.017941 0.053185 -0.098614 147 146 143
-0.120127 -0.026141 0.046686 30 32 105
0.028472 0.025897 -0.050514 169 169 170
-0.162258 -0.056680 0.031386 80 86 79
0.106296 0.035213 -0.063414 165 159 152
-0.155279 0.049637 0.000486 101 110 108
-0.118505 -0.004414 0.057386 39 43 103
0.142469 -0.080786 0.083786 69 86 105
-0.182153 -0.011319 0.053386 68 75 66
0.241608 -0.149856 0.117386 102 98 91
0.026439 -0.118990 0.064386 118 118 112
0.066852 0.038966 -0.071814 147 142 132
0.060838 0.049092 -0.090414 147 142 132
-0.023026 -0.104026 0.048686 117 118 115
0.064783 0.015589 -0.031314 169 169 163
-0.115496 0.066386 -0.027414 110 120 115
-0.191947 -0.023169 0.033086 15 24 28
-0.007253 0.020929 -0.044214 174 174 174
-0.089139 -0.078814 0.049586 105 110 106
0.201493 -0.122189 0.097686 104 103 95
0.059894 0.043442 -0.080814 153 150 140
-0.104753 0.034114 0.032886 102 111 115
0.315334 -0.105394 0.142286 65 66 51
-0.042255 0.086417 -0.054814 105 113 115
0.053413 0.043235 -0.079414 148 146 140
0.070967 0.027383 -0.051314 175 173 167
-0.117469 0.051181 0.004386 109 118 117
0.290143 -0.118713 0.132986 85 82 72
0.045372 0.039576 -0.073614 164 164 158
0.155049 -0.106982 0.102386 105 106 98
0.052105 -0.015275 0.015486 128 141 154
-0.080248 -0.088173 0.044486 108 113 109
-0.192173 -0.056029 0.018086 48 54 53
-0.002268 0.048725 -0.091114 155 154 151
0.019452 0.056962 -0.102414 127 125 119
0.067667 0.070703 -0.088414 67 61 59
0.090488 -0.037314 0.068686 81 95 105
0.067951 -0.056393 0.053986 63 77 72
-0.074449 0.088267 -0.061214 120 126 125
0.129784 -0.066220 0.113186 57 66 64
-0.119743 0.085078 -0.054514 114 120 113
0.058389 0.006070 -0.014314 167 167 161
0.047910 0.058620 -0.097614 117 110 105
0.060866 0.022081 -0.043914 167 166 163
0.057822 0.051929 -0.093514 136 131 121
-0.138629 -0.048261 0.048386 86 90 90
-0.094860 0.066422 -0.024614 118 127 125
0.074970 -0.059210 0.056786 64 77 75
-0.148653 -0.017992 0.051886 73 78 74
0.158587 -0.111482 0.093186 109 110 102
0.114225 -0.066483 0.086386 88 92 91
0.019705 -0.046887 0.051586 66 82 79
0.027014 -0.094025 0.062386 118 140 158
-0.099827 0.042377 0.018786 104 111 115
-0.007398 -0.082662 0.055186 112 134 154
0.147586 -0.088117 0.095186 100 103 95
-0.120819 0.082505 -0.051314 109 113 112
-0.086976 -0.017612 0.031386 111 126 132
-0.012076 -0.056647 0.047586 69 82 80
-0.146639 -0.090194 0.021386 93 93 87
-0.017719 0.010340 -0.026614 163 167 166
-0.005472 0.051471 -0.095714 153 151 145
-0.006240 0.051233 -0.095114 154 155 152
-0.060767 0.074126 -0.031614 110 118 120
0.206444 -0.056513 0.135086 92 91 83
0.048739 0.049744 -0.091814 137 131 124
-0.004949 -0.042849 0.046386 62 79 73
0.068883 0.064550 -0.090714 102 96 94
-0.084741 0.056474 -0.005714 107 117 119
-0.217012 0.028740 0.038786 49 61 71
-0.142638 0.012261 0.060786 55 63 83
-0.135625 -0.006555 0.048386 15 18 94
0.004076 0.048570 -0.091114 143 144 141
-0.177165 -0.037740 0.042286 88 90 84
-0.068252 0.083729 -0.052414 110 116 115
0.082133 -0.001446 -0.001314 166 164 158
0.026050 0.037762 -0.071214 162 163 160
0.057792 -0.000747 -0.005014 154 155 152
-0.106543 0.087705 -0.055614 119 119 119
-0.136968 0.077286 -0.041314 108 112 111
0.030686 0.053090 -0.097714 145 140 135
0.003914 0.018143 -0.039214 160 161 158
0.016296 0.040300 -0.077514 154 154 154
-0.043826 0.065472 -0.016514 113 125 127
-0.080762 0.038478 0.030586 105 117 119
0.063638 0.031952 -0.060214 176 176 165
0.007594 0.047235 -0.088114 140 141 138
-0.015557 0.058924 -0.101714 55 72 66
-0.170354 -0.002261 0.050786 73 79 72
0.298698 -0.053704 0.153186 53 54 46
0.026623 -0.039799 0.052186 58 74 71
0.034358 0.035528 -0.067014 169 167 167
0.054010 0.037073 -0.068314 168 166 160
0.090861 0.052088 -0.087914 135 130 125
0.055535 -0.044215 0.063686 45 61 59
0.054139 0.029139 -0.054114 154 152 146
0.011624 -0.004905 0.004986 83 96 95
0.034164 0.050149 -0.093414 127 125 119
-0.041158 -0.080170 0.044786 113 138 155
-0.067360 0.086258 -0.057214 110 116 115
0.039597 0.025705 -0.049914 164 164 164
0.054810 0.007349 -0.016814 172 174 168
-0.077135 0.067144 -0.023014 107 117 119
-0.068677 0.046932 0.015986 106 118 120
-0.070083 -0.100128 0.042586 114 116 110
0.096249 -0.013499 0.018586 84 88 93
0.201153 -0.109055 0.099786 107 103 96
-0.138882 0.072312 -0.034714 105 112 108
-0.001066 0.054129 -0.100214 148 148 142
-0.132760 -0.068392 0.036386 103 103 97
0.047028 0.058923 -0.097914 113 106 101
0.006709 0.055165 -0.101114 134 134 128
-0.038042 0.089553 -0.059214 109 116 120
0.006662 0.042627 -0.081414 149 150 147
0.227820 -0.115500 0.105886 98 97 89
0.245325 -0.083196 0.138386 91 90 82
-0.193447 0.015158 0.032386 4 10 9
0.021160 0.043011 -0.081214 151 149 149
0.056541 0.055859 -0.095814 120 116 109
0.057569 -0.083972 0.069086 111 128 147
-0.112202 -0.070437 0.042586 101 107 100
-0.028971 0.027741 -0.049014 71 87 85
0.114476 -0.095525 0.081886 96 100 105
0.027220 0.010776 -0.025114 167 167 167
-0.198665 0.027270 0.037986 83 89 88
-0.127754 -0.071679 0.031386 99 104 100
-0.107422 0.075392 -0.039514 111 120 119
-0.026168 -0.089335 0.053686 114 136 154
0.219845 -0.051098 0.148486 90 91 83
-0.119363 0.080186 -0.048114 110 116 116
0.002159 -0.034051 0.048686 28 44 42
-0.191509 -0.051335 0.012186 38 50 45
0.274293 -0.008551 0.115486 21 27 20
0.032119 -0.088413 0.067986 148 157 161
-0.088491 0.072335 -0.033214 123 132 130
0.054418 0.071949 -0.093914 71 65 63
0.010724 0.058235 -0.104114 133 131 125
-0.026977 -0.083354 0.050486 113 135 153
0.045813 0.038442 -0.071614 161 161 155
0.127178 -0.083745 0.107186 97 97 98
-0.148376 -0.068712 0.033586 96 97 89
-0.000714 0.048215 -0.090214 154 155 152
0.048919 -0.116443 0.068686 112 113 110
-0.149062 -0.074785 0.028886 93 96 88
-0.157202 -0.044712 0.046386 91 97 90
0.004779 0.008257 -0.022314 146 146 146
-0.105577 0.071394 -0.033814 118 124 123
-0.004518 0.061222 -0.108914 135 133 127
0.033116 0.020944 -0.042914 171 171 171
0.022691 -0.008043 0.007686 84 100 98
-0.127267 0.068704 -0.029014 106 112 111
-0.125384 -0.042949 0.048186 43 38 111
-0.009617 0.053949 -0.100314 119 120 117
-0.081797 0.051346 0.005386 105 116 115
0.008820 0.048574 -0.091614 125 125 119
-0.195548 -0.006567 0.032386 23 32 36
-0.122787 -0.095508 0.025086 104 107 99
0.350558 -0.110994 0.170786 41 42 39
0.037706 -0.087030 0.064686 113 134 150
0.268376 0.021626 0.093186 30 34 33
0.045752 0.032547 -0.062314 168 167 164
0.022775 0.051186 -0.094814 147 144 141
0.044111 -0.107610 0.071486 117 118 115
-0.165105 -0.037549 0.047586 89 90 82
-0.085710 -0.104422 0.036386 110 112 106
-0.003689 0.043904 -0.082514 157 158 155
0.272279 -0.100035 0.129386 85 84 76
-0.005014 0.055841 -0.103114 137 138 135
-0.131163 0.078426 -0.043114 101 104 107
-0.027591 0.022071 -0.044414 76 92 90
-0.006100 0.038981 -0.072814 168 172 171
0.226654 -0.068233 0.140586 93 89 82
-0.036368 0.002913 -0.010014 78 94 92
-0.099326 0.067242 -0.027114 117 126 124
-0.134084 0.054676 -0.006014 106 112 111
0.121896 -0.109426 0.084086 112 111 103
0.008804 0.063862 -0.106614 126 124 118
0.135904 0.022422 -0.038614 162 150 146
0.027712 0.028225 -0.055014 167 167 167
-0.067430 0.088928 -0.061114 111 117 117
-0.140515 -0.017045 0.043386 19 20 82
0.112681 0.038171 -0.068614 159 150 145
-0.147399 0.023093 0.046186 90 99 98
-0.124501 -0.047683 0.053086 85 88 96
-0.126510 -0.077082 0.036686 101 103 97
0.000441 0.061490 -0.107914 124 124 118
-0.127177 0.059333 -0.015914 108 117 115
0.079831 0.043520 -0.078114 158 151 146
-0.140828 -0.086342 0.023686 100 103 95
-0.149658 0.064463 -0.023214 110 116 115
-0.196410 -0.005380 0.051586 74 79 75
-0.008826 0.053902 -0.099714 145 146 143
-0.212915 -0.006747 0.043386 68 69 66
-0.003572 -0.098915 0.059286 115 119 118
0.062970 0.063429 -0.092814 99 92 87
-0.156092 -0.011388 0.060186 83 85 79
-0.102508 -0.074199 0.045586 104 110 103
-0.040331 -0.076390 0.051086 114 136 154
0.019481 -0.012094 0.009686 69 81 89
0.063199 -0.083261 0.070386 109 129 147
-0.127777 -0.083647 0.033886 105 107 101
0.096156 0.063778 -0.084114 110 104 97
0.070781 0.048015 -0.087614 145 139 132
-0.015963 0.034730 -0.068714 155 160 156
0.120969 -0.127677 0.081086 107 108 100
-0.159446 -0.094811 0.017686 79 86 77
0.031746 -0.066467 0.062086 58 71 69
-0.140675 0.042288 0.015086 109 115 114
-0.219692 0.027344 0.040086 11 36 60
0.174552 -0.101807 0.111286 104 105 97
0.206570 -0.109716 0.110886 101 98 88
-0.161672 -0.068428 0.017186 13 31 16
-0.073235 -0.013098 0.036386 143 153 148
-0.200949 -0.011294 0.050186 76 80 79
-0.184117 0.023420 0.043686 14 12 12
-0.191904 -0.036690 0.015686 63 71 64
0.122416 -0.085418 0.095186 100 98 99
-0.075276 -0.031417 0.048686 97 116 130
0.094033 0.013420 -0.026514 157 152 147
0.058742 0.002422 -0.010814 137 135 136
0.058725 0.069424 -0.091814 104 99 94
0.009795 0.037040 -0.069814 167 167 167
-0.194061 -0.048088 0.014886 13 23 25
0.056445 0.053497 -0.095014 139 133 126
0.055299 -0.105692 0.071786 118 117 114
0.049956 0.057154 -0.097314 118 113 108
0.077899 -0.018375 0.025786 128 137 146
-0.136027 -0.017124 0.043886 18 21 97
0.045131 -0.015462 0.014686 127 140 153
-0.102591 -0.095796 0.039086 107 109 103
-0.185275 -0.035385 0.040086 74 75 72
-0.152677 0.047896 0.002886 101 110 109
0.174972 -0.080119 0.110386 100 100 94
-0.093110 -0.000365 0.033586 137 141 140
0.101836 0.045122 -0.078014 155 144 138
-0.115486 0.085644 -0.055514 119 125 118
0.009523 0.056700 -0.103014 127 126 118
-0.183294 0.030927 0.032386 88 97 95
0.279930 -0.096848 0.138886 81 80 72
0.279592 -0.104058 0.131986 84 83 75
0.138347 -0.094265 0.104086 103 103 97
-0.090386 -0.044991 0.060486 65 76 74
-0.090049 -0.053839 0.046986 8 18 13
-0.092631 0.088267 -0.061214 127 131 130
-0.107804 0.021693 0.055186 89 102 108
-0.061554 0.069601 -0.026114 112 122 124
0.063309 0.027858 -0.054114 166 161 156
-0.073370 0.070432 -0.030714 111 120 118
0.110560 -0.094593 0.079686 113 128 142
-0.156004 0.042074 0.013186 103 109 108
0.027250 0.015668 -0.034714 148 146 146
0.089313 0.046405 -0.082614 152 141 135
0.058641 0.014815 -0.030414 171 172 169
0.093382 -0.027064 0.041986 124 134 141
-0.114007 0.086027 -0.056014 119 124 120
0.016586 0.035116 -0.067214 149 147 147
0.326531 -0.072323 0.168786 41 47 40
-0.087673 -0.099236 0.031386 109 111 105
0.076019 0.020048 -0.037614 166 164 158
0.079329 0.067367 -0.089714 120 111 106
0.093237 0.017606 -0.033314 159 154 149
0.062294 -0.118729 0.068386 112 112 106
-0.178793 -0.028319 0.046386 87 88 85
0.087732 0.056988 -0.088914 99 92 82
-0.092826 0.049796 0.007286 113 124 123
-0.096194 0.051422 0.002186 112 121 119
-0.144316 -0.083454 0.025386 91 97 90
-0.150047 0.031949 0.031886 95 106 104
0.022754 -0.037511 0.055486 29 46 47
0.236142 -0.095403 0.122286 99 96 86
-0.085874 0.042033 0.021686 100 109 113
-0.133535 -0.075618 0.034086 95 101 94
-0.041912 0.071756 -0.027414 116 127 126
0.017489 0.017900 -0.038614 159 163 162
0.002307 0.051890 -0.096614 151 150 147
-0.052302 0.085667 -0.054614 111 120 119
0.056532 0.062223 -0.095114 96 92 85
0.012863 -0.069866 0.058286 89 109 121
0.128391 -0.104078 0.091586 105 106 98
0.057863 0.050528 -0.092714 144 139 129
-0.009971 0.045725 -0.085914 157 155 155
0.090735 0.011086 -0.020814 158 157 149
-0.035306 -0.003169 -0.001814 78 93 94
0.066343 0.043733 -0.079514 150 142 135
-0.176681 -0.020329 0.052186 84 87 79
0.052381 -0.052408 0.060186 60 73 71
0.117293 0.007169 -0.014214 161 156 151
-0.000031 0.027632 -0.054314 166 170 169
-0.003106 -0.060109 0.048986 66 84 81
-0.190214 0.001231 0.054886 80 81 78
-0.139089 -0.005376 0.047886 21 20 87
-0.104633 0.054887 -0.006414 112 122 117
0.250122 -0.010829 0.129386 29 34 37
-0.198223 0.024939 0.045586 3 4 1
-0.109176 0.041873 0.017186 114 122 124
0.082595 0.061464 -0.088814 113 108 103
-0.180781 0.049142 0.003086 103 109 109
0.123624 -0.130607 0.084086 107 108 100
0.053740 0.046457 -0.085614 161 155 148
-0.005716 0.053581 -0.099814 146 146 140
-0.136624 0.069023 -0.029614 109 114 110
-0.118762 0.064556 -0.025714 110 116 115
0.111340 -0.115597 0.082586 111 111 105
-0.090441 0.057996 -0.009414 116 127 126
0.088543 0.034940 -0.062414 175 166 161
-0.022999 -0.062915 0.048386 74 92 89
0.105971 0.016042 -0.029014 159 153 146
-0.070415 0.089075 -0.062314 111 117 117
-0.012550 0.057654 -0.103614 73 87 82
-0.030514 0.023470 -0.043514 70 86 84
-0.113382 -0.034495 0.048986 15 19 91
0.248711 0.005300 0.089186 26 28 17
-0.010841 0.044403 -0.085314 146 144 144
-0.184470 -0.026573 0.046986 77 78 75
0.067264 -0.037058 0.065686 61 70 69
-0.002491 0.033015 -0.065314 164 164 164
0.049621 -0.043114 0.064086 51 67 64
-0.128624 -0.087689 0.029886 103 105 99
0.016794 0.035129 -0.067114 153 151 151
-0.091068 0.048479 0.008886 109 119 121
0.005427 0.061046 -0.106514 128 125 122
-0.002851 0.043297 -0.082214 154 154 154
-0.187237 -0.041501 0.035886 56 63 54
-0.105304 0.075251 -0.040514 117 123 122
-0.167965 0.043553 0.012186 106 110 109
-0.019711 0.006953 -0.022514 156 160 159
-0.196165 -0.019053 0.046686 71 73 67
0.096128 0.030955 -0.055314 174 166 159
0.098513 -0.106314 0.079286 111 112 109
0.010424 -0.074984 0.064686 104 127 143
-0.105329 0.080904 -0.049014 120 126 125
-0.133026 -0.008299 0.050486 17 17 95
-0.002088 0.050955 -0.094614 151 150 147
-0.056759 -0.081206 0.049886 117 137 155
0.117695 0.016280 -0.028214 162 156 149
-0.187514 -0.055407 0.015486 20 30 25
-0.138902 0.055366 -0.006914 104 110 110
-0.096390 0.076197 -0.042314 121 127 126
-0.141229 0.038102 0.018786 110 116 115
-0.065040 -0.064488 0.058586 82 91 90
0.029238 -0.116322 0.067686 114 114 108
0.033741 0.024651 -0.048714 163 167 166
0.067523 -0.080895 0.072786 106 128 146
0.018665 -0.114318 0.062386 115 116 113
0.099180 -0.036347 0.067986 101 114 120
0.303376 -0.153347 0.136786 91 91 80
-0.061564 0.073498 -0.033414 112 121 120
-0.094169 0.076382 -0.043614 117 123 122
-0.013153 -0.061207 0.046686 73 89 86
0.118924 0.092411 -0.055114 68 72 72
-0.115408 -0.053798 0.049286 98 102 102
-0.050515 0.043846 0.020086 104 115 119
0.024519 0.043137 -0.081414 152 151 148
0.112425 -0.095186 0.081086 111 118 134
-0.048428 -0.097612 0.047886 115 120 116
-0.044784 0.066617 -0.020214 112 125 124
-0.170274 -0.061214 0.031386 55 61 54
0.265131 -0.000672 0.105886 33 33 27
-0.191191 0.012064 0.030586 4 12 5
0.016994 0.000491 -0.008514 162 167 163
0.037049 0.043486 -0.080614 148 146 146
-0.081958 0.065172 -0.020614 112 123 122
-0.151844 -0.078012 0.021686 83 88 84
0.298605 -0.080022 0.158086 73 71 65
0.099941 0.036565 -0.065114 161 150 144
0.305019 -0.044972 0.126286 34 39 26
-0.181459 -0.005614 0.057686 74 80 73
-0.020239 0.060130 -0.094114 58 73 74
-0.160879 0.051707 -0.003114 103 109 108
0.232374 -0.050960 0.142786 90 89 81
-0.101517 0.048864 0.007286 114 123 121
0.018665 -0.113124 0.062386 118 120 114
0.118133 0.030999 -0.054814 160 154 147
0.257280 -0.071501 0.141086 84 84 78
0.031470 0.033436 -0.063314 151 149 149
0.017020 0.052441 -0.097514 149 148 145
-0.183824 -0.082617 0.011086 22 36 21
0.101162 -0.008193 0.013386 82 93 85
0.024039 0.022524 -0.044614 162 163 160
0.210376 -0.104262 0.114986 100 100 89
-0.028345 0.026422 -0.048814 71 87 84
-0.176512 0.044952 0.010686 99 105 104
0.007823 0.024979 -0.051514 164 164 164
0.050268 0.015074 -0.030714 163 162 159
0.206823 -0.054961 0.137286 90 91 83
-0.016243 0.038557 -0.075314 153 159 159
0.109032 -0.038253 0.071086 55 69 72
-0.191425 -0.019970 0.032886 46 55 54
0.326876 -0.080508 0.163686 40 41 38
-0.086782 -0.019965 0.030886 104 122 139
-0.055288 0.049754 0.013186 108 120 122
0.065908 0.032652 -0.061314 167 164 154
-0.203962 -0.003218 0.037486 68 69 66
-0.099988 -0.085330 0.042286 104 110 103
0.035758 0.067516 -0.098014 75 67 65
0.092009 0.039799 -0.070214 140 132 125
0.342942 -0.063261 0.168786 42 44 33
-0.000553 0.057601 -0.104914 127 127 121
0.074252 0.003477 -0.006714 159 159 153
0.046124 0.060021 -0.097714 97 89 87
-0.122954 0.001402 0.063386 13 16 92
0.070133 0.029293 -0.054914 167 162 157
-0.090762 0.012997 0.047886 130 139 137
0.007540 0.047544 -0.088714 140 139 136
0.080114 0.036614 -0.067514 167 161 154
0.101039 0.035533 -0.064014 150 144 137
-0.006832 0.032129 -0.064414 167 167 167
0.023979 0.051609 -0.095314 148 147 144
0.024051 0.064190 -0.103514 108 106 100
-0.103009 0.077947 -0.045414 114 118 117
-0.176084 -0.044533 0.040386 84 86 80
-0.012757 0.051050 -0.095214 105 114 112
0.051867 0.037747 -0.070114 169 169 163
0.029423 0.037513 -0.070414 165 166 163
-0.159272 -0.067419 0.032086 84 84 78
0.031422 0.046626 -0.087414 34 35 32
-0.059908 0.083641 -0.051214 105 116 115
-0.005454 0.059823 -0.107914 141 141 135
0.081680 -0.065173 0.061786 66 78 73
-0.155230 -0.056440 0.037986 88 89 86
0.245857 -0.013994 0.135686 41 46 49
-0.170804 0.019749 0.049286 88 94 93
-0.065262 -0.101281 0.037186 109 114 110
-0.036024 -0.059753 0.050186 52 70 67
0.044457 0.029938 -0.057414 175 176 173
0.132337 -0.000650 -0.000414 147 145 139
-0.039860 0.089499 -0.059314 110 115 118
-0.118664 0.059242 -0.013914 112 121 120
-0.091764 0.076922 -0.043414 116 123 119
-0.175790 -0.087015 0.008086 20 28 16
0.056243 0.035296 -0.064314 162 161 153
0.023629 -0.034246 0.056486 0 10 13
-0.087914 -0.063570 0.052486 147 152 148
0.056672 0.064578 -0.093914 95 94 86
0.198938 -0.069208 0.127286 95 96 88
0.010816 0.012266 -0.029514 174 174 174
0.039276 -0.081511 0.066986 108 132 145
0.283589 -0.128677 0.132486 92 89 79
0.128303 0.007017 -0.012014 165 158 153
0.039626 0.008366 -0.019914 166 166 166
-0.175410 0.005812 0.070786 6 16 11
0.054227 0.002252 -0.009014 162 163 160
0.000729 0.059643 -0.106714 125 123 117
0.081127 0.042273 -0.075614 161 154 149
-0.004597 0.051278 -0.095414 154 153 150
-0.027651 0.031763 -0.055714 66 82 79
0.127651 0.026570 -0.045914 163 152 146
-0.049777 0.064315 -0.015714 112 124 126
-0.012625 0.060922 -0.107014 63 80 74
-0.034715 -0.030719 0.043686 44 57 63
0.173552 -0.115722 0.096486 107 108 100
-0.120321 -0.074463 0.039886 103 105 99
-0.014745 0.024745 -0.051914 174 174 174
-0.085637 0.078319 -0.045614 119 125 124
0.003191 -0.049930 0.043886 64 80 77
-0.024326 -0.090935 0.050486 105 125 143
0.051015 -0.071307 0.061186 65 79 74
-0.039113 0.014004 -0.020514 46 63 64
-0.190654 -0.023588 0.022986 14 26 28
0.086310 -0.040915 0.068386 30 46 43
0.052275 0.063873 -0.096314 117 110 105
-0.040803 0.008901 -0.015414 62 74 76
0.030901 0.068842 -0.099514 98 97 94
-0.039003 -0.102758 0.049886 115 120 116
0.068073 -0.041801 0.068686 38 54 52
0.007484 0.020252 -0.042814 159 163 162
0.078904 0.015799 -0.029514 152 152 146
-0.061914 -0.081737 0.044986 75 86 85
-0.183796 -0.051730 0.027986 41 53 48
-0.000548 0.047115 -0.089114 154 153 150
0.258540 0.008068 0.086086 88 87 84
-0.169495 -0.094744 0.016386 39 48 39
0.057710 0.050083 -0.091714 148 141 136
0.092763 0.040485 -0.071614 155 147 140
0.107112 0.011963 -0.022614 151 144 139
-0.162977 -0.040122 0.038786 91 91 85
0.029847 -0.090220 0.062786 115 135 153
0.056605 0.000901 -0.006914 165 166 163
0.072294 -0.088479 0.072086 116 134 151
0.049420 -0.092744 0.063086 112 133 149
-0.145986 -0.008842 0.051886 73 78 74
0.042670 0.041765 -0.078114 162 162 156
0.001057 0.063612 -0.108714 116 114 108
0.092390 0.037486 -0.065514 146 138 131
0.055849 0.035099 -0.064314 159 157 151
0.136783 -0.057234 0.084486 56 73 92
0.061649 0.053825 -0.094114 126 120 113
0.041333 0.037070 -0.069614 167 167 161
0.017413 -0.005774 0.004586 77 93 90
-0.192136 -0.003381 0.058886 79 80 72
0.053485 0.045907 -0.083914 148 144 137
0.102813 0.037203 -0.066114 162 154 147
-0.108846 -0.017655 0.047286 15 20 84
0.011438 -0.027367 0.039886 127 141 151
-0.067175 -0.017022 0.036386 137 146 144
0.259240 -0.020602 0.135086 23 35 45
-0.065190 0.000127 0.044786 124 136 138
-0.085661 0.039708 0.028886 105 117 119
-0.126593 -0.027958 0.042786 24 17 102
0.054062 0.048676 -0.089714 160 152 145
-0.171727 -0.067300 -0.000214 27 44 31
-0.067821 0.082608 -0.050614 111 115 115
0.067868 0.044445 -0.080914 145 139 132
0.044815 0.041610 -0.078014 162 162 156
-0.066932 -0.071777 0.053986 95 104 102
0.324286 -0.068776 0.168186 40 41 38
-0.021003 0.023311 -0.049014 152 150 150
0.016796 -0.114257 0.058586 115 117 111
-0.042283 0.085236 -0.053314 114 123 122
0.274834 -0.005220 0.098986 83 85 74
0.050471 -0.050653 0.062386 57 70 68
-0.028913 -0.100085 0.047586 115 120 116
-0.020566 0.041239 -0.076314 75 91 88
0.019717 0.044220 -0.083314 165 161 161
-0.016058 0.036487 -0.071014 155 155 156
-0.060939 -0.077371 0.046986 129 141 149
-0.098269 0.077143 -0.044014 114 123 121
