ply
format ascii 1.0
element vertex 1210
property float x
property float y
property float z
property uchar blue
property uchar green
property uchar red
end_header
-0.030402 -0.051615 -0.020544 183 181 22
0.080077 0.007855 0.006256 181 188 184
-0.112059 0.056593 -0.035044 110 110 110
0.087342 -0.069248 -0.020244 168 169 166
0.098705 -0.022780 -0.024344 192 190 190
-0.028201 -0.001541 0.085356 147 158 162
0.083553 0.044771 -0.059444 89 96 112
0.042730 -0.098378 0.029256 139 145 145
-0.114146 0.046590 -0.034844 183 189 189
0.075087 0.060831 -0.040444 20 57 84
-0.133325 -0.000898 -0.006244 128 129 126
0.050991 -0.053198 0.027556 178 187 186
0.110122 0.019893 -0.027144 174 172 172
0.106404 -0.001572 -0.027944 185 183 183
-0.072172 0.057902 -0.031344 103 83 35
0.024804 0.086110 0.089956 103 114 113
0.111010 -0.028261 -0.035644 185 183 183
0.068384 -0.023862 0.015056 183 192 191
0.074818 -0.076938 -0.007344 161 166 162
0.099350 -0.066799 -0.031644 164 165 162
-0.018614 0.116627 0.095556 34 43 42
-0.131476 0.081853 0.007056 100 101 98
-0.061712 0.023386 -0.006244 138 120 94
-0.064753 -0.013512 -0.032444 84 84 94
-0.078165 0.015528 -0.047944 91 77 60
-0.034415 -0.025632 -0.026544 238 200 139
-0.013499 -0.113022 0.080456 116 127 126
-0.129826 -0.024291 -0.009944 122 127 123
0.102280 -0.049981 -0.031644 176 174 174
-0.126123 -0.003830 -0.003244 119 126 122
0.072745 -0.047507 0.001056 182 188 187
0.090654 -0.018596 -0.012844 189 193 193
0.104702 -0.045031 -0.033344 178 176 176
0.068464 0.021956 -0.021644 0 31 29
-0.031242 0.002141 -0.011244 142 148 148
-0.048966 0.073954 0.008356 135 116 86
-0.041273 -0.040410 -0.028044 149 87 11
0.039038 -0.004462 0.053656 166 173 177
-0.009794 0.071741 0.092656 120 135 141
-0.023676 -0.101840 0.073856 130 141 140
0.102315 0.009392 -0.019644 181 181 181
0.085006 -0.053815 -0.013244 182 183 180
0.077720 -0.041529 -0.001744 184 188 187
-0.129064 -0.064311 -0.014344 154 158 157
-0.122651 0.033126 0.003556 114 116 110
-0.037471 -0.107977 0.062956 133 142 141
-0.070623 0.015033 -0.007344 228 210 176
0.073441 0.028340 -0.046244 200 208 215
0.055546 -0.075457 0.017756 162 171 170
-0.129461 0.004500 -0.007444 132 132 126
0.096494 -0.037214 -0.023144 186 186 186
0.096079 -0.061294 -0.028544 168 168 168
-0.020015 0.104636 0.060556 32 41 39
-0.081767 -0.045940 -0.057044 106 101 91
-0.074960 -0.049370 -0.062144 197 176 0
0.065537 0.022709 -0.026044 126 149 165
0.002379 0.118878 0.072256 41 47 47
0.004396 0.063944 0.113056 105 115 122
-0.035636 -0.014636 -0.026544 62 40 13
-0.073910 0.024873 -0.039544 23 28 24
0.050632 0.028043 -0.047444 20 24 43
0.029508 0.045487 -0.004844 3 9 2
-0.067645 -0.049563 -0.056344 211 189 2
-0.046737 -0.053059 -0.036444 142 67 0
0.087036 0.047070 -0.057444 61 116 158
0.027568 -0.046691 0.059156 167 175 177
0.101298 -0.043390 -0.030944 181 181 181
-0.137613 -0.001510 -0.010944 137 136 133
0.094732 -0.018877 -0.018544 189 193 192
0.086983 0.002180 -0.003744 187 192 188
0.082435 0.007763 0.003956 180 187 183
0.079528 -0.041308 -0.004244 185 189 188
-0.011126 -0.091874 0.086556 139 150 154
-0.024330 0.085951 0.006056 85 45 5
-0.110313 0.006027 -0.010844 90 76 66
-0.067224 0.011162 -0.029944 159 159 160
0.064951 -0.048507 0.011856 182 188 187
0.066332 -0.066049 0.005156 175 179 178
0.091627 -0.059737 -0.022344 179 179 179
0.053974 0.030151 -0.056044 15 23 16
-0.127655 0.021236 -0.002844 120 121 113
0.051042 0.021446 0.020056 57 67 62
0.072478 -0.002011 0.013956 181 190 189
0.062194 -0.065838 0.011556 171 177 176
-0.026371 0.031446 -0.004844 130 110 83
-0.067329 0.050085 0.003956 77 81 100
-0.070125 0.062401 -0.029344 235 214 184
0.092455 -0.050760 -0.023244 183 183 183
-0.064214 -0.045745 -0.052744 152 93 35
0.049113 0.055031 -0.038844 182 177 172
0.108477 -0.014329 -0.033644 184 182 183
0.105707 -0.053708 -0.035444 175 174 171
0.027184 0.079387 0.087156 129 139 141
-0.078821 -0.028727 -0.056444 95 82 67
0.059550 -0.075398 0.012256 168 172 171
-0.024136 0.000339 0.090856 148 157 161
0.014986 -0.039011 0.077456 162 169 173
0.075518 0.063064 -0.040344 22 56 81
-0.027764 -0.051028 -0.018744 168 164 89
-0.067069 0.053090 -0.026744 60 58 46
-0.072026 0.005822 0.006656 162 174 184
0.110903 -0.017649 -0.034544 191 189 189
-0.062623 0.047624 0.004156 62 49 82
-0.055986 -0.042889 -0.044044 145 79 9
0.019419 -0.112995 0.055656 124 133 132
0.031192 -0.069618 0.048056 164 173 172
-0.034819 -0.080959 0.068356 153 164 163
0.060363 -0.057318 0.015956 177 183 182
-0.065529 -0.046569 -0.053744 154 96 41
-0.131739 -0.017010 -0.009344 126 127 124
0.021438 -0.012027 0.075756 159 167 169
-0.134457 -0.003769 -0.011644 131 130 127
-0.073610 0.048209 -0.037944 103 54 0
-0.031220 -0.077374 0.073356 156 167 166
0.016472 0.041529 0.092656 126 135 139
-0.137382 0.046824 -0.005144 98 98 87
-0.007668 0.076061 0.071256 127 143 146
0.002724 -0.029301 0.091156 158 167 171
-0.072034 0.051048 -0.029844 51 50 33
-0.084837 -0.024209 -0.050644 105 99 87
-0.064409 0.047776 -0.012444 142 102 68
0.041061 0.045843 -0.025944 141 142 134
-0.123185 0.039308 0.005256 114 117 109
-0.132313 -0.061591 -0.014444 161 161 161
-0.071628 0.029342 -0.048344 185 191 184
-0.030235 -0.024205 0.080156 151 160 164
0.057351 0.026158 -0.056944 60 63 55
-0.067329 -0.014691 -0.032344 78 71 73
-0.131536 0.020712 -0.005044 126 126 115
0.111577 -0.014122 -0.035244 182 180 181
0.086179 0.017348 -0.044744 40 43 9
-0.126110 -0.051637 -0.011844 105 111 110
-0.051682 -0.055964 -0.041844 151 78 0
-0.002270 0.075948 0.060556 137 152 158
0.029704 0.046855 -0.005044 5 10 6
0.077588 -0.068977 -0.007844 170 175 171
0.080352 0.039534 -0.066344 106 108 113
0.029056 0.024695 0.007856 140 146 145
0.085024 -0.062892 -0.016444 174 174 174
-0.027554 -0.010329 -0.019844 205 144 5
0.003343 -0.070337 0.083656 152 163 162
0.060886 -0.016806 0.025256 182 190 192
0.069795 0.040597 -0.065844 90 131 160
0.079023 -0.021043 -0.000644 187 191 190
-0.128174 -0.065676 -0.013344 160 160 161
0.106651 0.011607 -0.024244 181 181 181
0.018327 0.011648 0.082156 138 146 148
0.099038 -0.006946 -0.022544 186 190 190
-0.131396 -0.019420 -0.010244 126 131 127
0.067967 0.056384 -0.032544 19 58 75
0.093223 -0.015970 -0.014044 185 189 188
0.060519 0.043453 -0.046844 29 81 99
0.070199 -0.028746 0.009356 185 191 190
0.033141 0.001147 0.064356 158 166 168
-0.068135 0.040757 0.017156 78 62 50
0.098800 0.054349 -0.048044 130 130 140
0.062102 -0.002891 0.028756 176 184 186
-0.070960 0.027358 -0.046744 180 187 178
-0.040799 0.009015 -0.006044 106 100 86
-0.135501 0.033716 -0.006444 126 121 111
0.087445 -0.008369 -0.007344 189 189 189
0.018973 -0.074644 0.061456 155 166 165
-0.095351 -0.038228 -0.005944 220 198 152
0.019331 0.072267 0.098756 104 113 112
-0.128378 0.001224 -0.006244 130 130 124
0.059150 -0.045462 0.020256 179 188 186
0.024687 0.025721 0.009556 12 11 8
0.019744 -0.059392 0.065856 164 173 172
-0.033926 0.038753 0.001856 152 133 96
0.062922 0.029774 -0.068244 33 37 36
-0.031661 0.042398 0.079656 12 22 42
0.069311 -0.069542 0.001656 171 177 176
0.063256 0.035883 -0.070144 13 14 11
0.033078 0.005350 0.066156 155 163 165
0.105252 -0.030359 -0.031144 189 189 189
0.095786 -0.061693 -0.028144 172 172 173
0.031081 0.023669 -0.013444 81 47 1
0.096939 -0.017089 -0.020544 190 190 191
-0.051446 0.049673 -0.008044 41 21 55
-0.066852 0.015659 -0.028744 43 52 83
-0.083978 0.043363 0.016656 193 162 127
0.110006 0.019705 -0.027044 176 172 172
-0.033595 -0.029488 -0.025744 27 35 23
-0.061892 0.005234 0.003556 226 223 206
-0.016939 0.071610 0.100756 115 129 132
0.060469 0.002064 0.029956 175 184 183
-0.050911 0.056898 -0.011644 85 45 11
0.026393 0.024335 0.077456 136 146 148
-0.026513 -0.053638 0.080156 165 173 175
0.070992 0.048911 -0.063444 87 130 167
-0.067912 -0.015080 -0.032344 69 56 50
0.112050 0.009269 -0.031644 181 179 179
-0.068966 0.046138 0.004256 190 170 136
-0.073464 -0.010223 -0.055644 124 66 0
-0.023100 0.074891 0.075456 110 126 129
-0.055168 -0.011626 -0.024044 82 88 88
-0.122439 -0.046386 -0.007744 79 73 66
-0.061164 0.044772 0.002956 98 76 96
0.048788 0.058947 -0.038744 187 178 179
0.012671 -0.053340 0.075756 160 166 166
-0.071285 0.044984 -0.045144 103 54 1
-0.063747 -0.047184 -0.052444 159 96 42
0.080190 -0.039847 -0.004344 187 191 190
-0.029676 -0.081785 0.072556 149 161 163
0.045265 0.022554 -0.035044 90 56 12
0.092937 -0.057980 -0.023444 172 172 172
-0.028510 -0.024335 0.081356 151 160 164
-0.004571 -0.113375 0.081956 118 131 130
0.013402 -0.051146 0.075756 161 169 171
-0.003107 0.116929 0.088656 39 50 48
0.088672 -0.071208 -0.021744 164 165 162
0.011587 -0.043266 0.082456 161 169 171
0.106320 0.011369 -0.024644 180 180 180
-0.025128 0.064324 0.001156 93 46 0
0.064932 0.038317 -0.065544 23 35 45
0.088411 0.008952 -0.002544 180 185 181
0.076907 -0.059449 -0.006044 177 182 178
-0.077117 0.013647 -0.001244 255 251 223
0.103524 -0.018365 -0.028744 190 188 188
0.057955 0.020679 0.002456 71 102 75
-0.066974 0.003803 0.008756 198 193 170
-0.132913 0.015351 -0.006444 125 125 114
0.004816 0.119210 0.069456 47 55 57
-0.065392 -0.002373 -0.034544 176 120 12
-0.068468 -0.047332 -0.056744 206 186 0
-0.125217 0.087922 0.012856 91 96 92
-0.031783 -0.103057 0.069456 134 144 146
0.001366 0.117364 0.077156 48 59 58
-0.062719 0.006536 -0.002544 229 222 217
-0.064816 0.019702 -0.017944 95 76 34
-0.066169 0.054104 0.005456 96 76 71
0.079918 -0.002566 0.003956 185 191 190
0.093423 0.006044 -0.010344 182 186 185
0.024561 -0.023607 0.068156 164 174 176
-0.089949 0.008327 -0.010544 228 222 194
0.044693 -0.032102 0.041256 178 186 188
-0.047869 -0.009455 -0.017344 84 89 92
-0.043360 0.036143 0.010756 143 103 47
0.077505 0.029027 -0.062444 45 50 46
0.035776 0.045004 -0.012644 5 11 4
-0.130630 0.049629 0.001656 102 105 97
0.084608 -0.016185 -0.004544 189 193 192
0.077704 0.028018 -0.061344 55 56 53
0.107252 -0.017173 -0.032644 192 188 189
0.102023 -0.004242 -0.021944 187 187 187
0.069563 0.006995 0.019256 180 186 185
-0.089580 0.034395 -0.030544 115 114 106
0.088125 -0.004360 -0.008144 190 190 190
0.020891 -0.099774 0.053856 138 144 144
-0.069959 0.011672 -0.028544 170 179 190
0.072250 0.065561 -0.035344 19 60 84
-0.125026 0.072487 0.009756 98 99 96
0.026451 -0.024107 0.066356 166 176 178
0.085443 0.021296 -0.032244 147 150 137
-0.074174 0.001472 0.017256 226 201 168
-0.137432 0.055485 -0.002144 94 93 85
0.031798 0.118045 0.074156 54 62 64
-0.025763 -0.019851 -0.017844 113 84 31
-0.123681 0.053892 0.007956 104 109 105
0.011465 -0.113663 0.061956 119 128 127
0.112097 0.000671 -0.032644 187 185 186
-0.049389 0.016055 -0.015444 71 78 87
0.049611 0.040749 -0.026544 0 6 0
-0.121936 0.011312 0.000356 118 125 121
0.082258 -0.049897 -0.009044 182 186 186
0.065037 0.027616 -0.062244 33 50 59
0.085261 -0.058610 -0.014644 180 180 180
-0.056122 0.026626 -0.023744 255 255 247
0.061287 0.043845 -0.048444 39 87 101
-0.089031 -0.043881 -0.048344 97 85 76
0.072070 0.025299 -0.037444 111 107 120
-0.001548 0.011545 0.108756 140 149 153
0.093737 -0.036175 -0.019344 185 185 185
0.052870 0.056760 -0.039844 56 63 79
-0.132614 0.090080 0.009456 98 99 96
-0.068445 -0.033816 -0.053944 225 226 218
0.050892 0.025496 -0.045844 31 38 29
-0.024095 -0.058239 0.082156 160 170 172
0.061917 -0.021598 0.022556 182 190 192
0.019162 0.031162 0.005156 8 15 11
-0.055748 -0.041182 -0.043444 141 76 3
0.044656 -0.084396 0.029956 153 162 160
0.083530 -0.044176 -0.008844 183 187 186
-0.026794 0.089109 0.072556 72 80 82
-0.024535 0.119476 0.064656 53 62 60
0.083162 -0.026360 -0.006244 187 191 190
0.086647 -0.065419 -0.019344 171 171 171
0.039108 0.039115 -0.031244 84 55 10
-0.087522 -0.014688 -0.027744 161 141 109
-0.026262 0.053190 -0.001044 96 47 0
0.113884 0.015584 -0.031144 153 146 148
0.097877 0.003669 -0.015344 188 188 188
0.016615 -0.110869 0.057956 126 135 134
-0.072166 -0.043675 -0.059544 207 199 71
0.076593 0.011288 0.012456 175 181 180
-0.056590 -0.040526 -0.044244 135 70 0
-0.073920 0.062419 -0.041544 65 52 32
0.086504 -0.025882 -0.010044 190 194 193
0.095077 -0.054720 -0.026144 180 178 178
0.005912 -0.074514 0.081356 152 163 162
0.040952 0.035493 -0.034344 74 40 1
0.066280 0.036353 -0.073144 13 14 11
-0.086427 -0.038318 -0.026344 53 52 35
0.024884 0.061739 0.087156 114 125 124
-0.013379 0.118466 0.057756 54 60 59
0.051556 0.010985 0.044856 168 176 178
-0.058107 -0.001197 0.013256 199 177 145
-0.086057 -0.025693 -0.048044 121 110 99
0.081796 -0.059382 -0.009044 179 179 179
0.072001 0.009964 0.017856 175 184 182
0.026115 0.054640 0.084556 119 127 129
-0.128933 0.020487 -0.003044 120 120 114
-0.031677 -0.014586 -0.026944 239 207 151
-0.141758 0.032518 -0.006544 123 119 107
0.029159 -0.077098 0.051656 158 167 165
-0.030100 -0.024086 -0.022944 174 134 80
-0.071094 -0.047055 -0.059144 200 177 0
-0.016298 -0.041958 0.089956 163 173 175
-0.089739 -0.018113 -0.019344 158 142 116
0.035201 -0.086120 0.040356 151 160 159
0.011404 -0.117239 0.060956 116 125 123
-0.079224 0.000944 0.010556 223 201 174
0.075586 -0.068935 -0.004944 168 172 171
-0.028808 0.007448 -0.009644 103 76 50
0.073458 -0.007591 0.013156 184 190 189
0.007355 -0.021778 0.089956 159 168 172
-0.031035 -0.005528 -0.021544 81 81 70
-0.130734 -0.038505 -0.011744 118 122 121
-0.001543 0.112673 0.114856 33 46 45
0.052610 0.022858 -0.029944 84 55 15
-0.038167 0.025832 -0.004244 216 189 156
0.098445 -0.051722 -0.029844 181 179 180
0.082860 0.017174 -0.044744 59 45 47
0.049480 0.060003 -0.038844 126 115 117
-0.052041 -0.055047 -0.042244 151 78 0
0.067083 0.056726 -0.031344 13 51 71
-0.128366 -0.039662 -0.009244 112 118 117
0.052772 -0.011666 0.037956 176 186 188
0.017199 -0.083970 0.060756 151 162 161
0.039570 0.066646 -0.024844 181 173 171
-0.061758 0.000677 0.011556 255 255 229
0.070507 0.002019 0.017556 179 188 187
-0.075012 0.046219 -0.044244 68 51 30
-0.015854 -0.020746 0.095856 153 162 166
-0.132980 0.048218 -0.000544 105 104 101
-0.038014 -0.009997 -0.026044 102 53 14
0.068816 0.051815 -0.063444 74 133 177
0.012864 -0.067515 0.073056 153 163 165
0.083086 0.021987 -0.025444 125 144 146
0.097718 0.014775 -0.014944 196 196 196
0.042525 0.023092 -0.006644 93 63 21
-0.136496 0.025914 -0.006644 132 126 119
0.105828 -0.044689 -0.034244 178 177 174
0.035178 0.021819 0.066156 150 159 163
0.042347 0.048525 -0.027544 177 176 173
0.087925 -0.017801 -0.010344 192 192 192
0.041363 -0.051802 0.041656 174 183 182
-0.074561 -0.006860 -0.027144 106 93 78
-0.027040 -0.113516 0.068356 119 130 129
-0.126811 0.034341 0.002156 120 120 114
0.071425 0.028274 -0.060444 47 52 48
-0.129608 -0.016804 -0.009144 126 127 124
-0.032254 -0.118499 0.065156 115 125 127
0.012603 -0.060357 0.074656 159 168 167
-0.135294 -0.060157 -0.013644 158 167 166
-0.035856 -0.062545 -0.027244 124 64 0
0.084360 0.009131 0.001056 178 185 181
-0.129952 0.079506 0.008056 84 91 87
0.108847 -0.029916 -0.036544 184 183 180
0.028955 0.059271 -0.000444 7 13 6
-0.066236 -0.042702 -0.054144 145 87 32
-0.111550 0.054593 -0.032644 97 96 88
-0.067014 0.081424 -0.007044 81 89 91
-0.110780 0.050896 -0.036844 111 117 116
-0.038809 0.017438 -0.004544 46 57 49
-0.123167 0.067085 0.008656 100 105 101
-0.068110 0.030915 -0.044344 114 101 86
-0.130345 0.057320 0.003756 97 99 93
0.082126 0.020713 -0.039244 88 72 55
0.006250 -0.020384 0.091756 157 166 170
-0.073117 0.028293 -0.049144 37 25 16
-0.064369 0.021057 -0.016044 98 76 42
-0.029944 -0.107438 0.068956 128 139 138
0.062857 -0.079018 0.007256 160 166 165
-0.075016 -0.035337 -0.060744 173 164 79
-0.070899 0.028469 -0.033244 204 192 175
0.041197 0.009186 0.056156 162 171 175
-0.121881 0.070167 0.010456 97 101 100
0.081843 0.022652 -0.025144 184 176 160
0.032501 0.080269 0.002356 10 15 11
0.090875 0.019605 -0.040444 59 79 31
-0.059898 0.009552 -0.004844 141 173 215
0.059650 0.028438 -0.061944 27 33 32
-0.044907 0.036999 0.008656 135 84 23
-0.036652 0.029403 0.005256 176 149 118
0.067680 -0.070438 0.004756 168 174 173
0.018709 -0.011417 0.077956 155 163 165
0.065810 -0.027146 0.015356 185 194 193
0.098300 -0.014792 -0.020144 189 189 189
0.086114 -0.061912 -0.017144 176 176 176
-0.074281 0.053387 -0.032744 47 41 27
-0.014763 -0.054445 0.090256 160 169 173
0.068018 0.063594 -0.028944 19 62 81
0.040255 0.026696 -0.035244 67 35 0
-0.074177 -0.048120 -0.061444 199 179 5
0.020659 -0.022213 0.075256 159 168 172
-0.033894 -0.107121 0.066856 133 142 141
-0.075690 0.025565 -0.047844 76 64 42
-0.065798 0.026367 -0.029244 92 76 59
0.055811 0.045520 -0.043344 10 16 9
0.045271 0.049201 -0.032044 204 198 186
-0.068815 -0.036540 -0.052644 46 5 0
0.078504 0.040178 -0.067744 103 100 104
0.095538 0.002583 -0.012944 186 186 186
0.106107 0.021199 -0.032844 162 160 160
-0.071263 0.021675 -0.048644 114 61 0
-0.052863 -0.014366 -0.021944 83 89 88
0.043507 -0.087064 0.031256 155 164 162
-0.031569 -0.061334 -0.023844 180 155 0
0.050763 0.006505 0.043056 171 179 181
-0.043328 0.072203 0.005556 42 53 51
-0.053430 -0.040145 -0.039944 118 57 0
0.047273 -0.039795 0.037956 179 187 189
-0.030959 -0.019287 -0.022844 226 203 160
-0.004144 0.073500 0.076856 124 139 145
0.065263 0.043585 -0.063344 96 104 111
0.100916 -0.029369 -0.026244 192 192 186
-0.075468 -0.047698 -0.063344 165 156 90
0.072370 -0.063532 -0.000244 177 181 180
-0.045251 0.007008 -0.002844 152 146 132
-0.025972 -0.044336 0.082156 166 176 178
0.081756 0.010372 0.005556 180 186 185
-0.124582 -0.054821 -0.011244 106 111 107
0.080629 0.051918 -0.057344 30 57 81
0.064307 -0.037360 0.016356 183 192 191
-0.038592 -0.053993 -0.029644 136 62 0
0.071663 -0.061770 0.000856 177 181 180
-0.056344 -0.051363 -0.045444 155 88 13
-0.137926 0.017233 -0.008644 118 114 102
-0.026410 0.041056 0.082756 11 22 40
-0.055829 0.013989 -0.011244 144 159 185
0.095795 0.021250 -0.038244 15 16 13
-0.080388 -0.032144 -0.056044 93 80 65
-0.017765 -0.118195 0.077456 115 126 125
-0.126969 -0.073664 -0.013944 173 177 176
-0.071068 -0.036186 -0.056144 135 86 31
-0.042164 0.048057 0.010156 105 80 47
0.073283 -0.078733 -0.005744 159 163 162
-0.072260 0.048290 -0.030844 56 52 45
0.073382 0.065694 -0.036844 19 57 82
0.070421 -0.059424 0.002456 177 181 180
0.097195 -0.031805 -0.023044 191 189 189
0.069522 -0.004803 0.017156 181 190 189
-0.093801 0.005074 -0.003044 172 168 156
0.015604 -0.106820 0.057956 131 140 139
-0.079334 0.018980 -0.046544 99 85 68
-0.044987 0.047199 -0.006244 50 41 36
0.043425 0.049368 -0.029044 183 181 175
0.096359 0.010540 -0.011744 179 184 180
-0.037418 -0.039972 -0.012944 77 78 65
-0.036192 -0.062648 -0.028244 132 58 0
0.067329 -0.036344 0.011856 182 191 189
-0.008687 0.076179 0.069456 125 140 146
-0.129097 -0.036514 -0.011544 116 121 117
0.094099 -0.030634 -0.020044 190 190 190
0.096072 -0.058900 -0.027244 170 168 168
-0.055120 -0.053622 -0.044744 152 83 2
-0.127754 -0.018996 -0.008344 118 124 123
0.095066 -0.019959 -0.017144 187 191 190
0.058870 -0.002378 0.032256 173 181 183
0.072458 0.030189 -0.066544 47 48 45
0.094187 -0.051098 -0.023444 180 180 180
0.094773 -0.054053 -0.024344 175 175 175
0.058408 0.042695 -0.044744 36 89 111
0.047079 -0.019310 0.040856 179 187 189
0.105905 0.017838 -0.024144 186 183 180
0.053537 0.040991 -0.035644 29 83 102
-0.025634 0.001119 0.090256 150 159 163
0.041601 0.071007 -0.028544 112 96 98
-0.054213 0.015456 -0.012544 116 107 108
0.068791 -0.030565 0.013456 183 192 191
0.080460 0.023313 -0.031844 96 95 92
-0.057614 0.075190 0.016656 147 126 101
-0.071366 0.021993 -0.048744 110 57 0
-0.045756 -0.041718 -0.033444 126 59 0
-0.038341 -0.063872 0.070456 167 177 179
0.033793 0.069472 -0.001744 8 14 7
-0.038862 -0.047520 -0.027344 127 58 0
-0.063699 0.000323 -0.037044 238 208 176
0.041767 -0.089810 0.032656 151 160 159
-0.010940 0.103695 0.114856 19 25 32
-0.071353 0.062257 -0.032444 235 218 176
0.098651 -0.031529 -0.024144 189 189 189
0.069895 -0.030667 0.009856 183 192 190
0.067530 0.008536 0.023256 176 182 181
0.066502 -0.073851 0.005556 166 170 169
-0.072611 0.044625 -0.033944 65 59 45
-0.135871 0.045402 -0.011344 99 95 81
0.066097 0.021879 -0.022144 46 101 123
-0.096747 -0.034088 -0.007444 198 175 123
0.036411 -0.048704 0.046756 175 184 183
0.092474 -0.000371 -0.010744 187 191 190
0.030449 0.111911 0.088656 44 54 56
0.100402 -0.024290 -0.027144 189 187 188
0.028973 0.001144 0.066856 151 161 163
-0.056585 0.008360 -0.009844 196 202 209
-0.072826 0.056044 -0.043544 95 76 53
0.062562 0.030225 -0.068544 28 33 29
-0.079638 -0.003686 -0.050744 98 85 65
0.050394 0.066342 -0.036344 126 121 125
-0.000288 0.047725 0.110156 125 136 140
-0.036995 -0.059835 -0.028244 202 162 28
-0.122013 -0.006421 0.000456 79 70 59
0.058048 -0.035426 0.022756 181 190 188
0.013747 -0.049618 0.075456 160 168 170
0.100307 -0.017748 -0.023344 192 192 192
-0.072395 -0.040603 -0.059644 205 194 67
-0.009159 0.075932 0.073056 124 138 141
-0.009483 -0.117302 0.083056 113 124 123
-0.036870 -0.048338 -0.025744 128 59 0
-0.027009 0.090103 0.005256 90 54 15
0.046906 0.042624 -0.034744 184 179 174
-0.071526 0.043787 -0.041344 102 53 5
-0.121214 0.038154 0.004656 111 112 109
0.049461 -0.062061 0.027256 174 183 181
-0.130403 0.013655 -0.004144 124 126 120
0.059602 -0.059261 0.016856 177 183 183
0.006564 0.112549 0.114556 25 34 33
0.107379 -0.035378 -0.034644 184 182 182
0.069942 0.025400 -0.033144 130 125 134
0.049833 0.021482 -0.013044 42 22 0
0.084545 0.021835 -0.062444 142 138 138
0.069758 -0.081174 -0.001644 156 161 157
-0.124349 -0.009530 -0.004244 121 126 122
-0.084893 -0.019974 -0.017044 179 164 136
0.037135 0.013154 0.061456 150 160 162
0.112564 0.021588 -0.030444 173 171 171
-0.007944 0.110841 0.114556 26 41 47
0.078455 -0.005637 0.005056 184 190 189
0.109885 -0.008808 -0.032944 184 182 182
0.064965 -0.009122 0.020956 180 189 188
-0.008507 -0.014865 0.103456 158 166 173
-0.066012 0.028064 -0.041544 182 178 178
-0.014032 0.048306 0.091156 13 26 45
-0.134111 0.076220 0.004356 83 83 77
-0.022134 0.030814 0.094956 134 145 149
0.052546 0.023150 -0.030544 86 56 19
0.070253 0.061622 -0.032944 15 57 78
0.047748 -0.091168 0.022156 149 155 154
0.068006 -0.078371 0.000956 156 162 161
0.098420 -0.040250 -0.026044 185 185 186
0.010392 0.116543 0.088656 56 67 66
0.081964 0.022082 -0.033344 130 141 139
0.105537 -0.048234 -0.035844 175 173 173
0.005878 -0.019262 0.092356 158 165 169
0.057496 0.025971 -0.056444 51 54 46
0.062263 0.020600 -0.002144 88 120 91
0.098645 -0.049546 -0.028844 182 180 180
-0.009735 -0.006266 0.103456 149 160 164
-0.026612 -0.015857 -0.016744 185 157 133
-0.025668 0.066677 0.001456 93 46 0
-0.051524 -0.005497 -0.022144 175 124 95
-0.063261 -0.009092 -0.029544 93 91 92
0.043203 0.019892 0.056156 152 159 163
0.070298 0.060218 -0.033844 15 57 78
0.062235 0.032939 -0.068244 15 21 14
-0.000302 0.009422 0.107656 140 147 151
0.056367 -0.005101 0.033756 176 185 184
0.076648 0.019093 -0.014144 42 74 38
0.028946 -0.013606 0.066656 164 174 176
0.044236 0.025157 -0.038144 20 23 15
-0.074028 0.020812 -0.032844 48 54 54
-0.118914 0.038835 0.003256 110 113 105
-0.069992 0.033198 -0.045544 176 177 174
0.036112 0.039254 -0.028144 78 52 16
0.072089 -0.034400 0.006656 185 191 190
0.103892 -0.001632 -0.025344 190 188 188
-0.024009 -0.025483 -0.017944 93 54 38
-0.126728 0.062007 0.007556 97 103 96
-0.029534 -0.024125 -0.021644 171 118 57
0.073882 0.028938 -0.049244 52 92 118
-0.128278 -0.017575 -0.008544 123 127 126
0.066212 0.050374 -0.062044 18 40 60
-0.070303 0.044780 0.008656 62 47 61
-0.006779 -0.125808 0.079956 99 112 111
0.046100 -0.039837 0.038156 179 187 189
-0.076764 0.052932 -0.041044 67 53 31
0.064172 0.028000 -0.064444 28 32 31
0.080779 0.016462 -0.043544 199 203 203
0.046920 0.063129 -0.035644 187 179 177
0.087103 0.013175 -0.001044 179 184 180
0.032459 0.023480 -0.016044 84 48 2
0.033544 0.052770 -0.007844 7 13 6
0.079114 -0.002323 0.004356 183 189 188
0.105606 -0.002019 -0.026244 190 188 189
0.071207 0.010932 0.020556 176 182 182
0.035660 0.079804 -0.000044 7 12 8
-0.081221 0.008554 -0.015044 203 192 181
-0.137821 0.027771 -0.005444 132 127 117
-0.070788 -0.032122 -0.055644 199 197 183
0.072658 -0.007355 0.013756 182 191 190
0.030785 0.000102 0.064856 155 163 165
0.069596 0.024704 -0.032744 180 182 192
0.102101 -0.026634 -0.027544 191 189 189
-0.026659 0.111465 0.085156 36 46 41
-0.075518 -0.031636 -0.046344 56 52 38
-0.113703 0.047266 -0.033044 123 125 119
-0.075457 0.007332 -0.051744 64 53 33
-0.119179 -0.017250 -0.007444 114 120 119
0.106553 0.001860 -0.025844 188 186 186
-0.017823 -0.037238 0.089556 164 173 177
0.006800 -0.120868 0.065656 115 124 123
-0.064553 0.021860 -0.018044 92 74 42
0.041311 0.081236 -0.009944 0 5 1
0.094353 -0.008263 -0.015644 188 188 188
0.042314 0.030729 -0.037344 7 8 0
0.045669 -0.038718 0.040156 180 188 190
0.089849 0.010761 -0.004544 179 184 180
-0.066971 -0.040102 -0.054244 144 86 31
-0.122425 0.056586 0.009056 97 105 98
0.035576 0.044583 -0.012544 3 8 4
0.026317 0.117292 0.083056 49 58 62
-0.046016 0.053036 -0.004344 62 49 29
0.088900 -0.050489 -0.015544 180 185 181
0.088313 -0.020011 -0.009344 195 195 195
-0.078071 0.009601 -0.049944 92 81 61
-0.118013 -0.009086 -0.007144 112 119 115
-0.111158 0.050272 -0.037444 104 105 102
0.087237 -0.072226 -0.021044 162 166 165
-0.017823 -0.039176 0.089556 166 176 178
-0.023624 -0.009652 -0.014844 83 43 21
0.001987 -0.027678 0.093956 160 169 173
-0.131596 -0.035476 -0.012044 119 124 120
0.078014 -0.036939 -0.001644 186 190 189
-0.111658 0.067145 -0.030544 93 98 94
-0.015060 -0.023130 0.095856 160 169 173
-0.053654 -0.055152 -0.044144 153 82 0
-0.050908 -0.054694 -0.041144 151 77 0
-0.055503 -0.037118 -0.041344 125 54 3
-0.134564 -0.052648 -0.013944 107 111 110
-0.032511 0.054581 0.077656 11 22 40
-0.047230 -0.046246 -0.035144 120 59 8
0.003958 -0.084496 0.077956 148 157 155
-0.046648 -0.059690 -0.038144 149 71 0
0.083854 0.018870 -0.019344 46 77 37
0.074988 -0.079859 -0.009244 156 160 159
-0.044671 -0.042753 -0.033244 131 63 0
-0.071365 0.027360 -0.047444 193 194 179
0.012217 -0.000027 0.086856 140 148 150
-0.002343 -0.052766 0.091456 158 167 171
-0.042257 0.047141 0.003356 66 49 34
0.047511 0.051796 -0.036044 180 175 170
0.038814 0.099400 0.079056 100 109 107
0.050087 0.027602 -0.046444 13 22 20
0.075611 0.030059 -0.066944 7 11 11
0.019186 -0.060861 0.067356 162 171 170
0.014120 0.034467 0.092656 126 138 140
0.019945 0.070059 0.096556 107 116 115
-0.109257 0.018044 -0.011644 116 116 110
-0.035278 0.055491 0.003556 132 115 87
0.053257 -0.016418 0.036456 181 189 191
-0.030288 -0.026576 -0.023044 222 190 134
0.027730 0.070050 0.085356 114 123 121
-0.073585 -0.018119 -0.056344 127 65 0
0.082520 -0.054172 -0.011744 179 183 182
-0.061516 0.054592 -0.012344 102 86 69
-0.075628 -0.042939 -0.062044 163 153 97
0.049349 -0.004181 0.043656 174 182 184
0.060987 0.026018 -0.061044 37 47 42
0.068548 0.028908 -0.062844 46 48 42
-0.018115 0.007172 0.100156 146 158 160
-0.078190 -0.023878 -0.055844 89 77 60
0.074371 0.030102 -0.065944 48 46 46
0.005232 -0.055213 0.083656 158 166 168
-0.072170 -0.045544 -0.059744 210 193 44
0.083371 0.018910 -0.017344 79 109 71
0.039571 -0.075753 0.037656 164 173 171
-0.112777 0.062907 -0.033844 87 87 88
0.105580 -0.024602 -0.031444 187 185 185
-0.074194 0.042494 -0.045744 71 58 38
-0.073417 -0.018316 -0.056144 129 67 0
0.075750 0.023904 -0.036944 39 36 45
0.049539 0.044122 -0.037444 185 179 177
0.014284 0.117394 0.077956 63 73 75
0.064951 -0.047714 0.011856 182 188 188
-0.084769 -0.014763 -0.022144 112 94 62
-0.128012 -0.070293 -0.011744 177 181 180
-0.072520 -0.017470 -0.055644 131 70 0
0.068500 -0.057495 0.006056 178 184 183
0.087597 0.041592 -0.058344 82 133 174
-0.124415 0.029573 0.001956 116 118 112
-0.052869 -0.002872 -0.025144 255 255 238
-0.012253 0.106571 0.115656 22 31 30
0.103404 -0.031105 -0.030544 187 185 185
0.021884 0.032927 0.083956 129 139 141
-0.073196 0.018281 -0.032944 58 74 86
-0.008031 0.076482 0.059156 132 147 153
-0.071298 0.038442 -0.045944 189 192 184
-0.033792 -0.005231 -0.023244 23 23 12
-0.070796 0.035423 -0.045644 171 172 169
0.040595 -0.082102 0.034056 157 166 164
0.038764 0.054210 -0.023444 185 182 179
0.084961 0.052537 -0.057344 37 84 116
-0.077008 -0.032181 0.016256 240 213 173
-0.059416 0.076962 0.016356 62 43 22
0.024566 0.063427 0.087756 112 120 122
0.048108 0.059256 -0.037744 185 179 177
0.093009 -0.050929 -0.023344 179 179 179
-0.135096 0.034320 -0.005844 127 124 114
-0.077061 -0.035087 0.012156 242 216 174
-0.130961 -0.031239 -0.011744 115 119 119
0.084930 -0.009128 -0.003144 187 191 190
0.073341 -0.042203 0.003356 191 195 194
0.065902 0.074493 -0.023344 4 10 9
0.032582 0.044451 -0.009944 5 10 6
0.046546 -0.035587 0.039956 180 188 190
-0.114564 -0.054943 -0.021244 101 105 104
-0.073895 -0.032000 -0.045144 54 52 38
-0.073115 0.023732 -0.037844 30 43 41
0.103872 -0.024308 -0.029044 190 188 188
0.015699 -0.024614 0.077156 161 169 171
-0.011831 -0.045144 0.094556 162 172 174
0.032916 0.055106 -0.006544 9 15 8
0.090994 -0.062873 -0.023244 172 172 173
0.060824 0.032010 -0.066144 14 20 13
-0.063753 -0.037880 -0.047644 161 115 199
0.067304 -0.060173 0.005056 176 182 181
-0.140545 0.040806 -0.004544 106 101 91
0.064646 0.045427 -0.054844 4 13 11
-0.126054 0.014403 -0.000944 118 120 114
-0.071053 -0.028776 0.016956 205 183 149
-0.034542 -0.040895 -0.022744 145 83 6
-0.025714 -0.102696 0.072556 131 142 141
0.105945 0.010494 -0.025344 181 179 179
0.052854 -0.059258 0.023256 173 182 180
0.062355 0.048136 -0.053444 2 9 13
0.057184 0.035916 -0.049444 27 73 89
-0.063073 -0.040795 -0.050544 145 83 21
-0.050997 0.043455 0.000856 60 43 40
0.111636 0.021669 -0.029944 174 172 172
0.076012 0.025474 -0.043544 89 167 201
0.065857 -0.044447 0.013456 180 189 187
-0.065370 0.043994 0.006656 94 73 104
-0.054167 -0.054598 -0.044544 157 85 5
-0.026715 0.038623 -0.002744 97 50 0
-0.076403 -0.020578 -0.056544 62 53 42
-0.136179 -0.014664 -0.011744 130 132 126
0.055421 0.036703 -0.040944 22 76 95
-0.073095 0.024711 -0.036644 37 46 44
-0.055498 -0.008327 -0.023744 94 99 95
-0.028564 -0.037962 -0.016844 139 79 10
-0.051056 -0.040467 -0.036444 65 32 9
-0.039366 -0.112597 0.056156 126 135 134
-0.061832 0.055899 -0.002344 198 168 138
0.041118 -0.025314 0.046356 175 183 185
0.061246 0.030676 -0.066344 20 27 18
0.036160 0.058793 -0.008544 7 12 8
-0.070929 0.052977 -0.040544 97 52 1
-0.005629 0.067998 0.102456 53 62 66
-0.031994 0.041231 0.079356 14 24 44
0.057092 -0.024992 0.028556 183 189 189
0.021756 -0.034600 0.068356 166 173 177
0.095526 -0.002965 -0.015544 192 192 192
0.032986 0.056158 -0.006244 7 12 8
0.107697 -0.007458 -0.030144 187 185 185
-0.040216 -0.061033 -0.031444 136 61 0
-0.033243 -0.070133 -0.026344 129 54 0
0.069808 0.060413 -0.033044 14 56 77
0.097393 -0.051839 -0.028144 180 178 178
0.089935 -0.019519 -0.011144 192 192 192
-0.070607 0.058876 -0.042844 94 49 0
-0.065348 0.032581 -0.040144 144 139 114
-0.076015 -0.049865 -0.062844 151 129 15
-0.026812 0.005657 -0.007844 76 57 36
0.002498 -0.095531 0.078756 137 148 147
0.017060 0.112127 0.095256 53 59 58
-0.016980 0.027110 0.101456 140 150 157
0.012246 0.119302 0.068956 47 55 57
-0.041880 0.002420 -0.003744 152 143 132
-0.071993 -0.035633 -0.055944 47 18 5
-0.031541 -0.006746 0.081656 148 157 161
-0.084971 -0.023439 -0.024144 130 163 150
-0.074048 -0.040766 0.016956 169 148 123
0.022754 -0.087294 0.055656 149 160 159
-0.053995 0.056309 -0.013744 255 255 248
0.015898 -0.083187 0.065856 151 162 161
-0.043110 -0.000735 -0.000944 198 178 151
0.077885 0.024955 -0.042644 85 137 161
-0.126298 -0.072994 -0.013944 176 180 180
0.036633 -0.022258 0.053156 174 182 184
-0.064148 0.030709 -0.040344 121 120 91
0.059889 -0.003823 0.030856 176 184 186
0.081268 -0.025957 -0.003244 190 194 193
-0.131849 -0.074909 -0.014944 170 174 173
0.064091 -0.078536 0.005256 160 166 165
0.072536 0.018538 -0.005344 77 110 71
0.107147 -0.018159 -0.032544 190 188 189
0.105896 -0.010911 -0.029244 188 186 186
-0.027568 0.117847 0.086556 39 45 44
-0.072837 0.017504 -0.050544 113 56 0
0.066268 0.069849 -0.024244 20 63 87
0.110630 0.017562 -0.027944 174 172 172
0.066405 0.014863 0.024756 173 179 179
0.042217 0.040401 -0.034544 71 43 14
0.084973 0.023609 -0.043144 136 138 102
-0.131053 -0.030469 -0.012144 120 124 123
-0.083824 0.010227 0.012456 224 199 166
-0.078496 0.044497 0.009556 140 113 73
0.056914 -0.067517 0.017756 173 179 178
0.023957 0.048784 0.085656 123 133 135
-0.053293 0.058023 -0.015044 142 120 88
0.080706 -0.008931 0.001156 187 193 192
0.073302 0.044592 -0.062744 46 95 134
0.024334 0.030435 0.082156 131 141 143
-0.027820 -0.067084 0.075256 159 170 169
0.110983 0.017209 -0.027544 174 172 172
-0.055184 -0.044134 -0.043144 255 220 186
0.081168 -0.021492 -0.002544 190 194 193
0.045632 -0.088801 0.025856 152 158 158
0.071092 0.033456 -0.072244 66 66 67
-0.014483 -0.035329 0.092356 165 174 178
-0.053407 -0.005332 -0.025344 173 130 50
-0.111987 0.004887 -0.010744 107 108 100
0.075310 -0.003475 0.009156 183 189 189
-0.034381 0.074830 0.009156 77 55 21
-0.132990 0.049535 -0.000244 108 110 104
-0.036457 0.041873 0.004356 136 113 75
0.084487 -0.050358 -0.012244 180 185 181
0.106934 0.012360 -0.025144 181 179 179
-0.030138 -0.022198 0.082456 151 160 164
0.044774 0.067982 -0.033344 178 168 166
0.079755 -0.043666 -0.005144 187 187 187
-0.119059 0.045010 -0.028944 110 106 99
-0.071079 0.038857 -0.045744 165 164 156
-0.047894 -0.027412 -0.004444 131 122 104
0.041751 -0.065137 0.037856 169 178 176
-0.069158 0.054169 -0.028544 44 49 36
-0.137348 0.027771 -0.005444 131 128 118
0.099423 0.005362 -0.018044 186 186 186
-0.126975 0.000983 -0.004244 130 131 128
-0.045039 -0.038444 -0.031644 138 81 10
0.075704 -0.054967 -0.002844 179 183 182
0.104015 -0.061563 -0.035644 166 165 162
0.100332 0.005976 -0.019144 185 185 185
-0.026431 0.067766 0.098456 107 119 121
-0.047029 -0.037799 -0.033644 134 75 0
0.045660 0.059401 -0.033544 186 180 178
0.056517 0.025735 -0.050044 36 42 41
0.102466 -0.016155 -0.027344 188 188 188
-0.019335 -0.095160 0.078756 138 148 150
0.004614 -0.030573 0.088956 158 168 170
-0.046468 0.006827 -0.001144 167 157 141
-0.023210 -0.051317 0.084856 165 175 177
0.015854 0.001125 0.084256 137 147 149
-0.025530 0.051726 -0.001044 96 47 0
0.046598 -0.063151 0.032956 172 181 179
-0.077821 0.004083 -0.050744 95 81 64
0.110391 -0.009922 -0.033444 185 183 183
0.004118 0.073494 0.069956 136 150 158
-0.129032 -0.041725 -0.010844 109 115 115
-0.127342 0.075249 0.008356 93 95 89
0.046701 -0.062094 0.033356 172 181 180
-0.055730 0.069827 0.014156 99 107 95
0.088123 -0.051847 -0.017744 183 184 181
0.031967 -0.059885 0.048856 169 178 177
0.033902 -0.004655 0.060556 161 169 171
-0.075628 -0.047222 -0.063144 174 167 110
-0.061765 -0.046170 -0.049644 126 79 45
0.080284 -0.042032 -0.005044 184 188 188
-0.125329 -0.024054 -0.005944 117 123 123
-0.049951 0.054688 -0.008344 225 201 174
-0.003096 -0.078097 0.086556 144 156 158
-0.073189 -0.042103 0.016856 240 225 197
0.038156 0.036171 -0.030544 75 41 0
0.037782 -0.079513 0.039356 160 169 168
0.038143 -0.086286 0.036656 153 162 161
-0.116042 -0.039671 -0.014744 78 68 59
-0.049826 -0.058124 -0.041144 156 81 0
-0.030272 -0.026476 0.080456 151 161 163
-0.035776 -0.023401 -0.027544 60 32 0
-0.056862 -0.015042 -0.024944 86 89 97
-0.027302 -0.027211 -0.020044 214 184 133
0.078095 -0.014943 0.001856 184 190 189
-0.015925 0.114936 0.077456 39 47 49
-0.007818 0.029126 0.109056 148 159 163
0.056227 0.010925 0.037256 171 179 181
-0.075414 0.037133 -0.046244 58 53 36
0.069331 0.017953 0.005056 60 90 59
-0.035905 -0.038468 -0.023144 119 70 9
-0.134564 -0.029397 -0.013944 130 129 126
0.064924 0.062161 -0.026044 6 44 64
0.060385 0.020749 0.011656 39 56 43
0.027340 0.085345 0.008356 57 65 67
0.006406 -0.049417 0.084856 157 167 169
0.053118 0.043723 -0.038544 14 21 17
0.008074 -0.058649 0.079356 159 168 167
-0.034453 -0.006443 -0.023944 32 23 5
-0.037469 0.090108 0.006656 109 83 54
0.110916 -0.029696 -0.035944 184 183 180
0.062311 0.012682 0.031056 172 180 182
-0.073823 -0.033367 -0.058744 138 77 6
0.043893 0.022741 -0.019344 76 44 0
-0.038049 -0.017676 -0.026644 122 56 0
0.044931 -0.068690 0.031056 166 175 174
-0.028133 -0.046556 -0.017944 174 163 44
0.063995 -0.045442 0.014156 180 189 187
0.068000 -0.061435 0.003756 175 179 178
0.038358 -0.021455 0.051856 174 182 184
-0.133055 0.011991 -0.007344 126 125 117
-0.053104 -0.055180 -0.043044 154 81 0
0.075636 -0.053016 -0.001544 183 187 186
0.072861 0.018504 -0.005644 81 114 75
0.083382 -0.068052 -0.014444 174 175 172
0.078316 0.016236 0.000356 64 92 59
0.038195 0.027260 -0.031644 63 30 0
0.055585 0.020833 -0.020644 62 65 57
0.081045 0.019741 -0.042944 71 27 0
0.083038 -0.024155 -0.003944 190 194 193
0.086917 -0.009298 -0.007444 191 195 194
0.090368 -0.064634 -0.022644 171 171 171
0.100905 -0.043425 -0.029744 180 181 178
0.024594 0.041438 -0.005744 129 130 127
-0.137905 0.026149 -0.006644 129 123 111
-0.071877 -0.002762 -0.053144 123 65 0
-0.070195 0.054169 -0.042644 97 49 0
0.025800 -0.007875 0.072556 157 165 167
0.071240 -0.015463 0.009356 182 191 189
-0.064257 -0.033208 -0.049944 90 85 80
0.061217 0.028002 -0.063944 44 51 42
0.033008 -0.042047 0.053156 174 182 184
0.073153 -0.024600 0.007856 185 194 193
0.053951 -0.069030 0.022256 169 178 176
0.042542 0.048705 -0.028144 183 182 179
0.097833 -0.062848 -0.031344 167 167 167
-0.057917 0.042037 0.008056 117 95 81
-0.054101 -0.010725 -0.022544 81 85 85
0.083549 0.011807 0.004156 181 187 186
-0.084332 -0.018449 -0.022844 142 144 133
-0.045795 -0.054610 -0.035944 143 68 0
-0.073129 -0.034394 -0.058444 115 75 41
0.066527 -0.019620 0.017856 182 191 190
-0.057856 0.048188 -0.000644 66 50 92
-0.066682 0.026843 -0.029844 99 73 53
-0.123477 -0.007642 -0.003844 119 125 124
0.042366 -0.089471 0.028956 150 159 158
0.023059 -0.011554 0.073856 160 169 168
0.065227 0.049312 -0.060944 7 11 10
-0.083578 -0.029062 0.008256 241 213 171
0.042379 -0.017147 0.047756 170 180 182
-0.060499 -0.046619 -0.046744 122 88 83
0.003355 -0.068243 0.084256 151 161 163
-0.045817 -0.006423 -0.016944 255 255 244
0.067926 0.017942 0.012656 82 106 80
0.037783 0.065069 -0.022544 175 171 164
0.032827 0.026761 -0.023044 73 38 0
-0.126300 -0.052856 -0.005344 110 117 113
-0.002788 0.002341 0.105556 144 153 157
0.071366 -0.015692 0.009056 183 192 190
0.071326 0.009738 0.018856 178 184 183
-0.016225 0.006816 0.102456 151 160 164
-0.130086 0.030998 -0.002244 119 120 112
-0.070469 0.047823 -0.029444 52 47 37
-0.030614 -0.107292 0.068656 131 140 139
0.011764 -0.099388 0.066856 139 148 146
-0.006578 0.077338 0.054956 142 157 163
-0.066598 -0.032191 -0.052044 184 190 183
-0.136421 0.059100 -0.000244 87 87 76
0.085795 0.018376 -0.033644 162 162 163
0.056859 -0.000028 0.035356 173 181 183
-0.128633 -0.007044 -0.005944 126 127 124
0.027583 -0.008469 0.069656 160 168 170
0.019547 -0.002948 0.079056 146 156 158
-0.033307 -0.025288 -0.025244 236 204 146
0.034396 0.073105 -0.001244 8 15 11
0.042058 -0.021645 0.047756 175 183 185
0.067250 -0.031253 0.014256 182 191 189
-0.065949 -0.049477 -0.054344 148 101 0
0.007154 -0.047835 0.084556 157 165 167
0.055622 0.001178 0.036256 174 183 182
0.029818 -0.063372 0.053856 165 176 175
0.012845 0.096201 0.104856 74 82 84
0.082365 -0.032978 -0.005144 186 190 189
0.079074 -0.045722 -0.004644 184 188 187
0.075009 -0.066229 -0.005144 172 176 175
0.069112 -0.039288 0.009856 185 191 190
-0.067598 -0.009013 -0.035044 97 91 79
0.060513 -0.063670 0.014156 176 182 181
-0.061660 0.029142 -0.037744 182 183 175
0.102279 0.001664 -0.021344 192 190 190
0.062345 0.011416 0.029456 174 182 184
-0.074118 0.016962 -0.050844 113 95 76
-0.127145 -0.028770 -0.007144 117 123 122
-0.027542 -0.104574 0.069656 133 142 141
-0.090273 -0.023010 -0.006544 128 122 110
0.073172 0.046298 -0.062544 63 110 149
-0.080389 -0.030010 0.009156 241 213 171
-0.054654 -0.037287 -0.040844 120 59 8
0.100143 -0.009030 -0.022744 187 187 187
-0.020274 0.013467 0.096556 144 155 159
0.061603 0.035573 -0.068544 12 13 10
-0.041670 0.050434 0.001056 55 42 22
-0.122428 0.064376 0.008356 100 104 103
0.085304 -0.062379 -0.015644 172 176 175
0.028595 0.104056 0.089256 102 111 110
0.113282 -0.008557 -0.033644 185 181 181
0.076784 0.023598 -0.030244 141 131 122
-0.030890 -0.005268 0.082456 149 158 162
-0.127525 0.072952 0.007256 91 91 85
0.020671 -0.062194 0.064656 159 169 171
-0.063038 -0.049135 -0.051444 160 100 45
-0.040051 0.018175 -0.004344 70 78 71
-0.051872 -0.010686 -0.020644 79 88 87
0.012324 -0.053045 0.076056 161 167 167
-0.130134 -0.009043 -0.007744 128 127 124
0.077400 0.047505 -0.059744 65 124 163
-0.026394 0.017739 -0.006144 82 43 7
-0.070481 -0.042255 -0.057644 161 136 16
-0.053981 -0.049495 -0.043444 255 255 233
-0.133765 0.040312 -0.002744 118 117 109
-0.129983 -0.070861 -0.015044 169 173 172
-0.075564 0.013556 -0.039244 37 68 75
0.086992 -0.006583 -0.005744 186 190 189
0.063573 -0.078580 0.005856 161 168 164
-0.030650 -0.032126 -0.024244 52 58 57
0.070412 0.023598 -0.031344 135 144 155
-0.030937 -0.062050 0.076856 164 173 177
0.009321 0.073118 0.074456 140 155 161
-0.136214 0.000997 -0.009244 135 135 129
-0.091575 -0.023109 -0.005944 158 144 113
-0.073233 0.025375 -0.042344 101 65 26
0.097749 0.055671 -0.048444 118 120 132
0.063749 0.037106 -0.069144 50 80 90
-0.071662 0.042705 -0.045644 101 52 13
-0.127662 0.006778 -0.002544 128 129 126
0.112685 0.002609 -0.032844 185 185 186
-0.013922 0.115525 0.088956 32 43 42
0.104449 0.012030 -0.021544 180 180 180
0.103624 0.005013 -0.022844 186 186 186
-0.075333 0.011587 -0.040744 52 82 92
-0.123244 0.015014 0.000456 122 124 118
-0.126046 0.000017 -0.003044 123 128 124
0.022200 0.004429 0.076056 143 152 156
0.080847 -0.011931 -0.001344 187 193 192
-0.068633 -0.033426 -0.054144 226 226 220
0.052362 0.041330 -0.034044 25 75 93
0.081883 0.054193 -0.057144 92 101 105
0.037729 0.080273 -0.008744 10 16 9
0.084846 -0.005550 -0.002444 186 191 187
-0.076030 0.009653 -0.022344 199 189 173
-0.126001 -0.039096 -0.007944 112 118 117
-0.004445 0.004413 0.106256 150 158 165
-0.074193 -0.038732 -0.060844 190 182 61
0.029789 -0.008029 0.067656 159 168 172
0.032038 -0.022304 0.059556 173 181 183
0.066653 0.047521 -0.062444 40 77 92
0.064458 0.029005 -0.066744 38 40 34
-0.125234 -0.008128 -0.003744 123 127 126
-0.048780 -0.036279 -0.019744 95 96 88
0.086423 -0.061384 -0.017344 172 176 175
-0.067956 0.051964 -0.028544 60 58 44
-0.046384 -0.041364 -0.032244 53 15 0
-0.026245 0.012481 -0.007044 72 43 22
-0.034874 -0.019275 -0.025544 179 133 71
0.103272 -0.057559 -0.034544 169 167 167
-0.041895 -0.041652 -0.027344 151 91 17
-0.110156 0.021162 -0.010444 108 113 109
0.085769 0.015548 -0.033144 200 200 200
-0.075653 -0.029551 -0.058744 120 90 53
0.094053 -0.001241 -0.013144 188 189 186
0.018272 0.054702 0.095556 119 129 131
0.046473 0.009940 0.050156 162 172 174
0.034407 0.023589 -0.003244 84 54 22
0.011453 -0.113901 0.061756 122 131 130
-0.071871 -0.001652 -0.052444 122 67 0
-0.138877 0.041045 -0.004544 99 97 83
-0.005328 0.046516 0.110456 138 150 158
-0.063157 -0.050812 -0.052344 161 103 43
-0.052247 0.048137 -0.007744 97 77 92
-0.131843 -0.023636 -0.009744 120 125 121
-0.039476 0.067694 0.012156 177 136 85
-0.018809 0.020786 0.098456 144 154 161
0.042860 -0.084275 0.032256 157 166 164
-0.082420 -0.006652 -0.020444 111 95 64
0.102611 0.006777 -0.020644 185 185 185
-0.018255 0.076386 0.059856 124 138 141
0.017836 -0.007088 0.080756 149 159 161
0.046134 -0.052614 0.034656 175 184 183
0.094316 -0.066258 -0.026344 169 169 169
0.056068 0.023116 -0.028444 111 153 166
0.005922 -0.056988 0.081656 159 167 169
-0.112211 0.060313 -0.034044 104 110 110
-0.133110 0.027586 -0.005144 122 121 113
-0.034956 0.017892 -0.002544 73 72 55
-0.130767 0.082051 0.007456 95 99 98
-0.046392 -0.043698 -0.034844 133 63 0
-0.025444 0.076300 0.066656 115 128 134
-0.073002 0.056220 -0.043544 87 74 59
-0.037682 -0.000475 -0.002244 167 153 131
-0.123167 0.070975 0.008656 97 98 95
0.033078 0.027425 0.066156 140 150 152
-0.014414 -0.094158 0.083656 137 147 149
0.060905 -0.051087 0.015956 181 187 186
0.081355 0.018451 -0.043244 112 73 57
0.101897 -0.065529 -0.033244 166 165 162
0.051607 0.040055 -0.026144 0 8 3
0.073432 0.027276 -0.041844 157 164 168
0.073196 -0.065490 -0.003044 172 176 175
-0.046077 0.054258 -0.004944 246 198 108
-0.023535 -0.039055 0.084256 167 177 179
0.107206 -0.039059 -0.035044 184 180 180
0.033136 0.069501 0.078256 111 120 119
0.040737 -0.099999 0.033356 139 145 145
0.023074 -0.102533 0.052756 136 145 144
0.029879 -0.052555 0.054256 167 177 179
-0.055223 0.047906 -0.003944 65 51 81
0.051688 0.044753 -0.039244 201 195 193
-0.073418 -0.042290 0.015456 255 255 234
0.012806 0.072543 0.104156 101 111 113
0.083746 0.026187 -0.053644 11 11 12
-0.059526 0.043031 0.003956 199 171 161
-0.136011 0.068086 0.001856 77 80 72
0.111866 0.014490 -0.030344 182 180 180
-0.024152 -0.065170 0.082756 158 168 170
0.074143 0.049702 -0.061344 66 111 148
0.111191 -0.012482 -0.034644 184 182 183
0.019319 -0.011707 0.076556 155 163 165
0.036043 -0.042029 0.049956 174 183 182
0.003696 0.006767 0.100156 137 146 150
0.108732 0.012920 -0.028044 178 176 176
-0.039963 -0.040333 -0.027044 149 86 13
0.081851 -0.071135 -0.013644 168 168 168
-0.034204 -0.000374 0.081956 144 153 157
0.111956 -0.000836 -0.035044 182 180 180
0.015156 0.071669 0.102456 102 112 114
0.074107 -0.005134 0.011656 183 189 189
0.077694 -0.027069 0.001556 190 194 193
0.078756 0.048093 -0.058844 51 102 149
-0.069734 0.038855 0.018456 138 115 90
0.069731 -0.022514 0.013156 186 195 194
0.069713 0.060849 -0.032544 15 57 78
-0.010350 -0.099021 0.086256 134 145 144
0.016067 0.098707 0.103856 76 84 86
-0.138469 0.049837 -0.003144 97 94 84
0.010490 -0.029423 0.083056 160 168 170
-0.004193 0.117361 0.081656 46 55 54
-0.130301 -0.003005 -0.006744 129 130 127
-0.062151 0.029410 -0.038944 110 103 80
-0.027827 -0.024776 0.081956 152 161 165
0.111076 0.012909 -0.030344 179 175 175
0.087090 -0.010226 -0.007544 185 189 188
0.056770 -0.062758 0.018956 174 183 181
0.048984 -0.006063 0.043456 175 183 185
0.053915 0.047154 -0.043244 148 141 142
-0.057669 0.055388 -0.004444 198 168 138
-0.012071 -0.064709 0.090856 156 166 168
0.017577 -0.001127 0.082156 142 152 154
-0.076096 0.014396 -0.029344 81 121 159
-0.111668 0.054076 -0.032944 95 95 89
0.105627 -0.052624 -0.035744 174 173 170
-0.066373 0.081225 -0.009544 74 83 87
-0.057458 0.039588 0.009756 96 73 64
-0.068420 -0.050290 -0.057044 208 186 0
0.024364 0.020043 0.079056 132 144 146
-0.124022 0.038537 0.003056 116 119 111
-0.035413 -0.046012 -0.024244 124 57 0
0.109780 -0.025824 -0.035544 189 188 185
0.078677 0.004043 0.007556 183 189 188
0.095149 -0.036836 -0.021544 186 186 186
-0.004471 0.008620 0.108756 155 163 165
0.012984 -0.038464 0.080756 158 167 171
0.087727 0.013727 -0.032044 189 188 185
0.099792 0.007337 -0.017544 182 182 182
0.071574 0.058894 -0.037344 20 59 81
0.056346 0.039730 -0.040544 25 76 96
0.047150 0.051629 -0.035544 181 176 171
0.071333 -0.001234 0.015656 181 190 189
0.061692 -0.038752 0.018856 182 191 190
0.003985 -0.089351 0.079056 145 154 153
0.081278 -0.063524 -0.011144 178 178 178
-0.075371 -0.036183 -0.061244 116 112 100
-0.080212 0.074438 -0.012444 94 100 82
0.067963 0.066739 -0.029044 21 65 91
-0.076445 -0.030508 -0.047244 58 54 40
0.015213 0.036259 0.091456 124 133 137
-0.072871 0.076951 0.000656 69 55 45
0.056728 -0.039828 0.024756 181 190 189
-0.059993 -0.037471 -0.044444 133 77 30
0.036999 0.069978 -0.015544 8 7 4
-0.063120 0.004772 0.005456 255 255 237
-0.029997 -0.006865 -0.020444 40 50 38
0.077382 -0.054591 -0.005144 178 182 181
0.094304 -0.017754 -0.018844 190 190 190
-0.057978 -0.046319 -0.046644 134 74 12
-0.075515 -0.043220 0.012856 209 182 135
0.043055 0.029861 -0.037844 18 22 11
-0.071255 0.060601 -0.042944 90 48 0
0.088991 -0.049973 -0.015744 182 183 180
-0.067168 0.012936 0.002356 168 148 134
0.052982 -0.070918 0.022756 168 174 173
0.066797 -0.086807 0.005056 151 155 154
0.099432 0.010413 -0.017144 180 181 178
-0.136106 -0.026089 -0.012544 127 126 123
-0.073867 -0.021770 -0.057444 135 75 1
0.076593 0.012084 0.012456 177 183 182
0.028868 0.096000 0.091456 102 111 110
0.041233 0.046772 -0.017544 0 5 1
0.028934 -0.070027 0.050156 161 170 169
-0.077738 -0.033253 0.014856 245 216 176
0.077954 0.004045 0.007656 187 193 192
0.068209 -0.043061 0.008356 182 188 187
