ply
format ascii 1.0
element vertex 1239
property float x
property float y
property float z
property uchar blue
property uchar green
property uchar red
end_header
-0.070436 -0.038453 0.092592 74 85 77
0.016599 -0.013941 0.019292 94 107 106
-0.101295 -0.095163 0.102492 74 81 77
-0.094750 -0.094626 0.096292 69 76 72
-0.108803 -0.033592 0.137092 44 55 47
0.001860 -0.058650 0.013792 102 112 107
0.029574 -0.012717 0.007992 94 110 108
-0.103127 -0.055990 0.068692 5 15 10
0.026265 0.047426 -0.058508 15 56 59
0.059204 0.014218 -0.060208 178 182 181
0.025871 0.044875 -0.054308 30 80 84
-0.119203 -0.051148 0.130892 55 55 49
-0.063503 -0.066226 0.072592 81 93 88
0.108450 0.035190 -0.012908 168 161 170
-0.072303 0.034392 0.017692 41 87 88
-0.058088 0.055845 -0.019808 29 79 76
0.028320 0.052734 -0.054908 5 29 29
-0.052279 0.042237 0.004892 36 85 85
-0.041251 0.062066 -0.032608 35 77 78
0.073344 0.004853 -0.035308 94 104 99
0.042675 0.012551 0.007092 89 102 101
0.026333 -0.011116 0.011792 95 111 109
0.025930 0.017172 0.023992 75 88 87
-0.026228 0.037914 0.018392 21 65 66
-0.066031 -0.069801 0.075092 84 92 85
-0.007222 0.056167 -0.017608 37 87 91
-0.058785 0.043963 0.000592 37 82 80
0.079728 0.001694 -0.043108 99 104 100
-0.086894 0.026155 0.033992 37 81 82
0.052981 -0.014630 -0.014108 105 114 112
-0.074604 0.037104 0.011792 43 86 84
-0.088038 0.022605 0.046092 37 81 82
0.004928 -0.040355 0.017992 105 114 112
-0.155207 -0.057031 0.078592 74 80 73
-0.014616 0.061111 -0.029308 42 87 90
-0.145105 -0.051836 0.085692 62 69 60
-0.017776 0.057966 -0.023608 43 88 91
-0.050140 0.061845 -0.028408 34 69 69
0.088369 0.003669 -0.050708 104 106 100
-0.083156 -0.033433 0.106592 62 69 65
0.071547 -0.024899 -0.049208 108 115 106
-0.024249 0.058522 -0.026808 43 87 88
-0.142705 -0.089225 0.075092 72 76 65
0.073597 -0.023634 -0.050708 112 118 111
0.006921 0.022905 -0.006008 29 79 83
0.085280 -0.004950 -0.052308 116 117 109
0.083040 -0.011239 -0.053608 116 117 109
-0.007430 -0.027822 0.034992 93 106 104
-0.054398 0.032688 0.031192 34 82 84
-0.076021 0.047299 -0.005008 39 82 80
0.057541 -0.032396 -0.025208 109 119 114
0.023215 -0.025660 0.007992 98 111 109
-0.152193 -0.056155 0.081692 70 76 69
0.053720 -0.013086 -0.013908 101 112 110
-0.158901 -0.032269 0.080792 72 78 71
0.064215 0.014823 -0.021108 94 105 104
0.083932 -0.018687 -0.058808 109 109 103
-0.002603 0.055357 -0.013608 40 88 92
0.030787 0.035751 -0.033908 44 93 100
0.052902 0.021705 -0.076708 180 184 183
-0.031164 0.061114 -0.031208 39 86 84
-0.100545 0.029720 0.026092 32 73 76
0.036925 -0.026251 -0.004508 103 114 112
-0.112815 -0.074547 0.059292 100 103 95
0.086628 -0.010751 -0.057008 115 111 104
-0.115629 0.013771 0.058792 21 65 66
0.052953 -0.038295 -0.024008 109 116 112
0.005896 0.046162 -0.005708 21 64 69
-0.115461 -0.099621 0.097792 77 83 76
0.010560 -0.039676 0.013392 99 110 108
-0.024463 0.050541 -0.007008 41 91 95
0.041995 0.008185 0.005992 93 106 104
-0.153429 -0.060209 0.076692 72 79 70
0.044441 -0.015030 -0.007008 103 116 114
-0.079028 -0.028475 0.105692 59 70 62
-0.015218 -0.006655 0.051292 82 93 91
0.021958 0.041085 -0.047108 41 93 97
-0.137711 -0.020353 0.078192 19 59 58
0.056052 0.015496 -0.003908 91 104 103
-0.031586 0.010418 0.020092 20 65 68
-0.105859 -0.070211 0.119092 63 71 64
0.093697 -0.005187 -0.061108 117 113 106
0.020829 0.048245 -0.062508 28 71 74
0.047112 -0.004127 -0.004508 96 112 110
-0.138678 -0.026188 0.076692 24 68 64
-0.092965 -0.101180 0.092092 72 81 72
-0.107273 -0.029530 0.091292 31 75 71
-0.009653 0.028153 0.004992 25 70 73
0.088995 -0.015280 -0.061708 113 111 105
-0.008927 0.053759 -0.012008 37 87 89
-0.018023 0.061012 -0.031108 43 84 87
0.073482 -0.001741 -0.039008 98 105 101
-0.040207 -0.047463 0.053992 77 87 82
-0.071758 -0.086996 0.075092 85 93 86
0.029827 0.006706 0.016492 89 102 101
0.007300 0.022525 -0.006008 33 85 89
0.016924 0.047100 -0.060508 40 85 88
0.078250 -0.023710 -0.055308 110 111 108
-0.009246 -0.009492 0.045692 85 98 97
-0.138668 -0.051884 0.095792 58 64 57
-0.050968 0.047954 -0.004708 39 85 86
-0.092990 -0.032684 0.119692 61 68 64
-0.030685 -0.065697 0.035792 90 101 93
-0.056750 -0.066163 0.065792 84 95 87
0.085169 -0.021003 -0.060008 111 111 105
0.084366 -0.015210 -0.056808 116 115 107
0.035571 -0.025758 -0.003108 105 116 114
0.068685 0.016260 -0.063408 180 182 176
0.007994 0.002578 0.034192 83 96 95
-0.146540 -0.034523 0.086192 62 72 67
0.033352 0.000236 0.009792 94 107 106
0.072242 0.011942 -0.075508 113 90 38
-0.013301 0.041210 0.009292 23 68 73
-0.004904 0.010370 0.014992 51 98 105
0.010996 0.043803 -0.009908 18 63 68
0.108757 0.035046 -0.012708 163 156 165
-0.013500 0.051346 -0.006208 37 86 93
0.061161 0.014642 -0.060808 185 186 183
0.016823 -0.033916 0.009692 101 112 110
0.011462 -0.009181 0.025392 94 107 106
-0.005224 0.023618 0.002192 25 70 73
0.078643 0.018035 -0.070008 159 153 141
0.045320 -0.027819 -0.012508 103 114 112
0.053638 0.017577 -0.068008 179 184 180
-0.082442 0.027153 0.033792 38 81 79
0.053763 0.020706 0.000492 85 96 94
0.035024 0.015952 0.015192 83 96 95
0.060290 0.020045 -0.072408 180 182 176
0.038024 -0.032670 -0.008108 102 114 109
-0.023668 0.063484 -0.035508 44 87 85
0.017243 0.047992 -0.062608 34 82 84
-0.106500 -0.059365 0.125692 66 73 69
-0.160692 -0.036848 0.083392 74 81 72
-0.025951 0.021135 0.016192 18 62 63
-0.003669 -0.050107 0.021992 99 110 108
0.021453 -0.028188 0.008592 102 113 111
-0.007240 0.045278 0.004592 21 64 69
-0.065707 -0.074444 0.071992 79 91 86
-0.109189 -0.087801 0.113092 51 57 50
0.081040 -0.021242 -0.057208 113 113 107
-0.012926 0.033708 0.007692 21 66 71
0.001813 -0.054102 0.014892 103 114 112
-0.110692 -0.066610 0.124692 44 49 45
0.077783 -0.016311 -0.051108 112 114 108
0.039099 -0.015550 -0.001908 75 86 84
-0.008156 0.052074 -0.006308 35 87 91
0.046495 0.015086 0.004792 89 100 99
-0.107012 0.025207 0.039392 23 67 68
-0.106876 0.016953 0.054392 21 65 66
0.019003 0.048390 -0.062808 35 79 80
0.007001 0.036015 -0.007108 21 69 73
-0.139218 -0.081242 0.081892 62 72 60
-0.018991 -0.032944 0.043092 91 104 102
-0.129066 -0.044338 0.113392 56 63 54
-0.154912 -0.037822 0.087292 74 80 73
0.025547 0.038654 -0.040908 48 97 104
0.008174 -0.042476 0.014292 101 111 106
0.024784 0.042313 -0.049308 43 92 99
-0.012503 0.035189 0.007692 20 65 70
0.048810 -0.033932 -0.018008 108 118 113
-0.039329 0.059110 -0.027608 41 87 83
0.090524 -0.000290 -0.054908 110 110 104
0.013686 -0.016923 0.020292 99 112 111
-0.141418 -0.001813 0.076892 20 56 54
-0.026419 -0.053388 0.040092 84 95 93
-0.029848 0.064550 -0.037208 42 84 92
0.017459 0.018881 -0.000308 47 98 105
-0.091114 0.088499 0.010792 56 69 61
-0.045503 -0.048690 0.060892 73 84 76
-0.104196 -0.051743 0.068892 2 12 7
0.047505 0.020629 -0.075008 178 184 183
0.097219 0.010188 -0.056508 98 98 92
-0.139949 -0.083853 0.077792 72 76 65
-0.101609 0.015823 0.060392 28 69 72
0.027026 0.028703 -0.019008 43 98 106
0.061981 -0.012114 -0.032808 102 112 107
0.065911 0.003858 -0.028108 95 106 104
0.066005 0.019791 -0.074408 121 117 130
0.075781 -0.022869 -0.052408 110 112 106
0.021135 -0.034376 0.005792 104 114 109
-0.078700 0.034549 0.015492 45 85 84
0.009717 0.026676 -0.008308 28 73 78
0.090944 -0.011877 -0.061808 114 112 106
0.020102 -0.007650 0.018792 93 106 105
0.092090 0.007265 -0.053008 98 98 92
0.026072 0.044480 -0.053308 32 81 88
0.025036 0.030173 -0.019408 28 76 85
0.032187 0.004508 0.012892 89 105 103
0.069158 0.035712 -0.061108 169 166 163
0.093111 -0.010768 -0.063008 109 110 102
0.035713 0.006000 0.010392 92 105 104
0.026345 -0.040264 -0.002008 103 112 110
-0.034855 0.051123 -0.008808 40 86 87
-0.048263 -0.063749 0.055392 86 99 91
0.022998 0.049054 -0.062308 3 41 47
0.069226 -0.019278 -0.044108 105 112 108
-0.039408 -0.041090 0.055492 87 99 94
0.069673 0.014389 -0.073908 100 96 96
0.062377 0.016007 -0.017008 91 104 103
0.070573 -0.019067 -0.045208 107 114 110
-0.021474 0.056601 -0.021308 41 89 91
-0.104546 -0.087388 0.076492 0 3 1
-0.083527 -0.012567 0.053192 31 77 78
0.015842 0.023920 -0.010308 47 101 107
0.074222 -0.018156 -0.048208 112 115 107
0.048005 -0.037322 -0.019108 109 119 114
-0.093423 0.085707 0.015192 49 62 60
0.045490 -0.010241 -0.005608 98 111 110
-0.041414 0.057898 -0.025308 44 83 85
-0.113983 -0.080983 0.055392 70 77 73
-0.019361 -0.066565 0.029192 100 108 101
0.055177 -0.025567 -0.020608 109 118 116
-0.030871 0.051433 -0.009608 38 86 88
0.100296 0.016358 -0.055908 89 84 79
0.015943 -0.032324 0.011292 100 111 109
-0.035406 0.055022 -0.019308 40 86 87
0.039799 -0.036403 -0.011008 109 115 114
0.005543 -0.033669 0.020492 101 112 110
-0.055979 0.053320 -0.015908 38 83 81
-0.080416 0.037010 0.011192 44 84 83
0.047737 0.001939 -0.001908 96 109 108
-0.025053 0.052069 -0.010508 36 87 87
0.007728 0.048857 -0.065408 45 88 91
0.058258 -0.009386 -0.016908 109 118 116
-0.084180 0.007461 0.055892 8 46 45
0.075155 -0.005809 -0.042508 104 112 105
0.035919 0.015060 0.014392 85 98 97
0.093022 -0.000657 -0.058108 114 112 106
-0.038408 0.037579 0.025492 37 79 80
-0.141219 -0.043721 0.096792 48 58 53
-0.020896 0.058949 -0.026908 47 92 95
-0.020274 0.051056 -0.005908 34 84 88
0.066179 -0.000512 -0.030708 73 83 78
0.009280 0.044857 -0.055708 50 98 102
0.093690 0.007444 -0.054608 103 104 96
0.090306 0.004315 -0.052608 109 110 102
-0.044000 0.049547 -0.004508 34 80 81
0.019956 0.016493 0.028892 62 78 76
-0.035737 -0.006010 0.065592 61 74 72
-0.112898 -0.013610 0.069792 16 55 57
-0.084175 -0.011953 0.052892 32 79 77
0.044639 0.019114 0.008192 87 98 97
-0.035744 0.040022 0.018692 39 87 89
0.070986 -0.005422 -0.038008 101 111 106
-0.055780 0.050995 -0.011608 39 82 80
0.011943 0.046516 -0.060208 42 92 96
0.092062 -0.005590 -0.059508 115 110 105
-0.044460 -0.006307 0.042092 38 83 86
-0.063889 0.031084 0.030092 35 81 82
-0.054551 0.054695 -0.017408 33 77 78
-0.007519 0.035703 0.004192 24 69 74
0.026852 0.043751 -0.052208 38 86 90
0.011202 0.039921 -0.010008 20 65 70
0.041007 -0.044563 -0.016708 107 114 110
0.094621 -0.004468 -0.061108 115 113 107
0.041200 0.023868 0.012992 73 86 85
-0.038223 0.048935 -0.000308 11 59 61
-0.041736 -0.018206 0.067692 73 84 82
-0.035341 0.062362 -0.032608 43 86 84
0.000406 -0.006502 0.037592 89 100 98
0.060633 -0.020346 -0.023608 98 109 107
-0.109267 0.027347 0.032992 22 62 61
0.001836 -0.030337 0.025592 67 78 76
-0.141505 -0.068122 0.086192 49 57 50
0.028592 0.021643 0.022992 59 75 73
0.036958 -0.011755 0.001492 96 109 108
-0.026400 0.061370 -0.031608 41 84 87
-0.027628 0.056745 -0.022608 42 87 85
-0.034225 -0.066929 0.039292 90 101 93
0.034561 0.018667 0.016592 77 90 89
0.093293 -0.008384 -0.061908 112 110 104
-0.028142 0.062591 -0.033608 40 83 81
0.059308 -0.037677 -0.029808 110 117 113
0.066847 0.018881 -0.069208 152 151 148
0.087061 -0.010746 -0.057308 118 117 109
-0.116119 -0.057723 0.116292 63 68 64
-0.050290 0.051301 -0.011208 33 80 78
0.062395 -0.028466 -0.041908 108 114 107
0.060749 0.019739 -0.014208 40 53 52
-0.018342 0.006765 0.019292 41 91 95
0.080503 0.018123 -0.070008 161 151 142
0.068828 0.007045 -0.029108 96 107 106
-0.059908 0.046584 -0.004808 37 81 82
-0.036729 -0.029024 0.056692 84 95 93
0.008436 0.041365 -0.007608 19 63 71
0.014078 0.049064 -0.065208 41 86 89
-0.134285 -0.017051 0.081892 17 60 58
-0.001894 -0.058133 0.017092 102 112 107
-0.049403 0.058783 -0.026208 44 83 85
0.063492 -0.025852 -0.041808 106 114 107
-0.138833 -0.005002 0.079892 13 53 52
0.050729 -0.028410 -0.017708 110 119 117
0.018656 0.046819 -0.060008 38 83 88
-0.030947 -0.029879 0.052092 59 70 68
-0.108192 0.008729 0.069292 11 44 44
0.022045 0.040015 -0.044008 42 92 101
-0.034188 0.054086 -0.016208 42 86 87
0.001044 -0.017593 0.032392 91 104 102
-0.116527 -0.036170 0.137492 36 44 37
-0.090101 -0.006531 0.054892 20 64 65
0.074010 -0.003655 -0.040308 99 106 102
0.071456 0.010805 -0.030708 94 103 101
0.078139 0.010143 -0.037308 88 98 93
0.068448 -0.023832 -0.045408 108 114 107
0.077436 0.007277 -0.038208 90 99 97
-0.055277 0.033416 0.028892 39 84 87
-0.153363 -0.021887 0.072592 24 63 60
0.000675 0.032368 -0.002108 25 70 75
-0.137335 -0.026964 0.078892 22 65 63
0.062922 -0.000703 -0.027708 64 75 74
0.065609 -0.000309 -0.030108 71 82 80
-0.019874 0.011752 0.013392 23 71 75
-0.072729 -0.000943 0.047292 19 57 61
0.077293 -0.009133 -0.046308 106 111 107
0.031623 -0.030829 -0.001508 103 114 112
0.068892 -0.025502 -0.047108 108 114 107
0.008259 -0.001322 0.032692 86 99 97
0.006614 -0.006015 0.032092 91 102 101
0.092671 -0.008421 -0.061808 116 111 106
-0.102204 0.023106 0.045092 21 67 68
-0.112750 -0.063142 0.128892 39 48 39
-0.148531 -0.016875 0.070792 25 64 61
0.084197 -0.021268 -0.059908 116 114 108
0.090786 -0.004191 -0.057408 116 114 108
0.071316 0.016644 -0.064008 176 175 167
-0.015382 0.054226 -0.014808 41 89 91
-0.062920 0.044475 -0.001508 48 93 91
0.090952 -0.004133 -0.057608 118 116 110
0.072233 0.011855 -0.075408 128 103 51
0.065642 -0.028936 -0.045408 106 114 107
0.021171 -0.040360 0.003692 107 116 114
0.013518 0.034347 -0.011508 21 66 71
-0.045745 -0.072795 0.049392 88 98 93
-0.108842 -0.045730 0.102992 11 20 11
-0.054093 0.048921 -0.007408 40 85 83
0.045707 0.023157 0.008292 80 91 90
-0.002860 -0.055207 0.018992 102 111 109
-0.118058 0.023611 0.038892 23 66 69
0.033110 0.001837 0.010992 92 108 106
-0.101548 0.019715 0.050492 30 71 68
-0.092818 -0.094933 0.094792 67 74 70
0.011345 -0.042844 0.011492 103 113 108
-0.017437 0.002628 0.054992 55 68 67
0.072291 0.015706 -0.074408 101 92 87
0.082748 0.000858 -0.047108 107 109 103
-0.025784 0.007760 0.017892 41 91 95
-0.002550 -0.047145 0.022192 99 110 108
-0.135261 -0.052683 0.101992 68 75 66
-0.106681 -0.079944 0.117192 46 53 49
-0.008648 0.057496 -0.020308 39 87 89
-0.122632 -0.080150 0.060492 71 76 72
-0.143951 0.000145 0.076492 15 50 50
0.087189 -0.012310 -0.058008 115 113 107
0.093772 0.008469 -0.053508 95 97 91
-0.117000 -0.093573 0.102192 79 78 75
-0.077186 0.039459 0.007892 40 80 79
-0.065805 0.031996 0.024892 39 85 86
-0.007790 0.051796 -0.004708 32 84 88
0.028644 0.044295 -0.052608 29 78 85
0.025283 -0.031493 0.003592 105 117 112
0.063619 0.018713 -0.069008 178 180 174
-0.083915 0.009777 0.055492 7 46 43
-0.113699 -0.087916 0.104892 68 76 69
-0.007111 -0.031535 0.032892 92 105 103
-0.147146 -0.064257 0.077192 69 76 67
-0.027923 -0.021547 0.055492 35 46 44
-0.139891 -0.043987 0.097792 52 61 52
0.007686 0.047684 -0.063208 46 91 94
-0.038210 0.039776 0.018592 38 86 88
-0.070192 -0.034185 0.092092 73 83 78
0.013005 0.015006 0.034592 56 71 72
0.018698 0.042760 -0.015608 21 64 69
-0.120548 -0.089308 0.088292 69 75 68
0.019335 0.044200 -0.054008 39 88 95
-0.035858 0.007713 0.023192 26 69 74
-0.004392 -0.028044 0.032092 93 106 104
0.097589 0.007478 -0.057808 104 101 98
-0.087249 0.024281 0.041692 41 85 86
0.089402 -0.010841 -0.059808 117 113 106
0.058022 0.001026 -0.011808 98 111 110
0.076776 -0.000693 -0.041608 101 106 102
0.002378 0.028319 -0.003308 26 71 76
0.061311 0.016055 -0.064008 181 183 177
0.074541 0.009788 -0.033808 95 99 98
-0.143753 -0.051605 0.092592 61 66 62
-0.102183 -0.013830 0.063192 24 63 65
-0.109745 -0.052293 0.071392 2 12 7
-0.157726 -0.051949 0.079892 77 77 71
-0.141562 -0.065668 0.080792 52 60 53
0.040901 -0.041930 -0.015108 111 116 112
0.007590 0.040700 -0.007208 21 66 71
0.048014 -0.026286 -0.014208 108 118 113
-0.017773 0.015945 0.013092 11 52 55
0.063457 -0.022192 -0.039808 110 111 108
-0.047769 0.045767 0.000592 33 82 82
-0.114530 -0.025552 0.073592 28 69 72
0.090007 -0.005511 -0.057708 114 112 106
-0.013852 -0.040660 0.035992 98 109 107
-0.102262 -0.076332 0.052492 50 57 53
-0.020292 0.013966 0.012792 20 63 66
0.013337 0.045587 -0.011508 15 58 63
-0.039434 -0.010179 0.067292 65 77 72
0.004194 -0.019624 0.028092 92 105 104
0.077577 -0.009230 -0.047208 107 113 106
0.067097 0.016543 -0.064208 180 182 176
-0.094124 0.030442 0.023692 36 78 79
-0.007899 0.052862 -0.008008 34 86 88
-0.026067 -0.042659 0.044892 55 64 62
-0.005509 -0.026914 0.033492 93 106 104
-0.011449 -0.057366 0.025892 101 111 106
-0.124876 0.004404 0.080792 19 56 58
-0.096521 0.029460 0.025892 39 81 82
0.057541 -0.032077 -0.025208 110 121 113
0.006476 -0.018031 0.026392 92 105 104
-0.029637 0.055038 -0.018808 42 85 88
0.061420 -0.025156 -0.039308 106 111 107
-0.028173 0.064174 -0.036608 44 88 84
0.022647 -0.018267 0.011592 94 107 105
0.009547 -0.046681 0.011792 103 114 112
-0.086494 -0.058200 0.101192 64 76 71
-0.114190 -0.073673 0.116892 59 66 57
0.083696 0.000863 -0.047808 108 110 104
0.079185 -0.019950 -0.054308 112 114 108
0.054160 -0.002339 -0.009908 99 110 109
0.013578 0.043881 -0.011808 19 64 69
-0.019826 -0.065765 0.030492 103 111 104
-0.015570 0.030814 0.010192 27 68 71
0.028659 0.018081 0.021692 73 86 85
0.084582 -0.001712 -0.050108 108 110 104
-0.057978 0.034109 0.024592 39 85 86
-0.027290 0.060266 -0.029808 43 85 86
-0.139293 -0.017137 0.076292 23 63 62
0.020990 0.038444 -0.017008 19 64 69
0.035623 0.025556 -0.012508 47 97 106
0.017981 0.044926 -0.055808 38 87 94
-0.027541 -0.052395 0.039592 88 98 93
-0.013718 0.052237 -0.008808 31 82 82
0.022645 0.049582 -0.063008 8 40 43
0.059934 -0.029633 -0.040708 83 85 79
-0.036002 -0.007721 0.064692 64 76 71
-0.060229 0.056453 -0.020408 27 72 70
0.094878 0.013724 -0.052408 89 89 83
-0.039734 0.057439 -0.023708 46 89 87
0.037028 0.027582 -0.016908 46 96 105
-0.022075 -0.029807 0.047492 94 105 103
-0.139576 -0.053173 0.094292 60 62 56
-0.060423 -0.011800 0.051892 38 82 83
0.027346 0.026912 -0.016708 40 95 103
0.019933 0.048725 -0.063308 34 78 79
0.011815 -0.010261 0.024692 94 107 106
-0.060098 0.050393 -0.011208 38 81 79
0.061704 -0.003368 -0.027608 98 107 105
-0.050984 -0.050371 0.065792 81 93 88
0.025284 0.012912 0.023092 81 92 91
0.081780 0.000690 -0.045508 101 107 100
-0.013581 0.038357 0.008892 23 66 69
0.026159 0.051808 -0.058508 4 31 30
0.100368 0.018031 -0.055708 88 86 80
-0.067291 0.043318 -0.000508 38 83 81
0.052962 -0.018308 -0.015408 107 116 114
0.016282 0.041606 -0.013808 21 63 71
-0.051777 0.050697 -0.010208 36 81 79
0.060396 -0.010457 -0.018908 99 110 109
0.041946 -0.023742 -0.008008 105 116 114
-0.029903 0.062990 -0.034808 45 88 86
-0.061348 0.046353 -0.004208 37 81 82
-0.089897 -0.041613 0.113092 62 72 67
0.093336 0.005114 -0.054908 106 106 100
-0.038153 0.005978 0.024492 26 72 73
0.011858 0.036524 -0.010508 21 66 71
-0.053013 -0.076567 0.056892 87 98 90
-0.136583 -0.084503 0.076492 73 76 68
0.080385 -0.010827 -0.050508 116 118 112
0.033965 -0.021920 -0.000308 98 111 110
-0.060311 0.055735 -0.019208 28 77 77
0.025869 0.046909 -0.058008 26 71 76
0.000105 0.012497 0.009592 52 101 108
0.075947 -0.004752 -0.042508 104 111 107
-0.112340 -0.044013 0.100592 79 82 74
0.054404 0.003634 -0.007108 97 110 109
0.084000 -0.005254 -0.051208 114 115 107
-0.085673 -0.042595 0.107892 72 80 73
0.072577 -0.006781 -0.040808 105 113 106
0.085236 -0.002861 -0.051308 112 115 107
-0.072987 0.025349 0.041792 33 79 80
0.003783 0.042881 -0.004208 18 63 68
0.023893 -0.030653 0.005292 102 114 109
0.021673 -0.032159 0.006592 105 116 114
-0.154605 -0.079578 0.074892 82 83 75
0.014572 0.047986 -0.063008 42 87 90
-0.105536 -0.012640 0.065292 23 63 62
0.053943 0.004511 -0.006408 100 113 112
0.091542 0.005929 -0.052508 104 105 97
0.014504 0.043044 -0.051908 44 94 98
0.027179 0.052335 -0.056508 2 28 29
-0.051050 0.034226 0.027492 35 85 87
-0.061381 -0.062451 0.073392 86 96 91
0.006168 -0.051067 0.012292 104 114 109
0.076934 -0.002059 -0.042108 105 110 106
-0.033795 0.058998 -0.027508 43 85 86
-0.136212 -0.038539 0.095792 47 58 50
-0.035222 -0.046228 0.048092 86 98 93
0.086228 -0.014978 -0.059008 114 112 106
-0.016857 0.045722 0.011292 31 79 83
-0.005354 0.042581 0.002592 19 64 67
0.073924 -0.024998 -0.051708 107 113 106
0.081284 -0.001246 -0.046608 102 107 103
0.093169 0.003244 -0.055808 107 107 101
0.058380 -0.038468 -0.029208 114 119 115
-0.121149 -0.073065 0.082792 74 76 70
0.027139 -0.037021 0.000592 105 116 114
0.067584 -0.027431 -0.046308 105 112 108
0.008083 0.047339 -0.062308 39 89 93
0.061062 0.007847 -0.021108 58 68 70
-0.045942 0.032190 0.031192 10 49 51
0.035966 -0.030792 -0.005708 106 117 115
0.060086 0.006310 -0.012308 50 62 64
0.071685 -0.013104 -0.043208 105 112 108
0.015388 0.045850 -0.058208 41 91 95
-0.033989 0.062591 -0.033608 45 85 84
-0.112340 -0.070266 0.121492 49 57 50
0.052498 0.017293 -0.000008 87 100 99
0.014231 0.045991 -0.058608 40 88 92
0.026239 0.040682 -0.046408 39 88 95
0.026915 0.044139 -0.052708 33 81 85
-0.103783 -0.082099 0.058592 16 23 14
-0.033788 0.002721 0.026392 36 86 90
0.024816 0.042034 -0.048708 39 88 95
0.090060 0.006447 -0.051008 103 104 96
-0.063163 0.046378 -0.004108 38 83 81
-0.078200 -0.014445 0.055992 31 78 76
0.027903 -0.024525 0.004292 101 112 110
0.004762 0.031589 -0.005008 21 69 73
0.091370 -0.006577 -0.059708 115 111 104
0.062036 -0.016149 -0.035208 105 111 110
0.072119 -0.025759 -0.050308 107 113 106
-0.049685 0.000195 0.032592 24 74 76
0.077479 0.000545 -0.041808 98 106 99
0.076143 0.003204 -0.038908 96 103 99
0.045796 0.004438 0.000992 94 107 105
-0.133891 -0.077893 0.085492 63 70 61
-0.007711 0.052645 -0.007508 36 88 90
0.003931 0.004344 0.038092 81 92 90
-0.075190 0.033773 0.018192 38 82 83
-0.038880 0.040533 0.016392 37 85 87
0.070112 -0.013419 -0.041908 104 112 105
-0.021100 0.018159 0.013692 16 60 61
-0.080211 -0.047970 0.098092 73 83 78
0.076730 -0.022210 -0.053008 110 113 105
-0.011899 0.023938 0.007192 22 70 72
-0.023070 -0.031374 0.047192 95 107 102
-0.046369 0.056872 -0.023508 39 82 80
-0.096140 0.022126 0.047792 22 66 67
-0.043958 0.061867 -0.031508 36 80 81
0.052074 0.015498 -0.000208 87 100 99
0.010874 0.045469 -0.057608 41 93 97
0.002053 -0.029167 0.025692 99 112 110
0.038388 -0.031350 -0.008608 103 114 113
0.070321 0.015670 -0.062008 176 176 170
0.038357 0.019716 0.013992 78 89 88
0.017703 0.011824 0.029292 71 84 83
0.094937 0.010677 -0.053908 97 95 89
-0.000979 -0.062803 0.014492 101 111 106
0.045728 0.025093 0.008592 77 90 88
0.091790 -0.014521 -0.063708 114 112 106
-0.040437 0.047520 0.000392 39 85 86
0.026721 0.049569 -0.058708 1 29 30
0.023016 0.025804 -0.013708 42 95 103
0.026103 0.045550 -0.055908 26 74 78
0.066418 0.013759 -0.058508 180 182 176
0.061031 -0.034877 -0.030208 104 111 107
0.016953 -0.032624 0.010292 100 114 109
-0.122367 0.012590 0.059492 26 65 67
0.069418 -0.004762 -0.036608 98 105 101
0.093002 -0.011809 -0.062908 107 105 99
-0.092238 -0.004924 0.055892 18 62 63
0.075373 -0.012105 -0.046108 111 112 109
-0.020960 0.062773 -0.034108 43 87 88
-0.125049 0.006291 0.075292 21 63 64
0.034141 -0.045119 -0.010008 105 115 110
0.003552 0.001028 0.037392 80 93 91
-0.019714 -0.022928 0.048692 93 106 104
-0.093446 -0.013482 0.057192 23 66 64
0.074526 -0.024537 -0.051908 109 111 105
-0.030770 0.057115 -0.023308 41 85 86
0.034035 -0.005425 0.007492 97 110 109
0.096069 0.002401 -0.058908 111 106 101
0.046023 -0.004837 -0.003708 95 111 109
0.063093 0.005805 -0.024108 95 106 105
-0.118076 -0.047601 0.100592 56 65 56
-0.020780 0.051891 -0.009908 37 87 89
0.024921 0.032120 -0.019908 22 68 77
0.028786 -0.008757 0.010792 94 106 108
-0.138399 -0.046896 0.096792 54 60 53
-0.149776 -0.085741 0.070792 79 83 72
0.085777 -0.010944 -0.056208 116 117 109
0.049402 -0.007841 -0.008108 99 112 111
-0.042513 0.065390 -0.034908 30 61 61
-0.069998 -0.024797 0.097492 61 72 64
-0.140409 -0.066899 0.080592 52 60 53
-0.060265 -0.021599 0.089192 64 75 67
0.094416 0.006317 -0.055508 104 104 98
-0.032631 -0.006904 0.062892 37 49 44
-0.039907 0.037185 0.026092 40 82 83
0.046159 -0.023259 -0.011108 103 114 112
0.030210 -0.011020 0.007992 96 109 107
0.004733 -0.047137 0.015792 103 113 108
-0.047321 0.051248 -0.009008 39 81 82
0.077370 0.001513 -0.041208 98 105 101
-0.133955 -0.057641 0.101692 68 74 67
0.088987 -0.003303 -0.055008 114 114 108
-0.057714 0.002062 0.037392 25 68 66
0.076091 -0.023650 -0.052908 111 113 107
0.073604 -0.024688 -0.051408 108 114 107
0.061888 -0.011730 -0.032608 102 111 109
0.072693 -0.024641 -0.050608 109 116 107
0.043822 0.002568 0.001592 92 105 104
0.100307 0.019439 -0.054408 86 85 77
0.073830 -0.019622 -0.048508 109 115 108
-0.141733 -0.076235 0.080992 58 61 53
0.007469 0.023995 -0.006708 29 77 81
0.005372 -0.042911 0.016992 102 111 109
0.045743 -0.037058 -0.017908 108 118 113
-0.110932 -0.076634 0.081892 77 86 72
-0.002133 -0.013780 0.036292 91 104 102
0.092201 -0.003179 -0.058708 115 113 107
0.077721 -0.009914 -0.047408 112 114 108
-0.088587 0.089416 0.009692 53 66 58
0.073392 -0.020906 -0.048908 108 113 109
0.078762 -0.013332 -0.050208 114 116 110
-0.069615 -0.011072 0.050792 37 79 80
0.014907 0.020136 -0.003908 48 101 109
-0.089229 0.025305 0.036692 40 82 83
0.026634 0.011564 0.020492 82 95 94
0.035573 -0.026663 -0.003308 105 116 114
0.009250 0.048282 -0.064508 45 90 95
-0.063252 -0.026534 0.088292 68 78 73
-0.037738 0.056871 -0.023108 46 89 87
-0.005720 0.021427 0.003092 26 71 76
0.057027 -0.017950 -0.018808 107 117 112
0.061085 -0.005112 -0.028208 58 69 68
0.085375 -0.009818 -0.054708 114 114 108
0.062176 0.033550 -0.068608 180 179 176
0.010030 -0.015604 0.023992 94 107 106
-0.109147 -0.014588 0.068092 20 57 59
-0.026750 0.057788 -0.024808 40 87 85
0.068336 0.013282 -0.056908 176 177 174
-0.102995 -0.056399 0.123692 61 69 62
0.006047 0.042408 -0.006308 16 61 66
-0.108295 -0.062666 0.095492 6 12 5
-0.037682 0.062603 -0.033008 43 86 84
-0.053571 0.056864 -0.022308 40 85 83
0.060385 -0.031425 -0.027908 106 111 107
-0.053508 0.050879 -0.010808 36 81 79
0.010166 -0.001069 0.030292 87 103 101
-0.042514 -0.079135 0.044792 93 103 98
0.026402 0.047651 -0.058708 8 46 50
-0.068770 -0.041332 0.087792 79 87 80
0.081484 -0.004605 -0.048208 109 110 107
-0.025216 -0.043992 0.043292 108 117 115
-0.002701 -0.009779 0.038692 87 100 99
-0.063696 0.012861 0.041792 18 60 61
0.087959 -0.010969 -0.058408 118 116 110
-0.007811 0.057655 -0.019908 39 89 91
0.047951 -0.023658 -0.013108 103 114 112
-0.016263 0.002635 0.054892 52 68 66
0.006789 -0.004815 0.032492 90 103 102
0.015083 0.004734 0.028692 85 96 95
0.085435 -0.011279 -0.055908 114 115 107
0.091717 0.002785 -0.055108 106 106 100
0.083593 -0.015453 -0.056008 112 112 106
-0.117019 -0.058143 0.104392 76 76 70
-0.073331 0.044900 -0.002208 38 80 81
-0.144367 -0.054261 0.087992 64 70 63
-0.108092 -0.064945 0.125692 59 66 62
0.042240 -0.008672 -0.001908 96 109 108
0.000272 -0.016074 0.033592 93 106 104
-0.078618 -0.019144 0.107092 41 55 50
-0.025127 0.008492 0.016892 34 84 88
0.091089 -0.015261 -0.063608 112 110 104
-0.000185 -0.000808 0.040292 86 97 95
0.045003 -0.002610 -0.001708 97 110 109
-0.077272 0.004287 0.051392 16 55 57
0.025249 -0.029785 0.003992 102 114 109
0.082663 -0.003082 -0.048908 110 112 106
0.041693 -0.043125 -0.016808 110 116 115
-0.042879 0.044508 0.005792 34 85 85
-0.114863 -0.102348 0.101692 74 80 73
-0.043811 0.025329 0.028992 18 60 61
0.021399 0.042813 -0.050608 36 87 94
-0.063387 0.032071 0.027792 39 88 88
0.008220 -0.018873 0.024792 93 106 105
-0.097968 -0.021675 0.066592 34 76 77
0.036156 -0.028403 -0.004408 104 117 115
-0.040566 -0.032286 0.060392 85 96 94
0.020216 0.042950 -0.051208 36 88 92
0.044961 -0.022128 -0.010108 102 113 111
-0.021590 0.034992 0.017092 0 31 31
0.022870 -0.042305 0.001192 105 115 110
-0.041984 0.037267 0.024992 36 84 86
0.065584 -0.026722 -0.044508 108 113 109
-0.053548 0.033709 0.029292 36 81 84
-0.030174 0.061967 -0.032808 38 82 83
-0.114197 -0.054878 0.097492 79 81 75
0.018613 -0.048179 0.002892 105 115 110
0.016957 -0.022002 0.014992 91 107 104
-0.029527 0.048955 -0.001708 36 86 88
-0.047080 0.042275 0.008192 38 86 88
-0.129868 -0.046444 0.111292 54 63 54
-0.084876 0.041456 0.004092 37 79 80
0.088192 0.006353 -0.049208 100 101 98
-0.020315 -0.066882 0.029792 104 112 105
0.079034 -0.010811 -0.049508 112 113 110
-0.047273 -0.007163 0.075892 38 56 53
0.028903 0.052750 -0.054008 3 27 27
-0.108945 -0.052755 0.129292 29 37 30
0.022074 0.022072 -0.007308 46 99 107
-0.116671 -0.031122 0.082992 23 59 57
-0.135682 -0.006986 0.083192 16 56 55
0.063602 -0.022969 -0.040208 107 114 110
0.083662 0.009307 -0.043108 91 96 92
0.053052 -0.007229 -0.011208 100 113 111
-0.149031 -0.084790 0.071992 77 79 68
-0.024383 0.058163 -0.025808 42 86 87
-0.136950 -0.094449 0.073592 74 74 68
-0.023083 -0.071520 0.030592 100 106 99
-0.021996 0.062670 -0.034308 40 84 85
-0.064111 -0.077333 0.069492 84 92 85
0.024397 -0.016501 0.011492 96 109 108
-0.048346 0.048448 -0.005708 42 86 87
-0.016314 0.061967 -0.032808 41 88 86
0.063432 -0.028837 -0.043208 111 117 110
0.095996 0.015472 -0.052608 89 90 82
0.065674 0.008303 -0.025208 95 106 105
0.052757 -0.019821 -0.015608 105 116 115
0.027234 -0.030950 0.002092 105 117 112
0.071234 -0.022812 -0.048008 112 118 111
0.094634 0.001493 -0.058108 106 106 100
0.026658 -0.000084 0.016692 92 105 104
0.008786 0.030962 -0.008308 23 71 75
-0.036697 -0.031134 0.055892 87 98 96
0.015087 0.043636 -0.053108 43 94 101
-0.028737 0.033632 0.018892 16 61 64
0.077900 0.008381 -0.038108 91 101 96
-0.110472 -0.096582 0.108492 55 63 56
0.021424 0.045148 -0.055808 38 86 90
0.012134 0.045946 -0.058708 37 89 93
0.068209 -0.019344 -0.042708 106 114 107
-0.107993 -0.050512 0.098292 4 14 9
-0.113797 -0.074590 0.119392 58 65 56
-0.111182 -0.086120 0.114492 53 60 56
-0.116157 -0.079568 0.085492 71 74 66
-0.008957 -0.056122 0.024792 100 110 105
0.081906 0.005077 -0.043908 96 98 92
-0.038738 0.019341 0.025192 20 63 66
-0.056689 0.039165 0.011092 45 91 92
-0.054261 0.050818 -0.011008 37 82 80
0.055007 0.000513 -0.009208 98 111 110
0.055592 0.021743 -0.076408 183 184 181
0.058075 -0.019891 -0.021108 105 115 110
0.030875 -0.033821 -0.002408 103 115 110
0.016063 -0.016459 0.018192 94 107 106
-0.145706 -0.088803 0.074892 76 79 71
0.050024 -0.012805 -0.010708 106 117 115
0.087907 0.006318 -0.048908 98 99 96
0.012591 0.022923 -0.008708 46 97 104
0.018493 0.049354 -0.064508 32 75 78
0.015187 -0.025099 0.014892 66 80 75
0.079860 -0.014017 -0.051808 112 114 108
0.007566 0.030367 -0.007108 23 71 75
0.089321 -0.012819 -0.060808 116 115 112
-0.156650 -0.040753 0.081892 76 79 71
0.028176 -0.040399 -0.003008 103 112 110
0.042706 -0.043772 -0.017208 108 117 115
0.008880 -0.019358 0.023792 90 106 104
0.030278 -0.025441 0.001992 101 114 112
0.086631 -0.016405 -0.060008 113 111 105
0.081139 0.018467 -0.070208 164 151 145
0.052488 0.020034 -0.073508 179 183 182
0.068616 0.001315 -0.032808 70 80 75
-0.112406 -0.088806 0.112792 61 67 60
0.020218 -0.051483 -0.000108 104 111 107
0.087496 -0.009223 -0.057308 116 116 110
-0.020211 0.059062 -0.027008 42 87 90
0.009821 0.046563 -0.060108 41 93 97
-0.014337 0.006388 0.021692 36 88 92
0.060862 0.018367 -0.068708 180 181 178
-0.076126 -0.055205 0.090892 75 87 82
0.060317 -0.020376 -0.028808 67 74 70
-0.005289 0.022818 0.002392 25 73 75
-0.106586 -0.065314 0.091292 7 15 8
0.015694 -0.051038 0.003292 109 116 112
0.028346 -0.024577 0.003792 102 113 111
-0.148187 -0.085068 0.073792 78 80 69
-0.031036 -0.072251 0.034192 94 104 99
-0.025955 -0.069580 0.031592 100 107 98
-0.025844 -0.049426 0.042092 38 45 41
0.083861 -0.019061 -0.058908 111 111 105
-0.141677 -0.019985 0.076092 20 60 59
0.094304 0.006205 -0.055508 102 102 96
-0.054187 0.032493 0.031692 33 81 83
-0.046868 0.036396 0.023892 35 85 87
-0.150532 -0.014816 0.071592 19 58 55
-0.042948 0.018677 0.027792 20 64 65
0.045295 0.014044 0.005392 89 102 101
-0.002917 -0.061542 0.016692 103 110 106
-0.037227 -0.030420 0.056492 85 97 92
0.022752 0.027170 -0.015908 39 94 102
0.023511 0.029353 -0.017908 26 76 85
0.041307 -0.007913 -0.000708 96 109 108
0.031120 -0.012800 0.006392 95 111 109
0.075953 -0.020058 -0.051208 115 118 110
0.047718 -0.007078 -0.006208 97 110 109
-0.057487 0.044884 -0.000608 41 86 84
-0.111166 -0.069874 0.121492 50 58 51
0.011778 0.047926 -0.063508 40 85 88
0.082038 0.012500 -0.040508 82 92 87
-0.047351 0.062110 -0.030708 34 72 71
-0.031847 0.042500 0.014892 41 91 95
0.088232 -0.016849 -0.061008 113 113 107
0.092884 -0.002912 -0.058908 114 112 106
0.083810 -0.017346 -0.057608 115 113 107
0.175515 0.076364 0.191192 181 182 179
0.018236 0.030267 -0.014908 28 75 82
-0.044408 0.052541 -0.011308 43 88 86
0.059448 0.015844 -0.014508 42 58 61
0.003317 0.030189 -0.003908 21 69 73
-0.088353 -0.032427 0.114492 58 68 63
0.079908 0.009071 -0.039908 93 101 94
0.061920 0.010300 -0.020308 96 107 105
0.094622 -0.001748 -0.059708 112 110 104
-0.085745 0.034099 0.017192 38 82 83
0.087545 -0.015844 -0.060308 116 114 108
0.049775 -0.010103 -0.009708 87 98 96
-0.067784 -0.021226 0.097292 57 71 66
0.022331 0.047115 -0.059608 34 79 84
0.077639 0.002050 -0.041208 97 104 100
-0.040087 0.051823 -0.010708 42 88 89
-0.115074 -0.100600 0.100392 75 77 71
-0.004820 -0.015088 0.037792 92 105 103
-0.021702 -0.020431 0.051392 93 106 105
0.009236 0.044700 -0.055008 45 93 95
0.007808 0.048013 -0.063908 40 85 88
0.070152 -0.025757 -0.048508 105 116 108
0.071113 0.009277 -0.030408 92 103 101
0.000325 0.055820 -0.013308 35 87 91
0.061188 -0.005224 -0.028408 79 90 89
0.063914 -0.029652 -0.044108 112 113 110
0.029645 0.031485 -0.022908 19 72 80
0.024013 0.032552 -0.019308 23 68 73
0.027496 0.046217 -0.056408 21 69 73
0.011626 0.048618 -0.064608 42 87 90
-0.105428 -0.090400 0.066792 29 33 22
0.039933 0.026445 0.014992 61 76 77
0.002347 0.014030 0.006692 46 97 104
-0.016198 0.057807 -0.023208 43 91 93
0.022796 0.048852 -0.062308 21 64 69
0.086643 -0.013259 -0.058308 114 113 105
0.006214 -0.013448 0.028992 93 106 104
0.004861 0.016913 0.001592 48 101 109
0.093830 0.011393 -0.052408 77 78 70
-0.081140 -0.016213 0.057892 32 77 75
0.065053 -0.006008 -0.032408 101 110 108
-0.050254 -0.043509 0.066192 84 97 89
-0.056964 -0.043823 0.073392 80 92 87
0.050376 -0.020072 -0.013708 105 116 114
0.091317 -0.013462 -0.063008 115 114 106
-0.004713 0.011568 0.012092 51 102 109
0.071505 0.000308 -0.035608 96 106 101
0.049618 0.020237 -0.074008 177 181 180
0.073318 -0.025106 -0.051508 111 113 107
-0.148263 -0.090128 0.073192 78 79 71
-0.146396 -0.008318 0.072192 19 59 53
0.054263 -0.016906 -0.016008 103 114 112
-0.051998 -0.074385 0.055992 84 94 89
0.029893 -0.027132 0.001592 105 116 114
0.014126 0.046893 -0.060508 41 89 93
0.018142 0.041645 -0.048408 46 96 100
-0.095084 0.022861 0.045692 46 88 89
0.044503 -0.014121 -0.006108 106 119 117
0.045175 0.016972 0.006692 87 98 97
0.081739 0.003819 -0.044208 93 100 96
0.057562 -0.030207 -0.025108 111 118 114
-0.002144 -0.019998 0.034192 93 106 104
0.081032 -0.000545 -0.045708 104 109 105
0.052750 0.019474 -0.072108 179 183 182
-0.110776 -0.111680 0.104892 63 70 61
-0.059710 0.044141 0.000492 40 82 83
0.054621 0.017410 -0.067508 176 181 177
-0.008240 -0.047196 0.028092 101 111 106
0.076096 0.002072 -0.039608 94 103 101
0.090633 -0.015607 -0.063108 108 106 100
0.000015 -0.003983 0.038192 84 97 96
-0.038802 0.032632 0.026292 17 56 58
-0.016205 0.002077 0.054692 62 75 74
0.007874 0.037053 -0.007608 21 66 71
0.041564 -0.014857 -0.003908 80 91 83
0.075115 0.038922 -0.010408 180 181 178
-0.110843 -0.095840 0.108492 56 64 57
0.094407 0.011294 -0.052708 95 95 89
0.056650 0.020576 -0.073908 181 182 179
0.072144 -0.021501 -0.047908 107 113 106
-0.050878 0.054536 -0.016408 36 78 79
0.048716 0.013876 0.002092 87 100 99
-0.045231 0.061084 -0.030008 37 80 78
-0.006497 0.041150 0.003592 19 64 67
0.091482 -0.001185 -0.056808 113 111 105
-0.095939 0.033645 0.017192 38 80 81
-0.040444 -0.018823 0.065992 73 85 80
-0.024495 0.052919 -0.012908 35 85 87
-0.046955 0.007841 0.030292 27 68 71
0.072669 -0.020666 -0.048108 112 117 113
0.007445 -0.007256 0.030292 92 105 104
0.041364 -0.027483 -0.008508 106 117 115
-0.023350 0.028986 0.015892 18 61 64
-0.083274 -0.008204 0.052392 18 62 63
-0.036012 0.064827 -0.036708 38 80 81
0.073527 -0.016252 -0.046808 108 113 109
0.043610 0.019557 0.008792 86 97 96
-0.019864 -0.053315 0.035592 96 106 101
-0.034206 0.053843 -0.015908 42 86 87
-0.140973 -0.016339 0.075292 19 59 58
-0.083119 -0.046455 0.102992 70 82 77
0.016455 -0.021660 0.015392 94 110 107
0.084527 -0.018433 -0.059308 111 111 105
0.068367 0.002207 -0.031808 99 110 108
0.025181 -0.048480 -0.004308 107 114 110
-0.043115 0.026038 0.028592 17 60 58
-0.109915 -0.079641 0.119392 48 56 49
-0.140118 -0.046404 0.096292 49 57 50
-0.008263 -0.003827 0.046092 82 94 89
0.080286 -0.020877 -0.055808 110 112 106
0.046950 0.023134 0.007892 82 93 92
0.076636 -0.010172 -0.046608 110 112 106
-0.049035 0.049714 -0.006608 45 86 89
-0.012193 -0.002084 0.050492 74 86 81
0.068804 0.016244 -0.071208 111 110 107
0.053852 0.019478 -0.000308 88 99 97
-0.089327 -0.010726 0.054192 24 67 65
-0.058471 -0.008760 0.046292 35 81 82
-0.057983 0.053459 -0.016008 42 85 83
0.061175 -0.015243 -0.033608 77 89 84
0.075309 0.008881 -0.035408 89 101 96
0.090285 -0.008567 -0.060008 116 111 106
-0.062681 0.048091 -0.007008 39 81 82
0.085301 -0.001938 -0.051208 110 112 106
-0.018766 0.053441 -0.014008 39 87 91
0.028442 0.005763 0.017092 91 104 103
0.056473 0.007100 -0.008208 97 110 109
0.089364 -0.012938 -0.061008 111 110 107
0.012676 0.046789 -0.060508 46 94 98
0.090284 -0.014684 -0.062108 111 110 102
0.084216 -0.007687 -0.052508 111 113 107
-0.107594 -0.067747 0.088692 76 85 76
0.093158 -0.006066 -0.060308 113 112 104
0.008137 0.009348 0.036292 73 86 84
0.074390 0.006423 -0.035208 91 100 98
0.030162 -0.017974 0.004492 80 93 92
-0.046961 0.037731 0.018692 40 89 89
0.020156 -0.034409 0.006992 105 116 114
0.094621 0.011097 -0.053308 93 93 87
-0.002004 -0.048733 0.020992 101 110 108
0.073349 -0.024796 -0.051208 108 115 106
0.020706 -0.034832 0.005892 104 114 109
-0.022350 0.062576 -0.034208 43 87 88
-0.079798 -0.052515 0.093292 75 83 76
0.019891 0.046741 -0.059508 36 81 84
0.017941 -0.024038 0.014292 67 78 76
-0.029968 0.007642 0.020092 28 76 78
0.006142 0.047926 -0.063508 43 91 93
0.057695 -0.034514 -0.026708 113 119 112
0.067774 -0.012412 -0.038808 106 113 109
0.044088 -0.002571 -0.000608 95 111 109
-0.110706 -0.083788 0.057392 62 74 69
0.031799 0.028604 -0.019808 48 101 109
0.086299 -0.001323 -0.051308 112 112 106
-0.115225 -0.078594 0.056892 88 97 88
0.085439 -0.006344 -0.053108 114 114 108
0.063947 0.005420 -0.025108 96 107 106
-0.109292 -0.054149 0.088692 3 10 6
0.076824 -0.015089 -0.049108 112 114 108
0.066847 0.015867 -0.062908 179 181 175
0.070026 0.014630 -0.059808 174 176 170
0.080429 -0.020832 -0.056108 110 111 108
0.029079 -0.044423 -0.005108 109 115 114
0.045935 -0.006574 -0.004808 92 107 108
-0.060247 0.039405 0.009992 39 86 84
0.042357 -0.011659 -0.003508 97 113 111
-0.038788 0.056748 -0.023008 43 86 84
-0.061870 0.048695 -0.008208 40 82 83
0.066761 -0.025795 -0.044808 108 114 107
-0.004601 -0.048726 0.023692 100 112 107
-0.121299 -0.029889 0.080392 26 64 63
-0.036637 0.065054 -0.036808 36 80 81
0.000241 0.015910 0.003692 50 101 108
-0.070904 0.039545 0.007192 42 85 83
0.071073 0.016362 -0.063208 175 175 169
0.027823 0.054189 -0.054508 3 29 30
0.026440 -0.038467 -0.000708 105 117 112
-0.089070 0.016407 0.059292 15 56 53
-0.002103 0.046569 0.000592 17 62 67
-0.092127 -0.037071 0.116592 57 65 58
-0.142847 -0.027793 0.076692 23 62 64
0.069411 0.015212 -0.073408 98 94 94
0.082554 -0.012574 -0.054008 115 118 110
-0.008353 -0.007005 0.045392 85 97 92
-0.104206 -0.084352 0.062292 15 21 14
0.087688 0.004086 -0.050308 104 106 100
0.073495 -0.016081 -0.046608 107 112 108
-0.011506 -0.006667 0.046992 81 93 88
-0.032431 -0.003123 0.063992 32 46 36
0.059935 -0.019125 -0.022408 100 110 105
0.018962 -0.034396 0.008092 103 114 112
-0.037070 0.056191 -0.021508 43 88 86
0.047090 0.021025 -0.075808 180 186 185
0.050847 -0.012271 -0.011408 105 116 114
0.072477 -0.023739 -0.049808 108 114 107
0.009008 0.005368 0.034192 81 92 91
0.028235 -0.042890 -0.003908 103 113 108
0.090786 -0.007128 -0.059008 117 113 106
-0.077488 -0.005813 0.051292 18 58 57
0.084251 -0.018474 -0.058808 112 112 106
0.022580 0.041477 -0.047808 44 95 102
0.084956 -0.017418 -0.059008 115 110 105
-0.129777 0.007374 0.072192 20 59 61
-0.053744 0.026823 0.036292 19 57 61
0.094488 0.002906 -0.057008 111 105 103
0.007267 0.047340 -0.062508 43 93 97
-0.053753 0.056530 -0.021908 40 85 83
-0.066469 0.027659 0.040692 36 82 83
-0.104711 -0.086135 0.077192 6 11 7
-0.050532 0.039442 0.012692 39 84 89
0.079014 -0.022598 -0.055708 111 111 105
-0.034396 0.065165 -0.036608 36 80 81
-0.013405 0.054331 -0.014508 35 87 89
0.070473 0.013596 -0.074808 13 4 0
-0.040420 0.064488 -0.035508 36 78 79
0.008899 -0.019571 0.023692 91 107 105
0.041969 -0.003977 0.000792 96 109 108
0.065081 0.031209 -0.073108 164 161 158
-0.150625 -0.061679 0.078892 76 77 69
0.011792 0.014234 0.035892 56 72 70
-0.009276 0.055629 -0.017208 35 87 89
0.096673 0.005026 -0.058708 113 110 107
0.015821 -0.010199 0.021592 93 106 104
0.075597 0.006289 -0.036708 90 96 95
0.008319 -0.051338 0.009292 104 114 109
-0.090226 0.085032 0.013392 50 63 61
-0.112630 0.027606 0.033092 29 72 70
0.093207 0.009453 -0.052908 98 98 92
0.027228 0.050400 -0.057708 1 29 30
-0.025859 -0.060620 0.035892 91 96 92
0.078339 -0.012568 -0.049008 109 114 110
-0.068137 -0.024843 0.095792 64 75 67
0.027806 0.042348 -0.049208 36 84 93
0.059430 0.020394 -0.073208 181 182 179
-0.110109 0.020145 0.045792 28 70 71
0.000646 0.031793 -0.002008 26 71 76
-0.094455 -0.092974 0.095792 68 75 71
-0.059016 0.052751 -0.015008 37 80 78
0.037613 -0.039718 -0.011308 108 118 113
-0.026473 -0.029701 0.051392 97 106 104
-0.130877 -0.018612 0.083392 21 62 65
-0.058203 0.016554 0.037792 14 58 59
-0.023426 0.053475 -0.013908 39 87 89
-0.112845 0.005805 0.072192 12 46 44
-0.069220 -0.018518 0.098092 55 67 62
0.089504 -0.014872 -0.061708 111 110 102
0.027982 -0.042151 -0.003008 108 118 113
0.075727 0.002886 -0.038608 96 103 99
0.026934 0.041780 -0.048008 38 87 94
-0.013291 -0.011126 0.047492 86 99 98
0.075335 -0.025094 -0.052808 108 110 104
-0.045257 0.055396 -0.020108 40 82 83
-0.109113 0.021172 0.043992 25 67 68
0.031898 0.023466 -0.008908 48 96 100
-0.056938 -0.011246 0.050092 40 82 83
0.090804 -0.016100 -0.063708 111 110 102
0.041602 -0.002281 0.001592 97 110 108
0.096451 0.002373 -0.059308 112 109 106
-0.021622 0.061967 -0.032808 46 89 87
-0.089215 0.027461 0.031192 42 84 85
0.070103 0.014156 -0.074508 132 130 130
0.035544 -0.013641 0.001792 96 109 108
-0.082267 -0.032634 0.106292 64 75 67
0.028584 -0.000958 0.014492 94 107 106
-0.044538 0.054322 -0.017008 40 84 85
-0.114130 -0.019955 0.070592 21 63 64
-0.111410 -0.073873 0.098092 12 15 7
-0.009128 0.053984 -0.012408 38 88 92
0.020789 0.041944 -0.016808 20 63 66
0.030205 0.054126 -0.051808 3 27 27
0.012214 -0.022249 0.019392 93 106 104
0.064609 -0.012830 -0.035708 105 115 110
-0.055179 -0.065913 0.063792 86 97 89
-0.141561 -0.084176 0.077792 73 78 65
-0.003338 0.052541 -0.005408 34 86 88
-0.128670 -0.081028 0.071992 71 75 64
0.037415 -0.045396 -0.012908 107 113 112
0.064824 0.011717 -0.022508 95 106 104
0.079996 -0.007003 -0.048008 111 113 107
-0.030402 0.052799 -0.013808 43 89 90
-0.037579 0.017652 0.024292 21 65 66
0.005795 0.022757 -0.005308 30 78 82
-0.007191 0.053107 -0.008408 37 87 89
0.049788 0.008180 -0.001108 91 107 105
-0.156848 -0.059578 0.077592 76 79 71
-0.110467 -0.033872 0.138592 18 29 21
0.041431 0.010425 0.007592 90 103 102
0.077380 -0.010635 -0.047108 109 114 110
0.014149 -0.023747 0.017292 92 105 103
-0.000106 -0.034838 0.024692 99 110 109
-0.026718 -0.030517 0.051292 72 81 79
0.093532 0.001942 -0.057108 107 105 99
0.060349 -0.022165 -0.035608 78 84 83
0.049150 -0.038981 -0.020808 109 116 112
0.013758 0.046955 -0.011808 16 61 66
0.044690 -0.001194 -0.000508 95 111 109
0.027518 -0.026048 0.003892 100 113 111
0.079016 0.007672 -0.039508 91 98 94
0.077136 0.003087 -0.040008 96 103 99
-0.046190 0.059511 -0.027408 40 79 81
0.065186 -0.026173 -0.043808 106 111 107
0.081207 -0.017730 -0.055408 110 111 108
0.085077 -0.002934 -0.051008 110 113 105
-0.005616 -0.032020 0.031992 91 107 104
-0.010653 -0.023669 0.040092 90 103 101
-0.112474 -0.080615 0.098092 46 52 51
0.079603 -0.020902 -0.055108 112 114 108
0.036723 -0.032068 -0.006808 105 117 112
-0.110103 -0.096125 0.109092 55 63 56
-0.135329 -0.078252 0.084792 62 68 61
0.026783 -0.010859 0.011592 95 111 109
-0.040843 0.064182 -0.035008 42 81 83
-0.033403 0.007568 0.021492 26 71 76
-0.069687 0.038946 0.008592 42 86 87
0.068453 -0.011734 -0.039208 107 113 112
-0.051938 0.053077 -0.013508 30 74 75
0.019566 0.047536 -0.061508 36 81 86
-0.070490 0.047742 -0.006908 29 78 78
-0.112507 -0.090506 0.108192 61 67 60
-0.062740 0.034034 0.022092 42 87 90
-0.098468 0.029488 0.026192 36 77 80
0.024205 0.034206 -0.019508 19 67 71
0.071800 -0.008919 -0.040408 104 111 107
-0.043764 0.044584 0.005192 36 85 85
-0.071047 0.031385 0.025892 38 83 86
-0.075083 -0.007407 0.050592 21 62 65
-0.013902 0.058738 -0.025208 41 89 91
0.085861 -0.011084 -0.056708 116 114 108
0.021648 0.002412 0.021692 87 100 99
0.059524 -0.018000 -0.021308 104 113 111
0.092468 -0.008929 -0.061808 114 109 104
-0.047815 0.054667 -0.017008 44 84 83
0.096900 0.014669 -0.053608 89 90 82
0.031571 -0.014066 0.005492 96 109 108
0.069738 -0.015329 -0.042508 108 113 109
-0.018167 0.053801 -0.014508 41 89 91
0.013578 0.040988 -0.011808 20 65 70
0.034682 -0.042897 -0.009308 104 114 109
-0.031585 -0.035504 0.050092 48 61 59
-0.036313 0.054015 -0.016408 41 87 88
-0.063333 0.032424 0.026592 34 83 83
-0.145488 -0.062629 0.082292 62 68 61
0.002824 -0.016824 0.031092 92 105 103
0.076407 -0.016143 -0.049208 112 115 107
-0.015717 0.000704 0.053992 68 81 79
0.046768 -0.019285 -0.010408 101 114 113
-0.015421 0.051835 -0.008308 33 82 82
-0.030043 0.053380 -0.014708 42 88 89
0.082904 -0.019238 -0.057508 110 110 104
0.029806 0.022974 -0.007908 47 95 99
0.063560 -0.000002 -0.028208 98 109 108
-0.112867 -0.081006 0.115992 57 62 58
-0.028153 -0.069349 0.032092 61 67 66
-0.046691 0.059308 -0.026808 42 81 83
0.048503 0.003334 -0.002108 94 106 108
0.077406 -0.015011 -0.049608 109 111 105
0.089130 -0.004702 -0.056008 117 117 111
0.015794 -0.006742 0.023492 93 106 105
-0.028545 -0.046793 0.042892 82 93 91
-0.085734 -0.075468 0.090892 75 85 80
0.044926 0.007125 0.002992 96 108 110
-0.023875 -0.017482 0.053692 87 100 98
-0.079134 -0.039929 0.102992 73 84 76
0.039911 0.031926 -0.023208 47 97 106
-0.049399 -0.036675 0.069092 80 91 89
0.079286 -0.002519 -0.045408 105 110 106
-0.019251 -0.048412 0.036792 99 111 106
0.069686 -0.015005 -0.042308 108 113 109
0.040623 -0.015225 -0.003208 75 87 82
-0.084796 0.020921 0.053392 35 80 78
0.091555 -0.017696 -0.064408 109 107 101
-0.101596 0.030720 0.024092 40 84 85
-0.015358 0.052322 -0.009708 35 85 87
-0.012058 -0.061614 0.024792 103 111 104
0.021826 0.028630 -0.016808 30 79 86
-0.034894 -0.047042 0.047292 87 99 94
0.070587 -0.003084 -0.036508 98 108 103
0.084556 -0.005558 -0.051808 114 115 107
-0.029351 -0.044612 0.044292 76 85 83
0.059590 0.007066 -0.010308 97 110 109
0.042048 -0.008888 -0.001808 97 110 109
0.049441 -0.011277 -0.009408 79 88 86
-0.146966 -0.024869 0.071792 26 66 65
0.067990 0.013056 -0.056708 175 176 173
-0.028045 -0.062271 0.035592 81 88 84
0.000926 0.018286 -0.000208 42 96 102
0.070340 -0.011574 -0.041008 108 113 109
0.052904 -0.038942 -0.024308 107 114 110
-0.142163 -0.077442 0.081492 57 59 53
0.022866 0.045947 -0.057508 34 82 86
-0.148349 -0.045536 0.088292 69 70 67
0.025721 0.037933 -0.039008 46 95 102
0.093130 -0.000550 -0.058108 111 112 104
-0.075369 -0.054260 0.090092 76 86 81
0.061222 -0.016538 -0.034508 87 97 92
0.005095 -0.045061 0.016192 102 112 107
0.016691 0.006513 0.027592 86 97 96
0.061974 -0.015267 -0.034408 103 112 110
0.022528 -0.025600 0.008492 100 113 111
0.025218 0.051158 -0.059908 3 30 29
0.096161 0.012499 -0.053808 64 63 55
0.027974 0.036320 -0.022408 20 63 68
0.075818 0.004105 -0.038408 74 82 75
0.090979 -0.017642 -0.064508 113 111 105
0.090394 -0.009008 -0.060508 113 111 105
-0.020031 0.059836 -0.028408 43 86 89
-0.039330 0.062066 -0.032608 38 81 79
-0.001403 0.021861 -0.000408 26 74 78
0.012956 0.019946 -0.003808 49 102 110
-0.136990 -0.056069 0.096792 60 68 61
0.048078 -0.015705 -0.010108 106 117 115
0.053825 0.002139 -0.007208 97 110 109
-0.004820 -0.015607 0.037792 92 105 103
0.036819 0.023437 0.017092 66 79 78
0.010376 0.048336 -0.064408 41 86 89
0.072021 -0.025321 -0.050008 109 115 108
0.011100 -0.012885 0.024692 94 107 105
