ply
format ascii 1.0
element vertex 1217
property float x
property float y
property float z
property uchar blue
property uchar green
property uchar red
end_header
0.065377 0.126307 -0.048830 84 80 81
-0.114348 0.045691 -0.170830 150 153 145
-0.044179 -0.034948 -0.015230 162 182 207
-0.128927 0.002973 -0.193230 46 71 143
0.008524 -0.018704 -0.057730 145 149 181
-0.143886 0.003003 -0.203130 2 10 71
0.063331 0.122732 -0.041530 93 92 89
-0.128261 0.027626 -0.154930 105 115 110
-0.043187 -0.046267 -0.009630 30 51 40
-0.126823 0.014118 -0.184830 28 94 156
-0.114643 0.070437 -0.159130 27 21 123
-0.138268 0.004896 -0.168630 109 118 116
-0.133372 0.030058 -0.155530 108 113 109
0.504128 -0.115267 0.379070 248 231 228
-0.013865 0.115012 -0.049430 191 191 185
-0.034972 0.111270 -0.031930 170 176 169
-0.122403 -0.006444 -0.179830 19 38 93
-0.110834 -0.015317 -0.174530 148 162 165
-0.132508 0.045362 -0.191930 145 161 178
0.036064 0.059655 -0.017830 103 119 165
-0.071934 0.114611 -0.033130 87 98 96
-0.000199 -0.184369 0.379070 228 234 241
-0.138799 0.045957 -0.196730 168 146 119
-0.092707 -0.011593 0.029470 147 144 171
-0.123296 -0.000523 -0.190030 173 186 192
0.096896 0.129450 -0.045330 81 77 77
-0.090867 0.012290 0.041770 121 137 140
-0.029220 -0.031112 -0.030430 120 144 171
-0.125822 -0.004120 -0.193130 195 196 188
0.007806 -0.265490 0.379070 93 98 101
-0.105469 0.115675 -0.053430 95 104 103
-0.134810 0.048487 -0.192730 35 41 34
-0.131983 0.000872 -0.190330 57 63 70
-0.122302 0.000185 -0.178430 37 58 113
0.213882 0.104161 0.101770 98 99 96
0.298995 -0.194384 0.379070 126 111 96
0.050455 0.121517 -0.038430 91 89 89
-0.122252 -0.002887 -0.185630 92 102 131
-0.061819 0.121984 -0.067830 103 109 109
0.154866 0.088600 0.105670 111 110 107
-0.127143 0.051070 -0.186630 162 146 120
0.140579 -0.039906 0.139470 152 154 148
0.038096 0.124702 -0.049430 81 81 81
0.042859 0.124364 -0.051330 88 89 86
0.430080 0.005914 0.379070 50 56 49
-0.122590 -0.008721 -0.188730 122 150 178
-0.151134 0.036616 -0.173530 87 87 76
0.091860 -0.295534 0.379070 87 87 88
-0.098430 -0.024652 0.035770 139 155 199
0.005805 -0.315564 0.379070 62 65 68
-0.029824 0.013625 -0.050730 218 218 212
0.511132 -0.067195 0.379070 220 208 204
-0.141439 0.041523 -0.198830 179 123 0
-0.034632 0.058409 -0.035330 164 174 169
-0.018135 -0.027898 -0.048830 194 195 192
0.164134 0.101572 0.086370 91 92 89
-0.138640 0.033760 -0.160730 132 134 128
0.027578 0.123325 -0.050230 90 88 88
-0.052402 -0.007327 -0.005630 133 151 181
-0.122945 -0.000364 -0.187230 160 170 177
0.354030 -0.129287 0.379070 250 249 241
0.052827 0.118792 -0.021730 90 91 88
-0.110713 0.009727 -0.171930 68 156 202
0.440476 -0.265891 0.344270 113 107 113
-0.150847 0.030682 -0.175230 100 102 91
-0.141423 0.041390 -0.198730 179 123 0
-0.066806 0.109064 -0.004930 66 76 71
0.491119 -0.058182 0.379070 215 203 199
-0.037996 -0.002670 -0.021430 147 171 203
-0.108633 0.035784 -0.166430 48 51 17
-0.063132 0.083737 0.008970 151 173 178
-0.141541 0.040189 -0.198930 163 111 0
-0.142465 0.023804 -0.197630 219 209 185
-0.129844 0.052474 -0.190430 32 14 180
-0.143131 0.028716 -0.166830 109 115 108
0.103839 0.123217 -0.031130 79 78 75
-0.126094 0.044749 -0.181730 109 104 74
-0.071245 -0.171350 0.379070 240 245 241
-0.100440 0.104815 0.015170 72 83 81
-0.093747 0.119606 -0.066230 95 106 104
-0.140232 0.022851 -0.194030 128 97 16
0.452668 0.005384 0.319770 90 98 112
-0.107269 -0.234444 0.379070 227 232 228
0.061841 -0.238450 0.379070 86 92 85
-0.141520 0.030825 -0.164230 111 118 109
0.035824 -0.215415 0.379070 176 182 189
0.307000 -0.254473 0.379070 251 255 252
0.414069 -0.077210 0.379070 89 108 52
-0.143651 0.041571 -0.202530 179 122 0
0.427479 0.056393 0.368970 75 80 91
-0.099784 0.105637 -0.001130 69 78 76
-0.134540 0.000524 -0.203930 137 148 174
-0.008934 0.044726 -0.056030 120 116 166
-0.111415 -0.012406 -0.174930 138 158 190
-0.141363 0.047293 -0.201930 160 169 180
0.038905 0.113772 -0.014930 84 85 82
-0.059096 0.121384 -0.066230 100 107 103
-0.130519 0.050333 -0.190930 33 33 137
-0.138722 0.011902 -0.193730 49 42 108
-0.038960 -0.018923 -0.014030 4 27 97
-0.042396 0.060158 -0.012630 108 111 114
-0.141923 0.030281 -0.165230 111 117 110
0.130517 -0.044516 0.099770 161 156 165
-0.123544 0.043356 -0.178230 89 95 156
0.001276 -0.005976 -0.021430 118 124 123
-0.039146 0.111228 -0.026830 157 168 160
0.117133 0.121840 -0.017230 97 93 93
-0.136736 0.012226 -0.190030 142 139 129
0.415070 -0.134295 0.379070 194 180 170
-0.115274 -0.264488 0.379070 187 193 192
-0.125614 0.037157 -0.180730 151 153 172
0.445089 -0.260482 0.379070 87 79 72
0.168080 0.108103 0.054770 104 100 100
0.420157 -0.286550 0.364970 91 84 79
-0.132391 -0.000306 -0.198630 142 146 185
0.454095 -0.146313 0.379070 198 182 172
-0.113597 -0.017361 -0.178730 126 135 134
-0.020611 0.040162 -0.051730 126 127 203
-0.145677 0.023061 -0.202130 161 157 150
0.002048 -0.048698 -0.032930 219 217 218
0.466103 -0.057180 0.379070 177 169 174
-0.017817 0.072769 -0.030130 140 149 147
0.152412 0.054355 0.110270 192 195 187
-0.141991 0.044549 -0.201530 157 119 12
0.148279 -0.014754 0.087470 116 107 109
-0.128298 0.053567 -0.188530 165 140 68
-0.023646 0.125421 -0.059930 79 86 82
-0.108644 0.117843 -0.063330 97 103 102
-0.044515 -0.047285 -0.008730 104 129 101
-0.043819 -0.060022 0.006270 206 208 202
0.327826 0.088510 0.217870 100 100 100
0.250964 -0.267493 0.379070 108 106 100
-0.125202 0.006290 -0.186430 173 175 169
-0.134954 -0.004845 -0.203530 231 236 239
-0.119481 0.033381 -0.169330 50 49 7
0.106870 -0.266491 0.379070 90 96 96
-0.094283 0.110187 -0.024930 95 106 104
-0.130316 0.039142 -0.189330 177 119 0
0.038776 0.122980 -0.039630 87 87 88
-0.029786 0.033249 -0.045130 164 166 171
-0.058970 -0.052292 0.006570 93 124 116
-0.078250 -0.168345 0.379070 230 251 247
-0.047566 0.059406 -0.010230 174 181 177
-0.138567 0.014463 -0.193830 184 180 161
-0.125975 -0.013985 -0.192730 177 188 192
0.154615 -0.005868 0.115070 154 156 150
-0.015417 -0.025047 -0.048530 185 188 191
0.371820 0.087107 0.240370 98 95 92
-0.142822 0.021903 -0.194230 49 40 8
-0.077213 0.110337 -0.014030 65 74 72
0.021815 -0.177359 0.379070 200 205 216
0.347291 0.067316 0.311570 170 161 162
-0.115870 0.036019 -0.172730 134 136 167
-0.133281 0.048871 -0.192330 71 72 121
0.055981 0.108092 0.004870 108 104 105
-0.123663 0.042880 -0.178230 192 200 202
-0.030424 0.012806 -0.023030 163 176 175
-0.139215 0.022841 -0.192430 194 187 162
0.279982 -0.172351 0.379070 225 214 194
-0.094911 -0.045913 0.030670 122 209 242
-0.114407 0.064724 -0.159830 65 95 105
-0.144053 0.034975 -0.166330 97 100 92
0.380047 -0.271499 0.379070 92 87 82
0.422510 -0.298069 0.344270 121 112 107
0.203933 -0.275505 0.379070 100 96 96
0.250964 -0.294533 0.379070 120 115 110
0.076598 0.128614 -0.052930 94 91 88
-0.112917 0.017726 -0.171830 60 157 195
0.050592 0.123739 -0.041530 93 93 93
-0.032611 0.042322 -0.011730 31 23 91
-0.110186 0.069243 0.093570 37 52 53
0.217342 0.098777 0.127270 103 101 101
-0.092810 0.001674 0.039570 110 104 159
-0.133785 0.003593 -0.202730 166 171 167
0.487117 -0.263487 0.379070 81 75 68
-0.066735 0.120421 -0.059530 99 105 104
-0.016657 -0.023020 -0.069830 73 52 173
0.293991 -0.175356 0.379070 234 220 198
-0.131310 0.044098 -0.190930 133 116 93
-0.117742 0.032958 -0.168630 155 156 127
-0.144363 0.040993 -0.203130 61 35 157
0.426487 0.043058 0.355370 108 119 137
0.167362 -0.022511 0.151670 127 131 130
0.047663 0.039561 -0.008030 133 137 137
0.111733 0.120201 0.006570 102 99 103
-0.132752 -0.002503 -0.201030 212 209 199
-0.029500 0.012309 -0.049830 229 228 220
-0.026921 0.064828 -0.030930 131 140 139
0.102571 -0.309467 0.346070 124 129 140
-0.137087 0.039925 -0.194430 116 80 12
0.012290 0.061668 0.008670 99 108 112
0.049184 0.115983 -0.009330 79 84 80
0.443442 -0.285576 0.366970 101 97 90
-0.144006 -0.000273 -0.177130 96 98 117
-0.163609 -0.058927 0.104270 208 219 211
-0.115142 -0.005307 -0.181430 211 212 199
0.345025 -0.234444 0.379070 13 15 9
0.046548 0.124580 -0.051530 96 94 94
-0.143256 0.018628 -0.199630 107 98 150
0.349027 -0.275505 0.379070 121 109 114
-0.152869 0.036596 -0.175930 84 86 75
-0.119849 -0.018897 -0.182230 98 117 145
-0.013632 0.097447 -0.006830 73 86 78
-0.021256 -0.011954 -0.062930 247 250 235
0.476906 -0.280217 0.337070 91 86 76
-0.127830 0.011820 -0.185630 87 147 207
0.290990 -0.157329 0.379070 222 210 193
-0.053498 0.050399 -0.005230 136 131 176
0.123434 -0.049785 0.089870 190 187 191
-0.126357 0.003632 -0.191730 111 125 154
-0.072727 0.113704 -0.028630 86 97 95
-0.154279 0.032339 0.091070 35 40 43
0.148897 -0.278509 0.379070 128 127 124
0.120010 0.109813 0.045870 105 105 105
-0.144615 0.021382 -0.201330 135 150 164
-0.141012 0.043748 -0.200030 133 96 7
0.108677 0.112171 0.021870 99 97 97
-0.010004 0.099123 -0.038230 25 72 2
-0.127358 -0.004613 -0.194030 196 198 192
-0.069844 -0.035107 0.015170 217 226 230
-0.110770 0.045803 -0.165630 173 175 157
-0.065996 0.097443 0.003470 180 190 185
0.345025 -0.241454 0.379070 21 23 12
0.153150 -0.005427 0.117170 146 152 151
-0.008549 0.071470 -0.026530 79 88 92
-0.104416 0.078843 0.042670 117 124 128
-0.131538 0.042897 -0.190430 100 72 14
0.158904 -0.255475 0.379070 106 105 102
0.068151 0.121756 -0.020830 99 97 97
-0.029397 0.121822 -0.055630 86 92 91
-0.119926 0.047063 -0.171030 17 22 7
-0.158261 0.002306 -0.191530 97 96 116
0.384050 -0.107255 0.379070 126 117 118
-0.129894 0.041952 -0.189130 204 147 2
-0.134132 -0.005181 -0.203330 179 188 206
-0.022629 0.126370 -0.060430 96 102 101
-0.064821 0.095321 0.003170 136 143 134
0.095863 -0.245460 0.379070 140 132 130
0.006482 0.100566 -0.032430 58 83 39
-0.133142 0.038051 -0.191630 53 46 193
-0.128007 -0.002995 -0.193830 132 136 175
-0.106268 -0.302545 0.379070 86 91 87
-0.086617 0.104919 0.005170 64 75 74
-0.152026 0.005593 -0.184030 85 89 89
0.105390 0.120474 -0.004930 97 95 95
0.273919 -0.283469 0.378970 109 107 101
-0.109732 -0.003423 0.072270 96 65 0
0.000341 0.019715 -0.066930 109 108 112
-0.001554 0.098184 -0.018630 21 52 10
-0.139189 0.040082 -0.195830 170 114 1
0.375269 0.066607 0.324870 93 97 102
-0.032392 0.019725 -0.047930 212 219 210
-0.114583 0.005070 -0.175330 167 169 163
-0.128120 0.046828 -0.187930 158 133 102
-0.123096 0.007682 -0.172930 8 73 105
0.190925 -0.226432 0.379070 103 99 92
-0.132386 -0.003008 -0.199430 192 193 190
0.018413 0.061905 0.007570 112 122 124
0.196929 -0.302545 0.379070 98 95 92
-0.151403 0.034242 -0.174730 93 93 82
-0.111572 0.015364 -0.171130 35 152 198
0.136243 0.122536 0.004170 102 101 98
0.380047 -0.292530 0.379070 104 99 89
-0.139452 0.046365 -0.198830 148 126 106
-0.048153 0.109901 -0.011130 21 27 26
-0.133252 0.003195 -0.201730 187 196 195
0.066844 -0.224429 0.379070 87 87 87
0.049780 0.125152 -0.056430 82 81 78
-0.033913 0.054815 -0.029630 151 156 179
-0.090950 0.093910 0.028670 117 129 131
0.024086 0.100619 -0.023330 65 76 68
0.155531 0.114782 0.037870 93 92 89
0.434608 -0.282629 0.366970 97 90 85
0.046831 -0.252470 0.379070 81 85 84
-0.001377 0.071355 -0.049630 110 98 115
0.012809 -0.216417 0.379070 192 200 207
0.172913 -0.262485 0.379070 103 104 101
-0.057797 0.007121 0.003870 168 157 235
0.248962 -0.237448 0.379070 85 82 72
-0.074247 -0.198390 0.379070 235 241 240
0.305999 -0.166342 0.379070 226 214 192
-0.116525 0.038214 -0.172630 178 181 161
-0.064100 0.109349 -0.005230 67 77 72
-0.067720 -0.006613 0.015170 166 183 184
0.188729 0.106695 0.087470 99 97 97
-0.133743 0.003097 -0.202930 190 197 201
-0.060712 0.051885 0.003470 155 160 183
-0.138737 0.041380 -0.195530 130 96 57
0.008807 -0.262485 0.379070 90 98 100
0.053497 0.127609 -0.057630 77 77 78
-0.082201 0.056520 0.026270 158 169 167
0.379047 -0.258479 0.379070 96 92 85
-0.121770 0.060948 -0.163530 53 89 93
-0.126708 0.049321 -0.181930 56 50 9
-0.124150 0.051302 -0.180230 116 136 136
-0.028929 0.019080 -0.050030 192 195 187
-0.109270 -0.239451 0.379070 221 225 224
0.520138 -0.249466 0.379070 126 120 113
-0.137780 0.036056 -0.191030 29 18 176
0.227849 0.105196 0.110970 104 102 103
0.149207 0.067524 0.148270 38 42 47
-0.032390 0.015230 -0.050730 220 223 215
-0.043645 0.048660 -0.009930 96 80 179
-0.129220 0.001413 -0.193430 44 69 127
-0.029052 0.014297 -0.024430 161 175 192
-0.049915 0.061915 -0.006830 175 179 179
-0.117605 0.026555 0.075470 24 40 52
0.140152 -0.045006 0.090470 105 98 130
-0.128259 0.009351 -0.185630 44 129 162
-0.112853 0.020455 -0.170230 38 118 152
0.363375 -0.073490 0.324870 184 177 172
-0.075358 -0.011249 0.011170 208 207 204
-0.144550 0.030336 -0.168130 109 111 105
0.148510 0.012842 0.112970 86 88 107
0.350392 -0.076427 0.309870 183 168 167
0.247441 0.094275 0.145070 108 104 104
0.038717 0.096072 -0.008730 45 53 147
-0.084213 0.094079 0.022670 178 187 185
-0.135936 0.020074 -0.187430 138 123 74
-0.030531 0.118162 -0.040530 81 88 84
0.139892 -0.299540 0.379070 95 99 99
-0.108841 0.002895 0.079970 76 75 67
-0.111711 0.010278 -0.172230 41 151 198
-0.115378 -0.000370 -0.180730 174 182 184
-0.132341 -0.001127 -0.190630 58 64 83
-0.133678 0.039389 -0.191730 176 139 84
-0.133644 -0.002224 -0.202830 218 216 217
-0.038562 0.107950 -0.026030 164 174 169
-0.140899 0.042822 -0.199230 181 122 0
-0.164527 0.031772 0.090470 113 125 127
-0.149605 0.004171 -0.182030 105 105 105
-0.142890 0.022188 -0.194130 50 36 0
0.081334 0.109247 0.037870 95 95 95
-0.117432 0.108109 -0.018930 91 102 101
0.394056 -0.069198 0.379070 70 93 143
-0.137675 -0.000612 -0.169730 103 113 115
-0.062715 0.114542 -0.028330 77 86 84
-0.026255 0.049617 -0.038930 98 104 104
-0.058852 0.047302 0.002470 128 117 186
-0.021045 -0.008255 -0.045530 124 128 133
-0.048731 0.029474 0.002470 139 152 150
-0.084166 0.107879 -0.000430 67 78 76
-0.132153 -0.003367 -0.191030 58 68 75
0.168172 0.101915 0.083370 92 90 84
-0.010510 -0.001216 -0.032930 118 124 124
0.060226 -0.286138 0.301970 107 118 122
-0.140148 0.016157 -0.195330 145 106 2
-0.133845 0.011075 -0.183930 7 49 70
-0.130825 0.050234 -0.191130 33 31 135
-0.017674 0.076400 -0.045330 178 185 181
-0.079035 0.010435 0.027070 148 155 205
-0.133278 -0.011492 -0.192530 116 132 135
-0.147094 0.030899 -0.170930 120 121 113
-0.135403 0.008519 -0.197630 201 191 175
0.008834 0.123216 -0.057730 93 93 93
-0.161529 0.036736 -0.184730 77 76 73
0.178194 0.054773 0.127270 154 155 152
-0.050232 -0.204399 0.379070 221 227 227
0.093862 -0.280512 0.379070 89 89 83
0.255967 -0.246462 0.379070 117 112 121
-0.136866 0.013580 -0.190530 164 144 117
-0.143377 0.014070 -0.200030 129 123 116
0.045222 0.127532 -0.058330 100 98 98
0.391054 -0.212411 0.379070 97 93 81
-0.145282 0.016737 -0.192030 2 1 41
-0.016018 -0.022765 -0.070930 120 102 213
-0.081022 -0.022496 0.018870 97 133 205
-0.120270 0.063740 -0.163930 43 94 101
-0.083068 0.102563 0.020370 55 67 62
0.048162 0.121696 -0.037330 93 92 89
0.120639 0.108651 0.040470 105 105 106
0.446187 -0.286560 0.368970 102 98 91
-0.079379 -0.001202 0.028270 140 156 159
-0.017038 -0.023750 -0.048530 185 189 189
-0.116336 0.042549 -0.172230 61 52 34
-0.134278 0.046712 -0.192830 91 85 73
-0.115879 0.059994 -0.168530 160 162 156
-0.132361 0.046184 -0.191830 159 176 195
-0.133939 0.005153 -0.203130 62 62 193
0.010808 -0.211409 0.379070 201 208 217
-0.116898 -0.047667 0.059770 214 230 220
-0.111109 0.032464 -0.169230 47 49 13
-0.116536 0.030760 -0.166930 24 28 5
-0.044031 0.119849 -0.056430 95 101 100
0.396015 0.079188 0.297270 97 95 95
-0.077552 0.089133 0.023870 93 104 103
-0.030163 0.000405 -0.053430 235 238 225
-0.023214 -0.309555 0.379070 70 76 76
-0.113273 -0.266491 0.379070 182 188 188
0.215912 0.099324 0.118570 100 100 100
0.125369 -0.025692 0.110270 203 206 198
0.378046 -0.266491 0.379070 120 116 116
0.131658 -0.042385 0.164570 154 156 150
-0.131507 -0.001986 -0.198330 45 52 197
0.029090 0.123076 -0.039430 82 82 82
0.472107 -0.045162 0.379070 197 190 185
0.144881 0.115114 0.031970 97 95 95
-0.084159 0.092102 0.023470 131 143 138
-0.133559 0.014109 -0.183330 13 58 82
-0.017637 0.112717 -0.044430 199 200 192
0.034303 0.111080 -0.018930 64 62 62
-0.031219 -0.203398 0.379070 218 223 226
0.369040 -0.188375 0.379070 212 196 184
-0.031991 0.002210 -0.052330 223 230 221
0.333017 -0.229436 0.379070 17 17 11
-0.130349 0.040036 0.066370 99 147 161
-0.047677 0.032984 -0.000130 158 167 165
-0.121450 0.044366 -0.175030 161 170 156
-0.111364 0.110920 -0.031930 94 105 103
-0.144926 0.025909 -0.169530 102 106 95
-0.161203 0.035104 -0.184730 79 77 77
-0.137583 0.017603 -0.191730 42 30 117
-0.034243 0.013791 -0.018630 121 116 189
0.337019 -0.186372 0.379070 236 217 201
-0.043572 -0.022719 -0.009630 194 207 199
0.157279 0.118443 0.014070 92 91 88
-0.014561 0.039892 -0.057430 108 80 195
-0.116141 0.037063 -0.172630 158 162 151
-0.140126 0.035678 -0.192830 39 37 170
-0.086764 0.101866 0.023870 57 67 62
0.161109 0.116446 0.026670 100 100 100
-0.120190 0.049106 -0.172230 29 30 8
0.099663 0.124944 -0.034130 85 83 77
0.129028 -0.034194 0.101770 141 137 137
-0.135759 -0.007174 -0.204330 118 127 165
0.140945 0.073609 0.137070 29 35 42
0.371905 0.066150 0.342470 166 164 164
0.463101 -0.238450 0.379070 21 22 14
-0.130915 0.064163 -0.170530 28 52 60
-0.137329 0.004493 -0.168630 112 121 120
-0.114885 0.050830 -0.170730 46 48 24
0.007180 0.007202 -0.060630 94 111 152
-0.117767 0.014933 -0.174830 131 131 209
0.448091 -0.200393 0.379070 109 98 87
0.401061 -0.244459 0.379070 20 21 13
0.167749 0.108615 0.061770 100 96 96
-0.125405 -0.011215 -0.191930 148 167 190
-0.111795 -0.011384 -0.175930 160 182 209
-0.056491 0.107315 -0.006530 26 33 29
-0.029343 0.057078 -0.037030 129 133 132
-0.149765 0.004870 -0.182130 98 98 98
-0.134299 0.040294 -0.192230 169 139 131
-0.116894 0.008191 -0.175530 51 149 191
-0.149646 0.036792 -0.199030 17 15 126
0.146564 0.117772 0.018070 86 84 85
0.211634 0.103036 0.101770 97 102 98
-0.132101 0.003160 -0.198030 46 51 193
-0.133856 0.035950 -0.192530 42 40 183
-0.162479 0.035511 -0.186230 83 79 79
-0.017389 -0.018431 -0.069530 63 45 168
0.030843 0.024431 -0.006830 29 27 21
0.308921 0.065811 0.283670 157 164 160
-0.138336 0.025851 -0.162630 130 136 129
-0.120945 0.009668 -0.174530 1 72 107
-0.125911 0.047707 -0.186830 191 150 5
-0.141991 0.040482 -0.199730 166 120 0
-0.143854 -0.000376 -0.204030 13 16 119
-0.103475 0.088758 0.040970 108 123 129
0.360034 -0.233442 0.379070 22 26 15
0.237955 -0.212411 0.379070 103 98 88
0.356032 -0.257478 0.379070 251 250 247
-0.113360 -0.017715 -0.178730 115 127 137
-0.121795 0.066303 -0.166030 68 97 102
0.123054 0.106757 0.046770 100 100 100
-0.088449 -0.039869 0.034070 201 208 199
0.108871 -0.303546 0.379070 118 122 127
-0.113107 0.049650 -0.168130 36 34 10
-0.130389 0.041779 -0.189630 183 125 0
0.054836 -0.287523 0.379070 96 102 109
-0.115997 0.035764 -0.172730 159 162 170
-0.109270 -0.280512 0.379070 83 87 92
0.001439 0.104840 -0.042630 104 114 102
-0.142130 0.019651 -0.197730 168 163 133
-0.087504 0.115150 -0.041230 95 106 104
-0.011438 0.114877 -0.048330 189 191 185
-0.160289 0.028528 -0.185930 83 78 73
-0.044875 0.110944 -0.013430 25 34 32
0.084026 0.125950 -0.045730 90 88 88
-0.039898 -0.006557 0.002170 63 78 97
-0.134189 0.049016 -0.192630 27 27 27
0.410068 0.057689 0.314770 50 50 62
0.201839 -0.235744 0.214470 101 94 89
-0.009219 0.044961 -0.056630 127 124 169
-0.099231 -0.001993 0.045370 174 169 214
-0.117596 0.116642 -0.060330 93 102 101
-0.119760 0.066272 -0.165830 90 118 140
0.146896 -0.268494 0.379070 88 92 92
0.045794 0.117882 -0.019530 93 94 91
-0.147157 0.025155 -0.203030 118 83 1
0.027824 0.022135 -0.002130 161 159 147
-0.143377 0.016353 -0.200030 164 145 81
0.137812 0.088519 0.120670 166 169 161
0.275980 -0.172351 0.379070 226 216 194
0.008841 0.044914 -0.046830 148 149 157
-0.133328 0.048050 -0.192430 63 66 87
0.062842 -0.229436 0.379070 92 96 95
-0.010786 0.105304 -0.043130 43 73 22
-0.138279 0.048164 -0.195530 126 92 48
-0.035932 0.029691 -0.020630 149 161 169
0.014311 0.099287 -0.028130 49 74 46
-0.119401 0.064483 -0.165530 95 144 151
0.480112 -0.139302 0.379070 178 166 157
-0.007204 -0.251469 0.379070 96 102 102
-0.044288 0.122273 -0.066230 97 101 100
-0.138630 0.049798 -0.199030 71 54 188
0.012223 0.095253 -0.023030 48 72 46
-0.104005 0.003050 0.057270 85 92 130
0.032608 -0.010543 0.008670 109 115 108
-0.143729 0.040687 -0.202130 88 60 160
-0.004602 0.102408 0.002470 50 62 52
-0.142839 0.019738 -0.198330 56 86 114
-0.114957 0.048072 -0.171130 157 180 177
0.004637 0.064343 -0.049230 97 67 82
0.267975 -0.218420 0.379070 91 85 73
0.130035 -0.219169 0.193170 144 141 145
-0.138273 0.039949 -0.194630 157 105 0
-0.090039 -0.017364 0.029070 94 85 92
-0.128543 0.038490 -0.188430 171 139 81
-0.137507 0.029852 -0.160230 157 164 155
-0.144534 0.016274 -0.201430 202 184 152
0.124687 -0.020861 0.108270 203 204 201
-0.029121 0.012309 -0.030130 134 146 141
-0.079119 0.119086 -0.057930 95 104 103
-0.146856 0.001364 -0.179830 137 137 138
-0.151088 0.002068 -0.184430 98 100 110
0.401061 -0.182366 0.379070 226 208 196
-0.140056 0.016157 -0.195330 145 106 2
0.386051 -0.244459 0.379070 35 36 28
-0.050232 -0.307552 0.379070 51 54 57
0.372042 -0.257478 0.379070 92 82 73
-0.136812 0.035863 -0.190630 28 17 175
-0.084466 -0.060611 0.025470 196 255 255
-0.100264 -0.226432 0.379070 234 239 235
0.507130 -0.041156 0.379070 202 189 188
0.463101 -0.051171 0.379070 151 158 169
-0.154324 0.033887 -0.177930 94 94 83
-0.129362 0.012570 -0.186630 34 138 175
-0.065124 0.089009 0.003870 131 155 155
-0.011090 0.071787 -0.045330 118 103 127
-0.120247 0.064280 -0.153530 39 66 78
-0.126756 0.051435 -0.186530 124 92 21
0.144764 0.107309 0.064270 96 96 96
-0.134248 0.041228 -0.192330 166 162 200
0.089798 0.112802 0.017370 105 105 106
-0.143969 0.012040 -0.200030 127 95 0
0.159871 0.102244 0.078270 97 95 95
0.442087 -0.018122 0.379070 97 100 92
-0.112928 -0.018340 -0.178430 160 168 175
0.007245 0.095182 -0.026530 11 36 6
0.401150 0.078817 0.301970 98 96 96
-0.001537 0.106204 -0.047330 90 101 93
-0.137469 0.022298 -0.189230 140 139 136
-0.060598 -0.014511 0.004170 91 114 150
-0.068624 0.015840 0.021570 71 83 85
0.215941 -0.286521 0.379070 121 118 115
-0.060222 0.114898 -0.028330 67 76 74
0.188736 0.112849 0.044970 98 96 97
-0.128379 0.017373 -0.184730 45 140 178
-0.125098 0.014449 -0.183430 153 156 193
-0.129331 0.014826 -0.185630 48 153 196
-0.133733 -0.002971 -0.191030 3 19 65
-0.037503 0.036118 -0.018330 167 179 174
-0.012902 0.119706 -0.052330 40 33 35
0.094862 -0.246462 0.379070 121 119 120
0.043829 -0.311558 0.379070 143 135 146
-0.126992 -0.000688 -0.192830 166 168 162
-0.037063 -0.048888 -0.012630 203 216 188
0.290999 -0.275542 0.337070 128 126 120
0.044870 0.121465 -0.035630 93 97 96
-0.020343 -0.021463 -0.066330 85 71 158
-0.111326 0.028278 -0.172230 170 182 177
-0.143480 0.044458 -0.203530 176 127 6
-0.124228 0.002724 -0.190530 60 74 125
-0.015545 0.114645 -0.048830 182 178 171
0.030821 -0.282515 0.379070 84 89 92
-0.048086 0.109629 -0.010830 22 28 27
-0.134322 0.001239 -0.203530 65 75 109
-0.132971 -0.006119 -0.201930 133 154 190
-0.027562 -0.022111 -0.036830 77 77 87
-0.133724 0.003785 -0.202830 193 194 191
-0.118866 0.015934 -0.174930 61 65 184
0.153230 0.026042 0.104970 102 104 109
0.056080 0.124304 -0.047030 86 84 84
0.114505 0.108658 0.046770 104 108 108
0.038748 0.025461 -0.012630 115 107 105
-0.024254 0.065712 -0.028330 121 130 129
0.135375 -0.042503 0.097870 114 102 127
-0.116168 -0.014656 -0.181430 194 207 213
0.419073 -0.037150 0.379070 99 105 119
0.296695 -0.252802 0.276470 122 115 110
-0.140710 0.036725 -0.198130 68 50 154
-0.128846 -0.010210 -0.195930 183 194 193
-0.128607 0.000495 -0.193530 45 73 142
-0.060340 -0.030386 0.008270 32 44 46
-0.137507 0.043543 -0.194030 99 64 0
-0.107268 -0.291479 0.378970 82 88 87
-0.144363 0.040117 -0.203130 121 117 180
-0.112154 0.013972 -0.171730 65 139 178
0.343023 -0.209406 0.379070 116 108 92
0.360034 -0.311558 0.379070 118 111 106
-0.117977 0.037204 -0.173730 60 62 26
-0.149527 0.000767 -0.182830 105 105 117
0.120714 0.121181 0.006970 98 96 97
0.097658 0.124503 -0.032130 87 81 79
-0.121888 -0.008520 -0.186530 101 124 153
-0.041637 0.083429 -0.011130 162 164 153
-0.117967 -0.011508 -0.183630 122 139 174
-0.133721 0.006701 -0.195830 165 163 157
0.283601 0.103538 0.153270 112 108 108
0.083901 0.118922 -0.006830 93 92 89
0.444089 -0.135296 0.379070 195 184 173
-0.088798 0.077500 0.027070 131 157 158
0.002120 0.093414 -0.004630 42 57 44
0.078436 0.119176 -0.029930 84 82 82
0.019632 0.104373 -0.028830 64 77 83
0.044232 -0.024826 -0.020830 122 122 123
-0.020634 0.018388 -0.041930 98 97 117
-0.111788 0.048424 -0.166530 158 157 140
0.189924 -0.308554 0.379070 122 115 116
-0.117160 0.048957 -0.171930 74 77 62
-0.017483 0.015692 -0.057730 141 140 155
0.405119 0.076847 0.326570 98 98 99
-0.089474 0.103138 0.022270 64 75 73
-0.136493 0.040981 -0.193830 175 121 1
0.227949 -0.231439 0.379070 99 98 90
0.429079 -0.261484 0.379070 74 67 62
0.354030 -0.172351 0.379070 228 211 196
-0.116270 0.012757 -0.174130 69 157 215
-0.146773 0.025097 -0.202830 131 92 1
-0.156300 -0.053280 0.093570 164 170 163
0.468104 -0.177359 0.379070 208 190 185
-0.111652 0.035549 -0.169130 141 147 174
-0.025691 0.108325 -0.024130 143 155 145
-0.035452 0.071351 -0.034630 164 174 169
-0.146187 0.018138 -0.203230 152 154 159
-0.141722 0.045024 -0.201230 168 140 70
-0.037522 0.090786 -0.019730 129 133 132
-0.093260 -0.218420 0.379070 235 240 236
-0.008093 0.117140 -0.056230 165 158 159
-0.125302 0.007509 -0.186130 181 185 174
0.125659 0.108103 0.054770 94 94 95
-0.135416 0.043563 -0.193030 160 139 56
0.153390 0.122390 0.010070 93 91 91
-0.125812 0.020924 -0.180830 82 158 190
-0.036895 0.002840 -0.021430 151 155 155
-0.109620 0.046191 -0.164330 46 46 20
0.003490 0.063973 -0.046430 69 42 63
-0.010788 0.123583 -0.059930 94 99 95
0.420073 -0.134295 0.379070 194 180 170
-0.008843 0.114877 -0.048330 193 196 188
-0.052036 0.037844 0.006270 47 35 122
-0.062435 0.121488 -0.063830 97 104 100
-0.087001 0.072690 0.027470 173 181 169
0.362489 0.084028 0.286670 102 103 100
0.242313 0.073148 0.201470 103 104 101
-0.009205 -0.243457 0.379070 185 190 201
-0.141808 0.011064 -0.195730 55 38 0
-0.067243 -0.230438 0.379070 212 218 218
-0.038985 0.112733 -0.027530 148 153 149
-0.141407 0.037786 -0.198630 43 30 173
-0.133297 0.003911 -0.201930 209 211 205
0.024657 0.057612 -0.018930 88 79 95
0.392055 -0.213412 0.379070 94 89 79
-0.003201 -0.196387 0.379070 223 230 234
-0.084165 0.120938 -0.068130 97 103 102
-0.140138 0.022381 -0.194030 165 153 149
0.101617 -0.301044 0.351670 125 125 126
-0.121812 0.060755 -0.163330 55 86 91
-0.122273 -0.003856 -0.185930 114 125 151
0.055837 -0.255475 0.379070 85 90 86
-0.139135 0.046007 -0.198130 169 120 0
-0.014762 -0.043118 -0.036530 64 95 95
-0.017593 0.102256 -0.022830 58 85 41
-0.131664 0.035493 -0.184930 28 22 152
-0.144727 0.035892 -0.188530 47 46 147
-0.096400 0.059600 0.068970 49 59 66
0.147619 0.085154 0.115070 36 37 45
-0.144946 0.012373 -0.192930 33 21 0
-0.064220 0.005685 0.015870 40 50 79
0.003346 0.013691 -0.063130 69 77 123
-0.121924 -0.006916 -0.186030 99 120 143
-0.005726 0.099288 -0.029130 40 74 31
-0.053816 -0.034529 -0.006830 164 173 232
-0.144459 0.020872 -0.201930 115 105 167
-0.039914 -0.008795 0.000470 99 119 124
0.005463 0.097240 -0.030930 33 68 16
-0.117380 0.060122 -0.169930 156 161 157
-0.013250 0.057369 -0.018130 91 100 104
0.087656 0.114517 0.017370 110 110 111
0.414069 0.025943 0.379070 57 56 71
-0.160821 0.028218 0.101070 83 110 127
-0.140614 0.035001 -0.202930 170 168 162
0.006805 -0.184369 0.379070 228 236 243
-0.108269 -0.178360 0.379070 251 255 250
-0.047362 0.102273 -0.014330 187 199 189
-0.133464 -0.004274 -0.202730 157 159 178
-0.112494 0.000341 -0.179030 176 184 186
-0.134476 -0.057303 0.077770 132 209 232
-0.124718 0.052102 -0.181030 55 54 12
-0.132737 -0.007909 -0.201630 151 168 189
-0.145107 0.021757 -0.202230 105 115 151
-0.123401 0.015658 -0.181230 45 142 180
0.128500 -0.026900 0.119970 166 173 164
0.000801 -0.332590 0.379070 97 102 111
0.285415 0.104541 0.145870 111 109 109
-0.048250 0.038843 0.008670 47 46 108
0.443088 -0.085222 0.379070 166 156 147
0.149515 0.049997 0.099770 94 99 115
-0.019905 0.034201 -0.054630 146 134 206
-0.029959 -0.005176 -0.043730 86 106 150
-0.126681 -0.001543 -0.193130 199 200 187
0.008731 0.039810 -0.048830 100 97 158
0.000957 0.075783 -0.055630 183 180 184
0.089361 0.103192 0.052870 110 110 111
-0.152470 0.034140 -0.192030 78 77 74
-0.054672 0.032751 0.003170 208 219 211
-0.126969 0.010235 -0.185030 50 141 182
-0.112764 0.016699 -0.172030 21 124 172
-0.139702 0.024594 -0.164530 110 118 111
-0.142499 0.019563 -0.197830 69 90 113
-0.141508 0.035577 -0.203630 169 160 188
-0.129487 0.027981 -0.154430 87 101 96
-0.077661 -0.046691 0.022670 180 194 218
0.296993 -0.157329 0.379070 215 205 183
-0.130269 0.034284 -0.177730 17 21 0
-0.124293 0.050479 -0.180530 151 178 177
0.121198 0.121407 -0.007430 95 93 93
-0.131178 0.012700 -0.185830 8 66 99
-0.075758 -0.054110 0.024270 162 184 211
0.082084 0.121810 -0.035630 100 96 96
-0.124869 0.043323 -0.180530 168 176 190
-0.113745 0.019405 -0.171430 20 91 128
-0.139141 0.026531 -0.163130 116 122 115
-0.134054 0.043163 -0.192330 163 147 130
0.410320 -0.273792 0.333570 104 100 93
-0.133699 0.007826 -0.195530 191 187 175
0.022865 0.059332 -0.028130 138 125 139
0.133215 0.114151 0.038770 93 93 94
-0.150961 0.035213 -0.174230 93 93 82
-0.142920 0.016544 -0.198930 194 181 154
-0.138974 0.048765 -0.199030 136 141 196
-0.030927 -0.007797 -0.024630 84 105 146
-0.116430 0.017775 -0.173930 79 159 193
-0.112426 0.117740 -0.065830 83 89 88
-0.113217 0.050118 -0.168330 47 48 19
0.158781 0.082700 0.114370 81 88 84
-0.142195 0.042094 -0.200930 130 105 160
-0.086302 0.093631 0.024270 167 176 174
0.324864 -0.259895 0.298770 114 109 104
-0.123629 -0.013223 -0.189930 198 207 198
0.430080 -0.325579 0.379070 111 105 93
-0.009400 0.118990 -0.055030 161 160 157
0.092861 -0.308554 0.379070 119 117 118
0.193927 -0.313561 0.379070 134 133 130
-0.128812 0.038461 -0.188530 155 153 189
0.072475 0.121767 -0.025730 93 92 89
-0.031537 -0.058745 -0.008030 185 185 179
-0.005708 0.008870 -0.073230 52 46 135
-0.131476 0.008922 -0.185630 24 72 95
-0.041177 0.013213 -0.010830 35 31 101
0.114875 -0.262485 0.379070 98 102 101
0.021404 0.042457 -0.032630 166 170 170
-0.085254 -0.266491 0.379070 182 190 192
-0.088954 0.109200 -0.014030 74 85 84
0.135589 0.073610 0.119970 17 21 21
-0.125508 0.044170 -0.181430 70 62 28
-0.144132 0.040200 -0.202730 114 104 171
-0.045360 -0.046816 -0.009030 54 82 65
-0.146067 0.019246 -0.202530 69 93 127
0.011679 0.062830 -0.044030 103 72 92
-0.118015 0.039146 -0.173530 65 62 32
-0.139745 0.013693 -0.195530 132 99 0
-0.049779 0.037915 0.007270 36 29 108
0.454309 0.013350 0.338870 87 94 105
0.320023 0.027857 0.305070 172 181 180
0.155902 -0.262485 0.379070 102 107 103
-0.146330 0.014265 -0.203430 60 38 141
0.086047 0.127715 -0.049230 94 91 88
0.138163 0.074017 0.135570 31 38 42
-0.136401 0.017220 -0.189330 119 118 167
-0.126580 0.052331 -0.186430 137 114 30
-0.039520 0.055971 -0.017530 168 163 190
-0.150791 0.003144 -0.183430 98 101 104
0.031723 0.058965 -0.012930 32 60 116
-0.104285 0.102108 0.018870 59 71 66
0.030801 -0.012482 0.007570 114 119 115
-0.020006 0.122704 -0.062130 79 84 80
-0.137921 0.011044 -0.192330 70 44 0
-0.128618 0.014927 -0.185530 0 34 134
-0.055472 0.116132 -0.037530 71 77 77
0.021055 0.006559 -0.045530 105 111 111
-0.050687 0.000072 -0.004930 198 220 220
-0.036487 -0.003530 -0.023830 124 152 194
-0.124765 0.037001 -0.178930 136 138 157
-0.140571 0.026378 -0.165130 109 118 109
0.009468 0.103683 -0.033430 92 100 93
-0.133293 0.014449 -0.183430 3 50 75
0.008964 0.061116 -0.028130 67 54 68
-0.122361 -0.011983 -0.188130 152 169 183
-0.143731 0.042883 -0.202830 143 123 143
0.000655 0.027713 -0.024430 69 62 119
-0.037867 0.040563 -0.009930 35 23 110
-0.010131 0.077617 -0.052530 203 203 197
-0.115523 0.066547 -0.160330 81 110 115
-0.142485 0.033028 -0.165530 104 110 103
-0.035872 0.098471 -0.031430 168 174 167
-0.109360 0.048120 -0.164030 85 94 78
-0.093429 -0.038759 0.049570 83 39 0
-0.009620 0.119405 -0.054830 166 165 162
-0.014208 -0.227433 0.379070 195 202 206
0.032075 0.098109 -0.014330 93 112 187
-0.127005 0.024223 -0.154330 81 93 88
-0.130433 0.038373 -0.189530 159 113 17
-0.123093 -0.001443 -0.188430 176 188 183
-0.080431 0.019761 0.026270 136 143 147
-0.138309 0.047291 -0.195630 132 100 54
0.379209 -0.278371 0.335270 111 106 101
0.136866 0.029762 0.116470 23 24 21
-0.092721 0.080149 0.029070 76 93 87
-0.142279 0.046540 -0.202430 104 96 114
0.044280 0.119798 -0.023630 91 92 89
-0.130454 0.014961 -0.186030 48 129 169
0.145439 0.070196 0.144270 17 25 27
0.030546 -0.007388 0.006270 121 128 124
-0.126354 0.042624 -0.181630 170 164 150
-0.076631 0.117165 -0.045530 94 103 101
-0.140624 0.025944 -0.165330 109 118 109
-0.116202 0.020045 -0.173030 42 123 163
-0.065191 0.119725 -0.052930 88 94 94
0.114460 0.097645 0.081070 97 97 97
-0.145342 0.018440 -0.202530 200 194 187
-0.144200 0.017005 -0.201230 201 184 142
-0.157137 0.031824 -0.181630 100 100 94
0.210552 0.104087 0.113670 95 94 91
0.416463 -0.285828 0.335270 117 108 109
-0.135130 0.041746 -0.193030 146 135 179
0.023497 0.124542 -0.054630 90 90 90
-0.124893 0.044490 -0.180830 75 72 50
0.102868 -0.285520 0.379070 72 74 68
-0.139243 0.035256 -0.161430 119 121 110
-0.048414 0.010111 0.000170 41 37 107
-0.098180 0.041079 0.052370 0 5 5
-0.140454 0.033562 -0.202930 169 169 163
0.121832 0.021585 0.120670 182 188 181
0.448091 -0.112262 0.379070 160 142 137
-0.146007 0.025113 -0.201930 162 120 3
-0.156898 0.034049 -0.180730 101 99 93
-0.071381 0.004366 0.016570 36 18 129
-0.056858 0.062721 -0.002130 212 218 211
-0.082902 -0.033138 0.022670 178 192 182
0.249963 -0.298539 0.379070 113 111 105
0.145289 0.022752 0.118570 162 169 160
0.425076 -0.181365 0.379070 226 208 196
-0.138872 0.001441 -0.170630 107 116 115
-0.061808 -0.052159 0.012170 34 53 33
0.152721 -0.002068 0.119970 43 43 55
0.368286 0.073731 0.313170 90 93 96
0.093289 0.123217 -0.031130 97 97 97
0.296993 -0.221424 0.379070 88 86 74
-0.017210 -0.243457 0.379070 178 186 193
0.008295 0.065224 -0.049630 106 76 93
-0.064114 -0.026263 0.010770 0 17 75
0.400060 0.004912 0.379070 46 57 49
-0.138652 0.013109 -0.193530 75 66 94
-0.024215 -0.241454 0.379070 186 194 201
-0.125981 -0.000084 -0.160330 83 96 95
0.453095 -0.242456 0.379070 29 30 17
-0.145807 0.014931 -0.202930 192 188 189
-0.062905 -0.032609 0.013270 35 44 53
-0.123614 0.065995 -0.169830 68 109 124
0.436192 -0.292274 0.308270 118 112 100
-0.041761 0.058932 -0.013130 152 155 158
-0.145494 0.032227 -0.168130 103 106 98
0.010130 0.004219 -0.057630 98 115 143
-0.153329 0.030823 -0.177630 98 98 87
0.472107 -0.237448 0.379070 24 28 17
0.189924 -0.216417 0.379070 107 108 95
-0.043227 -0.221424 0.379070 209 214 217
0.235954 -0.276506 0.379070 105 106 103
-0.128512 0.000485 -0.160230 120 135 136
0.042024 0.099074 -0.009030 144 159 199
-0.083253 -0.255475 0.379070 196 202 202
-0.073393 0.077694 0.025870 42 49 45
-0.021727 0.040523 -0.051330 110 121 166
-0.113188 0.063178 0.102370 59 75 73
-0.146667 0.011983 -0.204030 109 78 0
-0.147298 0.000525 -0.180630 166 164 165
-0.062966 0.001396 0.010070 105 114 118
-0.112037 -0.016354 0.046770 117 96 85
-0.156047 0.037094 -0.178530 84 84 73
-0.129255 0.051930 -0.189930 59 38 205
-0.123033 0.046800 -0.179230 201 203 192
-0.083311 0.085430 0.023070 173 183 178
-0.091380 -0.016916 0.029070 134 125 132
-0.114283 0.066900 -0.159630 17 26 91
-0.088918 0.102104 0.024670 64 73 71
-0.126227 0.044444 -0.186530 191 136 0
-0.084933 -0.011989 0.025070 149 157 164
-0.111271 -0.303546 0.379070 84 91 87
-0.124383 0.000351 -0.191230 183 193 195
-0.149072 0.026703 -0.174030 104 105 92
0.010808 -0.227433 0.379070 177 186 197
0.043450 -0.266893 0.279270 67 68 65
-0.001156 -0.002019 -0.024430 101 105 119
-0.045093 0.084720 -0.006230 197 200 187
-0.116162 -0.047966 0.065870 129 136 127
-0.145920 0.016100 -0.203630 198 184 172
-0.132294 0.033502 -0.193930 137 126 190
0.427078 -0.121275 0.379070 180 166 154
-0.067838 0.101548 0.004870 26 30 30
-0.116832 0.032300 -0.167630 51 51 20
0.190925 -0.246462 0.379070 91 94 86
0.037146 0.125434 -0.051730 84 84 84
-0.114309 0.114320 -0.048130 84 94 89
-0.139435 0.036554 -0.195730 29 20 173
-0.048515 0.119475 -0.053430 95 101 100
-0.107476 0.014331 0.059270 138 147 138
-0.123496 -0.008855 -0.190030 120 142 176
0.459098 -0.040155 0.379070 114 90 63
-0.082195 0.117055 -0.048530 92 103 101
0.385640 0.053540 0.370870 96 96 96
-0.140203 0.033867 -0.161930 107 114 105
-0.161057 0.030649 -0.186030 84 82 82
-0.121406 -0.006164 -0.179630 12 25 70
0.159101 0.112658 0.041370 92 88 88
0.368039 -0.179362 0.379070 220 203 188
-0.033257 0.094774 -0.030930 128 134 127
-0.040101 -0.021561 -0.009630 30 47 68
-0.139753 0.027684 -0.163030 121 128 119
0.038834 -0.031640 -0.026530 124 123 151
-0.140604 0.017969 -0.194330 86 60 0
-0.129884 0.033193 -0.175030 31 31 5
-0.116274 -0.246462 0.379070 215 220 216
0.059522 0.116326 -0.012330 95 100 96
-0.123730 -0.001557 -0.190830 111 123 157
-0.029222 -0.040975 -0.023830 78 95 136
-0.018291 -0.004719 -0.041930 126 132 132
0.011816 0.102826 -0.032930 119 130 109
-0.139459 0.053089 -0.189830 63 61 42
-0.138889 0.013466 -0.194230 168 166 152
0.140968 -0.228049 0.200370 254 255 252
-0.053781 0.032261 0.001470 172 185 177
-0.018283 -0.056350 -0.015530 97 87 167
0.243959 -0.181365 0.379070 176 165 152
-0.034562 0.037309 -0.022230 166 174 167
-0.045178 0.030343 0.003870 99 112 110
-0.116282 -0.000747 -0.181430 182 189 193
-0.141337 0.039311 -0.198730 171 162 183
-0.133797 -0.005866 -0.203230 134 153 189
0.439783 -0.288620 0.342470 110 107 97
-0.134559 -0.007294 -0.203530 166 179 205
-0.005725 0.100407 -0.019730 30 57 22
-0.086326 0.087816 0.023870 110 122 112
-0.062973 0.118604 -0.051330 90 96 96
0.497123 -0.237448 0.379070 90 85 75
-0.128890 -0.011666 -0.196430 153 160 176
-0.144697 0.014700 -0.201330 193 187 166
0.431489 0.056469 0.309870 78 86 100
-0.141707 0.024405 -0.197830 186 142 0
-0.007422 -0.024445 -0.076930 154 149 189
-0.079476 0.069888 0.021870 182 189 180
-0.035303 0.035650 -0.019730 173 185 180
-0.064793 0.002111 0.011870 37 46 57
-0.139359 0.053290 -0.189830 58 56 37
-0.144730 -0.000635 -0.177130 96 97 130
0.130886 -0.281514 0.379070 111 109 103
0.000470 0.121630 -0.052930 81 81 81
-0.138530 0.046675 -0.196730 152 130 108
0.033572 0.125598 -0.053230 79 83 82
0.125383 0.113377 0.033570 93 93 93
-0.029113 -0.044196 -0.020030 142 166 193
0.384050 -0.012113 0.379070 116 132 135
-0.136410 0.018110 -0.188330 34 57 81
-0.017959 0.044758 -0.050730 155 158 179
0.040298 0.126078 -0.058730 94 94 94
0.317931 -0.053291 0.303470 149 152 155
-0.122487 -0.000474 -0.178630 35 54 109
-0.143403 0.044508 -0.203430 172 128 6
0.272801 0.095749 0.170870 109 109 109
-0.041130 0.114164 -0.027530 79 85 84
-0.103352 0.108640 -0.011430 79 92 91
-0.047862 -0.056353 0.000870 192 200 207
-0.043777 -0.026553 -0.005630 130 147 148
-0.124821 -0.000211 -0.191930 188 197 195
-0.112609 0.044016 -0.168930 172 179 170
0.021030 0.120015 -0.038730 80 85 81
-0.069676 0.113453 -0.022230 77 86 84
-0.069748 0.119692 -0.053630 88 94 94
-0.127776 -0.009383 -0.195030 121 141 166
-0.012333 -0.019794 -0.073930 100 79 206
-0.110142 0.119407 -0.070930 100 109 107
0.397058 -0.063189 0.379070 85 95 124
0.037825 -0.289526 0.379070 128 131 134
0.144590 -0.000071 0.115770 58 63 72
-0.154728 0.030939 -0.179230 92 94 83
0.098172 -0.312264 0.344270 124 129 138
-0.042295 0.111014 -0.015230 25 34 32
-0.136254 0.005142 -0.199530 165 164 156
0.247962 -0.288524 0.379070 126 123 120
-0.018766 0.040544 -0.051130 56 39 148
0.067984 0.126600 -0.050730 88 86 86
-0.107756 0.047304 0.046370 9 19 26
0.036964 0.121797 -0.033430 82 88 87
0.383049 -0.275505 0.379070 94 92 86
-0.160668 0.034538 -0.184330 81 79 79
0.129885 -0.250467 0.379070 118 116 122
-0.113659 0.010243 -0.173030 60 141 181
0.051311 0.124926 -0.047730 84 83 80
-0.079842 0.105254 0.012570 64 74 69
-0.127172 -0.003376 -0.193330 194 197 184
-0.101395 0.065082 0.095370 54 69 70
0.152900 -0.256476 0.379070 102 103 100
-0.100836 0.110601 -0.030130 89 100 99
0.151341 0.101924 0.092370 101 101 101
-0.017314 0.017228 -0.056630 176 180 169
0.432081 -0.055177 0.379070 122 160 180
0.055837 -0.215415 0.379070 170 176 175
-0.132993 0.046055 -0.192130 82 79 88
-0.140138 0.000810 -0.172430 102 111 110
-0.123469 0.110567 -0.033630 93 104 103
-0.109270 -0.225430 0.379070 236 241 237
-0.126121 0.051435 -0.186530 138 111 25
-0.078169 0.024990 0.021870 172 185 177
-0.139689 0.022894 -0.193230 172 164 130
-0.025215 -0.191380 0.379070 223 227 232
-0.117141 0.008191 -0.175530 45 146 185
-0.159348 0.032608 -0.183530 89 89 83
-0.004798 0.063454 -0.047330 79 54 68
-0.126078 0.036646 -0.181430 141 143 125
-0.080912 0.107687 0.000170 58 69 67
0.148203 0.067967 0.146670 38 44 51
-0.117804 0.050506 -0.171930 50 49 12
-0.162620 0.036676 -0.185830 75 74 71
-0.140041 0.047648 -0.200330 96 69 174
-0.134053 -0.003912 -0.203330 77 78 106
-0.117093 0.037995 -0.173030 165 167 149
0.179869 0.103650 0.090470 103 101 101
0.006705 0.105470 -0.036830 46 56 63
-0.019529 0.029432 -0.034630 85 88 116
0.242958 -0.195386 0.379070 163 154 143
-0.112146 0.049353 -0.167030 125 124 107
0.136256 -0.041616 0.099170 118 105 133
-0.036707 -0.008317 -0.023330 164 191 229
-0.040110 0.012879 -0.012630 52 33 148
-0.033982 -0.000296 -0.027530 135 151 188
0.148720 -0.038615 0.108270 219 217 203
-0.145181 0.021100 -0.202530 59 46 143
-0.001850 0.075131 -0.056830 121 96 126
-0.048646 0.026243 0.002870 125 140 141
0.125565 0.103502 0.074970 107 109 103
-0.130476 0.037896 -0.189430 182 182 192
0.016446 -0.001968 -0.042630 92 93 108
-0.162327 0.045141 0.110270 88 99 98
-0.128541 0.064314 -0.172630 47 76 81
-0.129520 0.064730 -0.161330 11 33 38
0.014573 -0.025561 -0.054830 126 126 164
-0.144948 0.015074 -0.201830 129 112 84
-0.069775 0.089553 0.008970 71 89 80
-0.133829 0.008395 -0.195630 195 192 175
-0.100160 -0.010224 0.047270 148 154 153
-0.060041 -0.054222 0.007570 218 230 206
-0.114953 0.034228 -0.172030 143 145 127
0.255212 0.094497 0.136370 99 98 95
0.510132 -0.250467 0.379070 101 96 86
-0.143562 0.018723 -0.200230 159 148 192
-0.113144 -0.005297 -0.179430 169 178 182
0.069580 0.109962 0.016570 102 103 100
-0.133424 -0.002111 -0.202530 171 170 174
-0.119822 0.015540 -0.174530 14 40 114
-0.125910 0.005404 -0.187730 158 163 159
-0.107777 0.002398 0.079370 72 69 59
-0.015057 0.109393 -0.038930 70 97 48
-0.033959 -0.040412 -0.018930 119 147 157
-0.039220 0.122800 -0.057930 88 93 89
-0.111908 0.036997 -0.169230 180 181 166
-0.041258 -0.019631 -0.009630 7 31 85
-0.038946 -0.002112 -0.019530 163 174 187
-0.092284 0.025929 0.070070 54 68 71
-0.151931 0.029998 -0.176630 100 102 91
-0.141183 0.039194 -0.198330 184 178 212
-0.087091 -0.059400 0.025870 176 244 248
-0.114852 0.001281 -0.180430 66 79 126
0.000979 0.105187 -0.044230 79 86 90
-0.127223 -0.005886 -0.194130 105 122 155
-0.064409 0.036579 0.033570 90 95 138
0.138437 0.112568 0.044070 102 102 103
0.005287 0.044224 -0.049830 174 181 197
-0.025625 0.094550 -0.019530 103 112 110
-0.042019 0.045389 -0.008030 73 59 151
0.202419 0.102765 0.112970 95 94 91
0.423075 0.013925 0.379070 49 47 41
0.038826 -0.214414 0.379070 180 187 191
-0.070233 0.052115 0.015470 113 123 138
0.145895 -0.273502 0.379070 114 118 118
-0.071379 -0.043517 0.012970 215 221 220
0.406064 -0.159332 0.379070 213 199 189
-0.116352 0.060206 -0.168930 164 170 163
-0.090258 -0.325579 0.379070 32 41 52
0.089436 0.116482 0.018070 105 109 108
-0.138218 0.048939 -0.195630 87 52 0
-0.078868 -0.046979 0.023870 169 191 209
-0.000257 0.097860 -0.034130 67 89 68
-0.123423 0.051664 -0.179930 56 58 27
-0.143972 0.041243 -0.202730 179 137 54
-0.045115 0.068769 -0.009630 78 84 83
0.245960 -0.205400 0.379070 96 88 81
-0.126341 0.000079 -0.192530 173 180 189
0.384050 -0.120274 0.379070 159 142 139
0.023017 0.122870 -0.046630 92 96 95
-0.026045 0.063164 -0.030430 128 133 136
0.139997 0.083516 0.112370 43 50 46
-0.049161 0.054615 -0.008730 126 132 185
-0.143410 0.043397 -0.202930 164 160 208
-0.093905 0.069290 0.086370 54 70 68
-0.155790 0.029316 -0.180830 97 97 86
0.494121 -0.184369 0.379070 176 164 160
-0.046589 -0.016201 -0.009330 157 177 229
0.139134 0.076566 0.119970 22 26 52
-0.131173 0.047329 -0.191230 90 83 202
0.272978 -0.253472 0.379070 254 255 252
-0.115704 0.117547 -0.065630 81 90 89
-0.138380 0.048063 -0.197530 90 57 48
0.259961 0.093131 0.149170 112 110 111
0.354856 0.084691 0.228270 98 98 92
0.517136 -0.050170 0.379070 207 194 193
0.096290 0.122622 -0.030130 78 76 76
-0.162562 0.030316 -0.187430 82 82 83
-0.132649 -0.006162 -0.200330 133 143 177
0.151015 0.009867 0.115770 52 57 66
-0.076312 0.074923 0.023070 164 170 163
-0.019899 0.076785 -0.045130 168 175 171
-0.084177 0.046677 0.029870 123 141 185
0.138415 0.028540 0.114370 23 23 23
0.007501 0.010816 -0.059530 95 124 155
-0.145348 0.020620 -0.202330 85 74 152
0.153421 0.082360 0.119270 27 34 30
-0.126494 0.001266 -0.192630 190 201 205
-0.126045 0.041517 -0.181530 184 187 167
-0.046381 0.115283 -0.029930 60 70 65
0.431112 0.043844 0.306670 79 87 101
-0.136619 0.028710 -0.159830 159 166 157
-0.142526 0.045871 -0.202630 84 82 88
-0.099370 0.119119 -0.066030 92 103 101
-0.137745 0.012860 -0.192130 120 118 104
0.054448 0.124958 -0.047030 89 87 87
-0.139256 0.049210 -0.199630 130 126 182
-0.070204 0.024939 0.019270 108 121 119
-0.044720 -0.007830 -0.004630 179 197 194
-0.121006 -0.008309 -0.179830 28 46 76
0.443088 -0.105252 0.379070 159 148 137
-0.140969 0.011018 -0.196030 59 41 0
-0.018383 0.014556 -0.049430 156 162 161
0.511176 -0.105229 0.368970 236 223 217
0.016326 0.125129 -0.057630 81 85 84
-0.102542 0.080250 0.042670 123 126 129
-0.139825 0.021632 -0.193930 65 67 125
0.209167 0.106234 0.075470 108 108 109
-0.125488 -0.001277 -0.192230 179 180 177
-0.039860 0.086708 -0.013130 192 203 189
-0.158464 0.002139 -0.191630 94 95 118
0.033836 0.125384 -0.054230 79 79 79
-0.033342 0.001685 -0.025430 175 178 181
-0.018413 0.073133 -0.034430 154 165 157
-0.028623 -0.013301 -0.058530 235 232 222
-0.023140 0.108681 -0.033130 168 178 166
-0.144258 0.021489 -0.200630 187 186 178
0.379441 0.058862 0.376970 124 123 120
-0.005640 0.097767 0.001870 53 63 51
-0.111271 -0.280512 0.379070 84 87 95
-0.110990 -0.007174 -0.174230 165 177 187
-0.127386 0.042856 -0.186830 164 131 69
0.110183 0.108243 0.045370 90 94 94
0.350028 -0.122277 0.379070 251 247 240
-0.112996 0.050126 -0.167930 45 46 17
-0.115291 -0.004119 -0.181230 209 212 199
-0.129995 0.039203 -0.189130 178 120 0
-0.130245 0.036196 -0.189730 39 32 178
-0.138916 0.001813 -0.170530 107 116 115
0.420234 0.020738 0.283670 76 91 105
0.465391 -0.288588 0.351670 95 89 87
0.452006 -0.012108 0.378970 114 115 123
0.474398 0.076608 0.333570 40 44 49
-0.113554 -0.005861 -0.179830 191 197 197
0.408673 -0.258427 0.342470 147 133 136
-0.116392 0.114932 -0.055630 86 95 93
0.430928 -0.265594 0.351670 126 110 118
-0.049105 0.107926 -0.010230 22 26 25
-0.044714 0.111738 -0.014330 48 58 53
-0.145783 0.016158 -0.203330 204 192 175
-0.125704 -0.001885 -0.192430 178 178 178
0.403062 -0.003100 0.379070 48 50 44
-0.121569 0.043149 -0.174530 59 60 45
-0.125417 0.061456 -0.160830 34 77 80
0.466103 -0.117270 0.379070 157 145 136
-0.118493 0.014566 -0.174930 8 59 147
0.291323 0.098387 0.153270 103 101 101
-0.112151 -0.053849 0.050470 149 226 237
0.119834 -0.036797 0.093570 200 197 194
0.000673 0.011125 -0.066330 74 73 127
0.173054 0.114393 0.045370 97 95 96
0.057523 0.122206 -0.041230 88 88 89
-0.140306 0.046840 -0.200430 182 154 105
-0.121104 0.067245 -0.167330 123 145 150
-0.145352 0.012988 -0.202130 115 81 0
-0.081001 0.109901 -0.018130 69 78 76
0.060127 0.125853 -0.050930 91 89 89
0.210338 0.082569 0.163670 114 113 117
-0.121252 -0.017875 -0.182030 96 117 146
0.483114 -0.031142 0.379070 194 189 184
-0.055208 0.027448 0.002470 119 135 152
-0.034159 0.005163 -0.023330 213 225 215
-0.118472 0.043058 -0.173130 51 53 15
-0.135031 0.020570 -0.181530 1 45 71
-0.136443 0.011679 -0.181430 2 33 45
-0.036641 0.095017 -0.019230 99 103 108
0.060642 0.123525 -0.046630 98 98 98
-0.003313 0.081295 -0.056030 27 28 20
