ply
format ascii 1.0
element vertex 1219
property float x
property float y
property float z
property uchar red
property uchar green
property uchar blue
end_header
-0.232643 -0.014512 -0.033812 104 106 95
0.029203 -0.278362 -0.038100 107 108 102
0.051994 0.244452 0.049938 125 133 122
-0.044816 0.467817 -0.035971 130 135 125
-0.175555 -0.220406 -0.041625 123 124 118
0.259386 0.491094 -0.024698 103 105 96
0.007353 -0.005054 -0.033762 87 91 84
0.125483 0.202402 0.109319 55 65 72
-0.241354 0.280134 -0.038141 137 142 130
0.225316 0.351836 -0.028785 103 105 94
-0.186902 0.080027 -0.032818 17 17 11
0.334416 -0.121520 0.105556 60 72 78
-0.053028 -0.243132 0.000057 119 127 124
0.027029 0.431271 -0.032624 131 139 128
-0.165258 -0.116725 -0.038054 112 120 109
-0.323148 -0.189616 -0.044348 121 125 118
0.064355 0.444654 -0.009361 159 163 158
-0.001861 0.489803 0.012413 145 150 140
-0.322970 -0.254459 -0.045196 104 105 99
-0.076542 -0.218185 -0.021475 111 122 122
0.061876 0.149752 -0.024749 99 107 94
-0.127832 -0.006788 -0.034181 20 24 17
0.308031 -0.156037 -0.022186 101 102 96
-0.182854 -0.020913 0.127508 11 15 10
-0.188572 0.228404 -0.035520 119 124 112
-0.002039 -0.155659 -0.028963 126 137 133
-0.094251 0.221202 -0.032731 12 13 9
0.248863 -0.197943 -0.024116 101 102 98
0.253144 0.110932 -0.016809 18 21 24
-0.396680 -0.004271 0.283020 55 62 56
-0.332690 -0.271738 -0.045702 119 128 121
-0.137224 0.049299 -0.034016 89 101 91
-0.124790 0.019036 -0.033201 92 100 89
0.291804 0.480490 -0.023052 128 133 121
0.155896 -0.119644 -0.028188 82 83 77
0.049141 -0.130364 -0.036682 62 69 61
-0.297535 0.335682 -0.045886 67 57 45
-0.095909 -0.286384 -0.041839 102 107 97
0.358966 -0.215698 -0.021211 105 106 93
0.213861 0.426359 -0.026460 30 23 17
0.218124 0.137460 -0.017178 11 19 18
0.190619 -0.190817 -0.025882 99 103 96
0.220633 -0.146935 0.104319 125 138 137
-0.299100 -0.166859 -0.042848 109 110 104
0.090969 -0.222819 -0.033474 117 118 109
-0.354182 -0.006121 0.249360 59 60 56
0.323140 0.001479 0.077419 42 56 62
-0.000314 -0.229463 0.001673 134 142 139
0.247416 0.388228 -0.025713 73 77 72
-0.065929 -0.127917 -0.031429 120 133 130
0.025872 0.090483 -0.028123 105 106 100
0.086998 0.114311 0.108829 59 71 73
-0.149782 0.503977 0.043932 149 154 142
-0.211822 0.238522 0.074512 135 143 132
-0.068803 -0.197066 -0.030717 123 136 131
-0.342482 -0.166592 -0.042684 126 134 123
-0.059696 0.083141 -0.032121 89 96 88
0.115865 0.029220 -0.013721 26 31 38
0.056804 0.492674 0.027234 149 158 149
-0.205033 -0.145819 -0.041894 118 120 109
0.161687 -0.144893 0.105273 123 142 142
-0.218189 -0.070282 -0.043939 107 111 104
-0.244782 -0.324121 -0.042713 130 132 123
-0.164162 -0.277513 -0.041591 120 124 117
0.323562 -0.034276 0.085570 51 61 68
-0.231711 -0.278681 -0.043022 129 133 126
-0.155517 0.241539 0.095289 144 154 142
-0.141444 0.504205 0.042994 150 152 141
0.342348 -0.087696 0.105005 70 76 76
0.327189 0.081343 0.083318 50 60 65
0.232806 -0.142463 0.112132 134 149 146
-0.348572 -0.277303 -0.047571 131 132 126
-0.114127 -0.088160 0.002747 114 129 124
-0.216941 -0.028513 0.205443 0 1 0
0.339323 -0.072414 0.109198 69 74 79
-0.341915 -0.192958 -0.044992 127 132 122
-0.269673 -0.160784 -0.044342 114 122 109
0.142988 0.030381 -0.025979 18 24 26
0.242754 0.038839 -0.017455 18 26 25
-0.389743 0.171323 -0.045473 117 125 114
-0.299793 -0.174100 -0.041964 115 130 116
0.339129 -0.131302 0.100887 78 86 87
-0.031117 -0.174953 -0.032689 130 143 142
-0.293203 -0.115247 -0.046398 112 117 105
-0.138366 -0.168218 0.021356 105 114 107
-0.337649 -0.231677 -0.045020 130 131 120
-0.006669 0.141721 -0.028518 98 102 95
0.312754 -0.138694 -0.023197 9 10 4
0.297580 -0.006347 -0.010227 33 43 46
-0.325712 0.231996 -0.046205 138 140 129
0.071727 -0.063494 -0.039023 69 70 64
0.398962 -0.001786 -0.019215 13 10 5
0.135367 -0.186054 -0.028104 100 104 97
0.018992 -0.290177 -0.039932 83 82 82
0.051998 0.253261 0.002181 117 125 114
-0.239170 0.446596 -0.018312 164 169 155
0.246868 0.525370 -0.024638 111 113 102
-0.325684 -0.124057 0.316490 48 48 44
-0.090007 0.104411 -0.032186 99 103 96
-0.356269 -0.008920 0.257227 62 63 57
-0.224584 0.491135 0.027075 150 151 140
-0.223276 0.112910 -0.032257 112 114 101
-0.262366 -0.261428 -0.041712 81 82 76
0.243386 0.090781 -0.017528 21 24 25
0.338245 0.418615 -0.017514 120 125 113
-0.078410 -0.004343 -0.034801 85 94 87
0.292428 -0.142282 0.103808 53 65 71
-0.144878 -0.213483 -0.040369 123 125 116
0.089738 -0.247732 -0.032270 112 116 109
-0.207619 0.398120 -0.046140 112 113 102
0.269466 0.205867 0.111032 68 79 75
-0.133117 0.015887 -0.034339 92 99 91
-0.317995 -0.272344 -0.044921 130 131 122
0.167750 0.506970 -0.028681 110 112 99
-0.079444 -0.192919 -0.029309 124 132 133
0.241015 0.100601 -0.017663 17 25 24
0.198689 0.191714 0.044279 27 32 37
0.323072 -0.048345 0.082808 54 59 66
0.224213 0.187163 0.018628 21 33 35
0.029091 -0.225316 -0.037604 74 79 69
-0.176619 0.239756 0.096990 142 151 142
0.137423 -0.142693 0.092798 49 64 63
-0.250671 -0.219376 -0.042981 121 129 118
-0.259320 0.318808 0.082668 168 169 160
-0.345549 -0.189597 -0.041721 135 140 130
-0.075077 0.213399 -0.032385 106 111 101
0.291994 -0.124599 -0.022154 73 80 72
0.218122 0.088157 -0.018577 15 23 24
0.204896 -0.222227 -0.026772 109 110 101
-0.373414 0.023076 0.267863 69 76 70
0.223919 -0.225188 -0.025376 103 111 100
0.113691 -0.179946 -0.029997 103 110 102
0.158938 0.187290 0.027313 15 21 23
0.247010 -0.144012 -0.023879 87 91 86
0.182050 -0.135753 -0.025395 95 96 90
0.179395 0.319626 -0.033583 93 94 88
-0.184991 0.257862 -0.021431 136 138 125
0.043549 -0.253866 -0.035334 39 44 34
-0.224764 -0.224335 -0.042776 122 126 119
0.139176 0.080918 -0.024325 19 25 25
0.274473 -0.139323 -0.022454 87 91 86
0.102316 -0.015247 0.017004 27 32 39
0.241416 0.357748 -0.028363 108 113 99
-0.224660 0.389304 -0.043905 122 130 119
-0.314925 -0.104953 0.340276 111 137 139
-0.336790 0.000486 0.290429 43 49 51
-0.220624 0.465171 -0.044969 117 129 119
0.173364 0.003784 -0.021803 22 28 30
-0.053719 0.493912 0.015549 148 153 141
-0.125247 0.479723 -0.038701 126 131 119
-0.223118 -0.069212 0.237297 26 27 23
0.016638 0.399657 -0.033828 126 134 123
-0.080933 0.163060 -0.031339 34 34 30
-0.182409 0.069061 -0.034188 104 112 99
-0.166591 -0.057816 -0.035725 98 103 93
-0.212123 0.244890 0.094632 150 159 150
0.199753 -0.125403 -0.026752 23 23 23
-0.347518 -0.314608 -0.049797 137 138 134
0.282072 0.391648 -0.023212 111 112 106
0.142538 -0.142271 0.104463 53 65 67
-0.228844 0.254067 0.017865 142 144 133
-0.184543 0.480665 -0.033538 139 141 130
-0.138051 0.251708 0.007407 130 135 125
-0.290706 -0.101894 -0.046788 116 121 109
0.076116 -0.118046 -0.037924 14 20 20
0.331127 -0.096562 0.106623 66 78 80
-0.188961 -0.015428 0.196459 24 28 23
0.187607 -0.223676 -0.027282 109 110 104
-0.137854 -0.039336 -0.034742 99 104 94
-0.072687 -0.208076 -0.027895 119 127 128
0.217436 -0.140748 -0.025735 87 91 84
-0.103499 -0.293583 -0.042257 97 104 96
-0.216878 -0.196748 -0.043053 121 126 116
-0.136195 0.495084 0.002520 145 146 137
-0.278831 0.244800 -0.042449 136 140 133
-0.270787 -0.096516 0.292216 240 249 240
-0.018497 -0.122038 -0.027021 117 128 126
0.279151 0.525164 -0.022207 121 126 116
-0.163613 0.501079 0.032381 147 149 138
0.149309 -0.014865 -0.024804 19 27 28
-0.316661 -0.229990 -0.042797 130 131 125
-0.162963 -0.001920 -0.034666 0 1 0
0.111778 0.070383 0.013627 28 30 36
-0.038414 -0.202722 -0.030754 128 137 130
-0.255955 0.319525 0.080104 160 158 148
-0.346939 0.051762 0.246109 115 139 139
-0.081131 0.465662 -0.040087 128 132 125
-0.239741 0.238383 0.089122 150 154 147
-0.097907 0.427068 -0.042807 107 115 104
-0.129480 0.505703 0.049885 151 152 141
-0.023852 0.417190 -0.036755 123 123 117
0.255572 0.323173 -0.028570 92 90 82
0.314906 0.115075 0.008307 42 49 55
-0.248612 0.452806 0.035854 164 166 155
0.183471 0.206254 0.113242 124 142 138
-0.002358 0.471520 -0.031904 138 148 136
-0.173421 0.055485 -0.032609 106 111 99
0.045517 -0.073877 -0.039372 65 72 64
0.290828 0.185932 0.074941 28 35 41
-0.092325 -0.238193 0.006921 92 107 104
0.140788 -0.255784 -0.028766 108 113 103
-0.061996 0.504988 0.063975 151 153 142
0.356985 0.349420 -0.015903 117 119 108
-0.060635 -0.225052 -0.019698 118 126 123
-0.196811 0.112211 -0.032566 11 12 6
-0.337205 -0.073601 0.352655 119 143 145
-0.165463 -0.300169 -0.041411 115 116 110
0.106214 -0.109254 -0.031083 79 81 72
0.118976 0.089613 -0.009191 25 30 35
0.058155 -0.196495 -0.036950 75 77 68
-0.163485 0.205102 -0.035129 23 19 20
-0.117860 0.077792 -0.033079 97 107 95
-0.304468 -0.198689 -0.041331 125 132 126
0.389075 -0.190698 -0.020436 109 110 104
-0.207962 -0.049881 0.214676 14 17 16
-0.163411 -0.307187 -0.041219 114 118 111
-0.342043 -0.120343 0.346593 95 125 128
-0.228409 -0.197033 -0.043811 29 34 24
-0.362186 -0.087847 0.356797 118 143 148
-0.204619 -0.284555 -0.042438 127 131 124
0.144788 -0.197030 -0.028139 58 65 59
0.294679 -0.148714 -0.022384 98 100 89
0.085316 0.163013 -0.027571 72 79 73
-0.163706 -0.055417 -0.035616 93 95 86
0.240174 -0.088035 -0.017761 20 25 32
0.223769 0.192155 0.065525 29 37 38
-0.190534 -0.080911 -0.040806 93 89 82
-0.002598 -0.178669 -0.029624 123 136 133
0.289072 0.183151 0.048139 25 32 38
0.241608 -0.164638 -0.023274 93 97 90
0.075506 -0.247022 -0.033461 112 114 103
0.259182 0.000156 -0.017638 18 21 24
-0.262669 0.445735 0.078996 170 168 158
0.302350 0.184627 0.077661 27 35 36
0.207378 -0.068615 -0.021437 19 25 27
-0.384592 -0.006627 0.276771 31 39 36
-0.036760 -0.007121 -0.035968 73 77 72
0.033663 0.244161 0.047813 126 131 121
0.377809 -0.143833 -0.020123 107 108 102
-0.219261 -0.226510 -0.042873 119 129 117
0.324101 0.530164 -0.018927 126 128 119
0.153149 0.187607 0.028276 16 19 22
-0.226743 -0.003419 0.188510 77 84 76
0.192288 0.198887 0.114499 124 144 141
-0.138595 0.253928 -0.035076 100 102 91
-0.178974 -0.136087 0.174373 13 17 12
-0.051905 0.486410 -0.014641 144 146 137
-0.209651 -0.257902 -0.042673 127 127 121
-0.277400 -0.313889 -0.042030 132 132 126
0.288185 -0.221831 -0.022911 106 110 103
-0.237277 0.401224 -0.026569 160 161 150
0.040483 0.103013 -0.026188 101 103 94
-0.025340 0.007811 -0.033718 79 83 76
0.383914 0.327762 -0.011833 76 64 62
-0.124346 -0.297267 -0.042083 0 2 0
0.319870 0.328868 -0.019761 120 121 112
-0.074559 -0.206890 -0.027631 115 121 123
-0.205369 -0.156271 -0.041753 119 124 110
0.027638 0.356485 -0.039932 125 138 125
-0.180500 0.145616 -0.034368 107 112 102
0.280411 -0.189336 -0.023324 63 70 62
-0.268345 -0.116243 0.237477 6 13 7
0.333871 0.148817 0.123500 67 72 79
0.314777 -0.169346 -0.021547 0 1 2
0.305264 0.147273 -0.009420 49 61 67
0.283245 0.478526 -0.023138 60 62 53
0.218364 0.362921 -0.028552 104 105 94
-0.100580 0.476149 -0.037781 135 140 128
0.124602 0.034863 -0.026696 26 37 37
0.041972 -0.166018 0.037504 44 51 45
-0.038413 -0.072742 -0.022496 118 131 126
-0.357693 0.052550 0.244247 117 142 147
0.271852 0.097653 -0.015478 26 34 35
0.395183 -0.191296 -0.019628 104 105 99
-0.251507 0.491753 0.083598 167 168 157
-0.340396 -0.073564 0.353579 121 143 144
-0.106633 0.463262 -0.044205 108 106 96
-0.245934 -0.166795 -0.043604 69 54 53
-0.221336 -0.027517 0.215808 6 5 5
-0.084745 -0.095853 -0.028015 111 124 121
0.165589 0.397533 -0.028023 104 106 95
-0.125143 0.110886 -0.033910 99 104 92
0.122306 -0.138337 0.108482 60 70 77
0.213688 0.191525 0.056433 27 35 36
0.290442 0.455169 -0.023030 119 127 114
-0.059439 -0.267917 -0.042044 96 104 93
0.000552 -0.161342 0.010346 108 119 115
-0.036947 -0.162542 -0.033598 132 140 139
-0.275896 0.157114 -0.038749 117 125 112
-0.215003 -0.062202 0.216995 23 29 27
-0.099449 0.470934 -0.041224 129 137 126
0.371496 -0.207521 -0.020724 107 108 102
0.054160 0.072632 -0.026343 93 102 93
-0.205493 0.109729 -0.031520 110 111 102
-0.241391 0.487863 0.061066 158 156 144
-0.064297 0.059566 -0.032612 45 46 42
0.232033 0.483273 -0.026469 103 105 92
0.126846 0.092837 -0.024392 22 28 28
-0.009006 0.487071 0.004581 144 149 139
-0.241582 0.264326 -0.040577 137 138 129
0.259017 -0.056079 -0.018783 20 26 28
0.384372 -0.189935 -0.020745 98 110 102
0.169584 -0.046745 -0.022763 18 24 24
0.133089 0.191993 0.051807 14 22 23
-0.215389 -0.133637 0.205637 19 25 23
-0.275106 -0.064736 0.289083 121 125 118
-0.225577 -0.232392 -0.043158 120 128 115
-0.237188 0.224236 -0.038223 125 127 116
-0.102673 0.239601 0.081822 132 140 129
-0.220306 0.388640 -0.045110 119 129 115
0.307729 0.507884 -0.020922 128 130 119
-0.224637 -0.071260 0.240316 26 27 23
0.023413 -0.099257 0.011211 133 139 137
-0.306996 -0.266161 -0.042837 127 127 121
-0.099250 0.086105 -0.033431 100 101 95
-0.235585 -0.323979 -0.042608 131 132 126
0.130027 0.036419 -0.027727 18 26 27
0.135065 0.195430 0.091991 30 40 43
0.339311 0.148661 0.122459 72 74 80
-0.283338 -0.301567 -0.042302 133 133 127
0.046273 -0.111179 -0.039036 57 64 58
-0.085024 -0.209662 -0.024075 113 126 123
0.063582 -0.090165 -0.039333 67 68 64
-0.257267 -0.089447 -0.020099 65 69 62
-0.196639 0.486680 -0.018795 147 145 137
-0.247889 -0.106410 -0.046444 114 115 111
-0.250350 0.282786 -0.040960 139 141 128
-0.245916 0.250120 -0.039538 137 142 128
-0.061639 0.204113 -0.031576 0 1 0
-0.270698 0.388317 0.092802 151 166 161
0.350154 0.494986 -0.017258 119 117 107
-0.238503 -0.190730 -0.043423 114 121 113
-0.305730 -0.118703 0.307638 42 51 42
-0.055590 0.043230 -0.033124 89 96 88
-0.181877 -0.030124 0.157292 18 25 17
0.151305 0.183951 0.012472 6 17 17
0.212172 -0.136706 -0.025895 93 96 95
-0.244568 0.467551 0.019799 161 162 149
-0.319637 -0.088655 0.345485 118 146 150
-0.228677 -0.057436 0.241600 30 30 30
-0.270455 -0.099249 0.289690 205 210 200
-0.334724 -0.243996 -0.044930 128 129 123
-0.019019 0.216862 -0.029594 111 121 105
-0.200403 -0.011701 0.205554 27 27 29
-0.177020 -0.238101 -0.041889 122 124 115
-0.068982 -0.098102 -0.033191 122 133 129
-0.127655 0.071881 -0.033708 90 100 86
-0.170258 0.255294 -0.010295 131 136 126
0.197702 0.048483 -0.019844 21 27 29
-0.005859 0.395758 -0.035504 129 134 124
-0.133807 0.512962 0.071473 151 156 146
-0.009569 -0.083049 -0.013268 129 142 139
-0.191288 -0.205379 -0.042134 125 126 120
-0.119219 0.010352 -0.033459 92 102 90
-0.223388 0.420508 -0.044075 126 127 116
-0.250443 0.431887 0.022702 163 164 153
-0.230584 0.443002 -0.039450 147 149 138
0.325936 -0.103622 0.096450 57 62 71
-0.289080 -0.092473 0.311900 81 86 76
0.045247 0.245950 0.082381 137 146 137
-0.135543 -0.011992 -0.034731 88 93 83
0.181781 -0.260681 -0.027164 110 106 107
-0.349004 -0.338430 -0.049597 122 129 121
0.211079 -0.239325 -0.026530 111 112 108
-0.066756 -0.153602 -0.014622 111 126 121
-0.132453 -0.295836 -0.041459 105 109 102
0.072726 0.277144 0.059074 141 146 136
0.348750 -0.190177 -0.020186 80 80 80
0.315418 -0.043144 0.036178 42 49 55
0.291526 0.363117 -0.023703 119 124 114
-0.110954 0.248441 0.041552 128 136 125
-0.223860 -0.073964 0.239987 30 30 26
-0.140933 -0.316188 -0.042462 116 120 113
0.089415 -0.189999 -0.033460 102 106 99
0.156026 0.161354 -0.017734 16 22 22
0.342973 -0.217048 -0.020884 110 111 102
-0.022499 0.071825 -0.031585 83 91 80
-0.152714 0.242598 0.057642 133 141 128
0.046823 0.123191 -0.025619 99 103 96
-0.204937 -0.071924 0.210065 16 15 15
-0.120156 0.158052 -0.033325 98 108 94
0.161896 -0.003785 -0.022753 20 28 27
0.166833 0.493035 -0.029450 103 108 94
-0.159209 -0.080103 -0.036517 107 109 100
-0.382003 0.146359 -0.047374 115 122 116
-0.098898 0.075656 -0.033445 82 95 82
-0.338878 0.020782 0.245264 118 127 120
0.380530 0.393265 -0.012842 53 54 45
0.344962 -0.131716 -0.020876 74 77 78
-0.264842 0.151330 -0.040206 7 16 9
-0.189696 0.121110 -0.033899 22 17 13
-0.229039 0.476687 -0.019832 152 154 143
0.213927 -0.046382 -0.020053 19 25 25
-0.206362 0.220054 -0.036159 121 126 114
0.298364 0.142304 -0.010749 42 50 51
0.273166 -0.075065 -0.017089 36 43 49
0.065748 -0.214526 -0.035179 99 103 96
0.178303 -0.028593 -0.022729 19 27 26
-0.119365 -0.108682 -0.001162 113 126 123
-0.275662 -0.108954 0.284843 136 143 137
0.073206 -0.100076 0.095945 73 86 95
0.048479 0.474476 -0.012421 149 151 142
0.325275 0.028689 0.088936 50 62 64
-0.397950 0.054343 0.263436 107 109 115
0.236469 -0.247060 -0.024774 110 111 105
0.141281 0.195483 0.087730 32 42 45
-0.139925 0.195888 -0.034624 106 114 101
0.001813 -0.079338 0.011434 123 135 127
0.130836 0.416352 -0.031370 52 53 42
0.087846 -0.212450 -0.033565 109 114 104
-0.091580 0.023952 -0.033476 84 91 83
-0.327622 0.271805 -0.049737 139 140 127
-0.250869 -0.203190 -0.042616 125 127 116
0.034670 0.001541 -0.031916 53 54 50
0.272229 0.011416 -0.015824 31 41 44
0.062383 -0.060344 -0.037573 60 64 59
0.292050 0.334462 -0.022407 89 86 83
-0.331292 -0.156941 -0.044462 53 54 43
0.106426 0.338178 -0.026325 97 105 90
-0.151139 -0.071049 -0.036820 102 107 97
0.081197 0.412685 0.033852 155 159 154
-0.120070 0.022068 -0.033341 91 99 86
-0.148084 0.498385 0.022018 147 149 136
0.319191 0.143602 0.026023 48 53 58
-0.073614 -0.246375 0.005051 106 112 110
0.180665 0.188897 0.028792 12 18 18
0.281212 0.039309 -0.014221 33 43 46
0.263392 0.190500 0.087968 27 37 40
-0.325068 -0.070209 0.343754 114 139 144
0.225250 0.378703 -0.026761 115 120 110
-0.374883 0.028275 0.269571 67 76 69
0.041819 -0.135981 0.000336 128 139 137
0.258624 0.041832 -0.017036 21 24 25
0.254711 0.213607 0.107324 122 142 137
0.314848 -0.221829 -0.021890 7 10 13
-0.055876 0.486511 -0.018782 142 146 139
0.205573 -0.067154 -0.021541 20 23 24
-0.061556 0.131819 -0.031615 54 55 46
-0.119784 0.244475 0.061964 133 141 130
-0.281699 0.323131 -0.045461 140 146 129
0.034915 -0.082815 -0.040287 75 82 76
0.315055 0.185196 0.119747 59 59 63
-0.265339 0.239649 -0.041346 136 141 129
0.019723 -0.190390 -0.011330 146 157 153
-0.209053 0.442690 -0.045808 110 112 99
0.138876 0.195646 0.074142 29 40 40
-0.215051 0.481099 -0.026699 144 146 137
0.064605 0.076951 -0.026562 97 104 96
-0.278253 -0.095746 0.297821 30 33 32
-0.146180 -0.148344 0.044756 109 124 121
-0.012763 0.027503 -0.032365 80 84 77
0.184037 0.178108 -0.013604 14 20 22
-0.228920 -0.151409 -0.044023 39 47 36
0.271579 -0.039815 -0.017384 33 45 47
0.073630 0.079375 -0.027675 70 73 72
0.057183 -0.240884 -0.034934 107 109 100
0.231612 0.105033 -0.018024 16 19 22
-0.253102 0.365467 0.070198 162 160 150
0.285291 0.481799 -0.023117 81 86 74
0.294438 -0.222302 -0.022524 103 105 96
0.135525 -0.250657 -0.029348 84 79 77
-0.203517 -0.297935 -0.041777 122 122 116
0.193052 0.149959 -0.018302 12 20 19
0.212142 0.173527 -0.018152 15 21 23
0.035544 -0.136839 -0.000744 146 154 151
-0.155125 -0.275957 -0.041306 114 118 111
-0.217296 0.384673 -0.046058 119 117 107
-0.111316 -0.262288 -0.040173 108 112 105
0.093617 -0.139544 0.095134 57 68 77
-0.135709 -0.121454 0.025460 115 127 119
0.169182 0.067248 -0.021178 16 27 27
0.227828 -0.150631 -0.024594 93 97 90
-0.301811 -0.120456 -0.046580 117 124 116
0.051305 0.105067 -0.025799 91 98 92
0.185289 -0.233266 -0.026919 107 111 104
-0.224523 -0.054156 0.232271 18 18 18
0.056199 -0.234920 -0.034969 102 107 97
-0.183227 0.494696 0.005659 141 146 136
-0.229063 0.231172 -0.038583 49 45 38
0.331867 -0.215964 -0.020993 105 106 95
-0.232104 -0.123828 -0.044425 56 52 45
0.055039 0.257365 -0.023128 89 91 78
0.224159 -0.121488 -0.018331 54 61 55
-0.202702 -0.120927 0.183344 1 4 3
0.384161 0.403337 -0.011345 113 123 111
0.322764 0.499068 -0.019732 128 130 119
-0.021041 -0.292537 -0.041458 41 45 38
0.135432 -0.049315 -0.023900 15 23 24
-0.196639 -0.058387 0.208637 8 11 12
0.393943 -0.144322 -0.019286 93 97 90
-0.283028 -0.260713 -0.040798 136 137 128
0.010608 0.226845 -0.027713 109 114 102
0.024425 -0.011044 -0.034289 84 88 81
0.088821 0.300526 0.070134 135 137 128
-0.217056 0.104214 -0.030061 108 113 101
0.069306 0.209661 -0.024497 111 121 109
-0.032861 -0.213908 -0.026017 120 133 130
0.105456 -0.140702 0.096269 58 68 73
-0.134884 0.483252 -0.032627 136 137 126
0.323863 0.432741 -0.019303 127 128 117
-0.369062 0.106195 -0.029664 116 117 111
0.167390 0.194230 0.059861 22 32 37
0.275159 -0.144995 0.079950 54 62 59
-0.076911 -0.287404 -0.042461 113 116 115
0.147722 0.489336 -0.030463 25 29 22
-0.060333 0.457729 -0.038460 129 133 126
-0.074032 0.241867 0.081568 133 141 130
0.161977 -0.163847 -0.026555 95 99 92
-0.317331 -0.095481 -0.048366 117 122 112
-0.215297 -0.131037 0.203177 2 5 4
-0.227878 -0.024209 0.216152 18 17 17
0.064907 0.183075 -0.023618 107 112 100
-0.207241 -0.275957 -0.042350 126 127 118
-0.148632 0.381080 -0.048415 102 103 97
-0.102751 0.033771 -0.033571 88 98 86
-0.320961 -0.162115 -0.043798 128 130 121
0.075619 0.118901 -0.026257 112 116 111
-0.032885 0.394555 -0.038431 128 133 123
-0.045446 -0.104823 -0.031404 115 126 124
-0.158905 0.134782 -0.034587 107 115 104
-0.271316 0.089227 -0.020740 124 125 119
-0.326782 -0.123135 -0.047601 119 127 116
-0.193487 -0.290128 -0.042198 55 56 50
0.266478 0.065016 -0.016960 24 27 30
-0.032887 -0.116848 -0.030139 114 125 125
0.312092 -0.185534 -0.021762 65 69 64
-0.153769 -0.286287 -0.041035 111 112 106
-0.347020 -0.121227 0.350475 98 126 130
0.160018 0.443601 -0.029517 102 107 95
-0.142696 -0.227578 -0.039860 116 117 111
-0.350531 -0.118776 0.355833 101 131 134
-0.166736 0.234769 0.089174 140 145 133
-0.275669 0.292696 -0.044749 127 127 121
0.094092 0.290640 -0.030335 91 91 85
-0.379205 -0.124114 0.255008 26 35 28
-0.202852 0.166269 -0.035253 116 126 114
0.085355 0.276085 0.073196 142 150 139
-0.288170 0.200159 -0.040712 134 139 125
0.223674 -0.180210 -0.025383 99 99 93
0.206678 -0.061882 -0.020737 24 27 28
-0.319377 -0.109211 -0.047098 119 121 112
0.367798 -0.137608 -0.019817 98 100 91
-0.352395 -0.305190 -0.048758 145 143 135
0.083737 0.204177 -0.025394 27 31 26
0.136906 -0.141997 0.095170 52 65 64
0.256993 0.492956 -0.024242 103 105 92
-0.368813 0.119697 -0.043925 113 123 107
0.325862 0.327451 -0.019361 113 117 110
0.314655 -0.166207 -0.021455 85 82 79
-0.266300 0.354905 0.088195 150 163 158
0.304889 -0.158169 -0.022398 102 104 95
0.388272 0.353764 -0.012149 120 118 108
-0.048206 0.216337 -0.031421 110 115 103
0.012120 -0.237548 -0.038230 80 76 69
0.083520 0.275437 0.073483 139 147 136
0.100814 -0.140390 0.097309 55 62 68
0.166309 0.004489 -0.022290 21 27 29
-0.327574 -0.124769 0.317011 42 45 44
-0.350619 -0.088963 0.362009 126 151 156
-0.073037 -0.297054 -0.042504 110 115 105
-0.162608 -0.121309 0.147175 11 15 10
-0.134227 -0.148469 0.017909 100 111 109
-0.014178 -0.152470 -0.030522 120 128 125
-0.137465 -0.201258 0.038402 107 116 109
-0.292178 -0.100323 0.312065 79 87 76
0.112148 -0.239465 -0.030877 39 23 18
-0.308230 -0.109693 0.326147 64 71 63
-0.199467 0.255106 -0.006009 137 139 128
-0.329484 0.069185 0.119033 87 84 68
-0.310441 -0.144194 -0.044491 120 125 115
-0.123806 -0.116407 0.003583 105 116 112
0.265115 0.182400 0.019504 24 34 37
-0.034362 -0.281493 -0.042007 106 113 105
-0.397590 0.002751 0.288606 57 66 57
-0.372240 0.015610 0.266808 69 73 66
-0.324560 -0.245348 -0.044797 134 135 124
0.040266 -0.196248 -0.038236 71 74 73
-0.182147 0.152358 -0.034908 109 111 100
-0.157733 0.171301 -0.034850 115 117 101
0.114413 0.191351 0.100395 28 35 39
-0.371310 -0.026753 0.292511 65 65 59
0.001599 0.236184 0.079102 131 135 128
-0.040519 0.099840 -0.032112 87 94 86
-0.248710 -0.058829 0.259817 26 33 27
-0.274858 -0.298679 -0.041682 127 135 124
-0.053852 0.131002 -0.031153 92 100 89
0.161537 -0.144246 -0.026494 96 100 93
-0.243808 -0.260852 -0.043214 123 128 118
0.200536 0.336434 -0.032786 38 39 30
0.210903 0.064990 -0.019684 22 25 26
0.150891 0.349448 -0.027754 100 105 91
-0.024429 -0.067992 -0.008779 127 140 137
-0.122062 0.185195 -0.033582 98 111 98
-0.281782 0.144126 -0.038304 122 124 113
-0.245765 -0.193779 -0.043318 124 125 116
-0.122198 -0.094397 0.010348 119 130 126
-0.221107 -0.070293 0.206580 19 19 15
0.284760 0.121538 -0.012560 26 38 42
-0.154518 0.368619 -0.048173 107 109 98
-0.074728 0.249788 0.025958 129 136 128
-0.126430 -0.160069 -0.003072 74 79 69
0.182514 0.200843 0.111601 125 143 141
0.146227 0.032717 -0.025358 19 26 30
-0.023088 -0.115387 -0.028892 113 126 123
0.178536 0.392318 -0.027707 13 9 0
0.141834 0.057691 -0.025499 16 27 27
-0.053288 0.378802 -0.041523 124 128 121
-0.293908 -0.119875 0.266898 66 70 63
0.200229 -0.045049 -0.021073 18 26 27
-0.324339 -0.088959 0.348495 121 146 151
-0.183546 -0.161473 -0.039185 106 111 97
-0.167119 0.505888 0.059527 151 156 144
-0.229286 0.497621 0.060331 153 154 145
-0.250186 -0.047610 0.243603 50 57 49
0.219400 -0.050773 -0.019931 19 25 27
0.379108 0.544110 -0.013244 112 108 99
0.030968 0.250966 0.002100 123 128 116
-0.049316 0.494021 0.013654 145 150 138
0.359936 -0.163027 -0.020452 98 102 95
0.154204 -0.166740 -0.027193 79 75 76
0.027525 0.238780 0.086430 137 149 139
0.317126 0.169388 0.056537 36 48 52
-0.284077 0.179048 -0.039603 133 131 121
-0.201540 0.192350 -0.035699 122 127 115
-0.205247 0.215486 -0.036121 119 121 112
-0.176702 0.511628 0.073092 159 161 150
-0.029125 -0.192743 -0.031775 128 139 137
-0.233540 -0.297137 -0.042699 124 124 118
0.397200 -0.041675 -0.020371 70 74 69
0.071509 -0.120209 -0.039369 75 79 74
-0.211852 -0.169042 -0.043026 116 121 111
0.347786 0.517097 -0.017246 124 129 117
-0.191217 -0.194002 -0.041681 120 120 114
-0.052756 0.483339 -0.023772 138 143 133
-0.303299 -0.091665 0.330137 80 84 77
-0.007853 0.030296 -0.031946 90 91 82
-0.140377 0.103451 -0.034132 98 99 88
0.087732 0.239371 -0.028061 90 97 89
0.209100 -0.216995 -0.026189 108 109 103
-0.054036 0.498718 0.033483 145 149 142
0.277472 0.193145 0.113915 55 60 67
0.011469 0.234210 -0.027840 106 111 97
0.340950 -0.134952 0.076656 88 89 85
0.008178 -0.176010 -0.025890 137 150 147
0.059183 0.114929 -0.025300 98 100 91
0.121881 0.193121 0.097212 30 41 41
-0.052178 -0.096848 -0.032612 117 128 126
-0.086618 0.097025 -0.033007 91 104 89
0.374650 -0.197833 -0.020603 107 109 100
-0.272479 0.151457 -0.039457 111 113 102
0.271973 0.137181 -0.015467 24 31 37
0.319218 0.010159 0.041905 44 56 60
-0.329553 -0.302815 -0.047719 61 63 54
0.173811 0.133171 -0.018537 16 22 22
0.032291 -0.026153 -0.035418 68 69 63
-0.126432 -0.140366 -0.002248 79 87 84
-0.170702 0.185400 -0.036061 116 121 107
0.165191 0.487220 -0.029790 106 107 94
0.334121 0.448424 -0.019007 126 127 114
0.334453 0.549196 -0.017871 133 130 116
-0.253082 0.336412 0.023276 160 161 148
-0.293146 -0.203163 -0.041429 120 124 119
-0.188378 -0.054063 0.195295 112 117 103
-0.345605 0.011194 0.253750 53 52 52
0.064679 -0.217809 -0.035390 101 102 98
-0.200465 -0.001935 -0.034091 48 44 37
-0.148011 -0.041084 -0.035391 60 52 49
0.038030 0.145937 -0.026928 9 11 2
-0.287643 0.261688 -0.044379 145 151 132
0.260491 -0.180357 -0.023242 101 101 95
0.079232 0.024124 -0.027506 79 87 84
0.046266 0.153378 -0.025368 100 107 99
-0.119858 0.418629 -0.045559 97 98 89
-0.086793 -0.015241 -0.035896 82 89 81
-0.184555 -0.278008 -0.042192 124 124 118
-0.310775 -0.323392 -0.046843 127 127 121
0.126114 -0.189166 -0.028827 95 103 100
0.232044 -0.141754 -0.024174 88 92 85
0.354008 -0.218164 -0.020622 105 106 102
-0.044371 -0.004667 -0.036195 81 86 76
0.066766 0.060721 -0.025895 93 101 88
-0.337640 -0.113066 0.351412 108 136 140
0.154659 0.196179 0.075340 32 37 44
-0.247132 -0.062629 0.261573 22 26 21
-0.227137 0.170555 -0.035894 119 120 109
0.260015 -0.225150 -0.023718 105 109 102
0.336094 0.431773 -0.017901 126 127 116
-0.022039 0.472390 -0.031806 137 141 134
-0.249264 0.425378 0.015444 162 163 154
0.211359 -0.150328 -0.024798 56 54 46
0.085150 0.247399 -0.030276 26 22 23
-0.255229 0.353587 0.079195 162 158 149
0.042156 -0.074472 -0.039523 66 67 63
-0.080501 -0.188301 -0.029100 122 133 131
0.094352 -0.190843 -0.032841 101 106 96
-0.239470 -0.087248 -0.044459 109 113 106
-0.336862 -0.120362 0.342028 94 118 120
-0.236239 0.352170 -0.032448 151 156 146
0.299732 0.017646 -0.008432 45 47 53
-0.253408 0.343965 0.070954 155 156 147
-0.189070 0.230560 -0.035315 123 128 116
0.202975 0.195726 0.094971 34 42 43
0.339495 0.023141 0.118849 65 75 78
-0.267887 -0.112495 0.271216 98 99 93
-0.029910 -0.250597 -0.041451 65 69 62
0.116932 -0.192154 -0.030044 102 107 97
0.295541 -0.244382 -0.023182 103 113 101
0.023611 0.424695 -0.032365 129 137 126
0.095873 0.064560 0.070666 27 32 37
-0.318283 -0.302583 -0.046229 124 129 119
0.170129 -0.142486 0.112442 124 141 144
-0.232105 -0.106743 0.239308 6 9 8
-0.042158 0.438645 -0.037601 128 135 127
-0.230460 -0.157102 -0.043315 64 69 59
0.112912 0.461913 -0.028209 33 34 25
0.002028 -0.117466 -0.018351 122 133 129
0.316408 0.056906 0.023012 42 49 55
0.139338 0.440628 -0.031779 113 111 99
-0.267623 0.255215 -0.043004 134 142 129
0.381277 -0.130105 -0.020428 0 1 0
0.309557 -0.209185 -0.021516 103 103 97
-0.028916 0.076774 -0.031682 24 28 23
0.348477 -0.161922 -0.020392 73 73 73
-0.216432 0.004418 -0.033484 98 106 93
0.006065 -0.047111 -0.038156 0 2 0
0.168818 -0.181878 -0.026766 106 106 100
-0.014240 0.087685 -0.030718 89 94 84
-0.273708 -0.127793 -0.045861 103 111 100
0.327583 -0.109043 0.100094 63 69 80
0.101816 0.386434 -0.029387 108 109 98
0.152286 0.433367 -0.029350 109 110 99
-0.208275 -0.091757 -0.040693 115 117 106
0.007473 -0.181298 -0.024759 137 145 144
0.156544 0.138290 -0.018891 8 19 19
-0.136321 -0.165108 0.017761 104 113 106
-0.199165 -0.195270 -0.042448 113 121 106
-0.293630 -0.343808 -0.045210 116 116 110
0.126514 0.159002 -0.020742 21 27 29
-0.340996 -0.119344 0.347489 101 125 125
0.301423 -0.031773 -0.003425 55 62 68
0.140504 -0.135858 0.111555 66 74 75
-0.141193 -0.135179 0.033007 114 126 118
0.147177 -0.113928 -0.029984 62 66 61
0.152765 0.104914 -0.021254 18 24 26
0.394309 -0.118058 -0.019502 90 90 84
-0.284221 -0.312134 -0.042116 127 128 117
0.027102 -0.198831 -0.003295 151 158 152
-0.056939 0.474263 -0.033669 133 141 130
0.044374 0.245642 0.036496 126 131 121
-0.263615 -0.304154 -0.041527 128 132 125
-0.354453 -0.123373 0.257881 57 49 48
0.214792 0.516072 -0.026159 105 109 102
-0.115500 0.219295 -0.033374 106 114 101
0.115246 0.019419 -0.013756 29 40 38
-0.268378 0.285129 0.090129 171 173 160
0.128689 0.016708 -0.028010 17 27 30
0.215740 0.397573 -0.026791 106 104 96
-0.015283 -0.180346 -0.032214 125 138 135
-0.365352 -0.013674 0.270011 80 75 73
0.205906 0.194672 0.103677 37 49 51
-0.141021 -0.298773 -0.041740 106 110 103
0.189955 0.532081 -0.027882 110 112 99
-0.062752 -0.095276 -0.032745 118 131 128
0.085364 -0.129708 0.102374 59 71 75
0.048841 -0.168423 -0.039064 57 66 57
0.298583 -0.096551 -0.003844 48 55 61
0.122512 -0.210039 -0.030160 51 52 46
-0.264005 -0.131382 -0.045479 30 35 25
-0.017819 0.379779 -0.039140 123 127 122
0.325460 0.092404 0.064738 46 56 61
0.177769 0.429734 -0.027641 99 97 89
0.339886 -0.225117 -0.020744 110 114 109
0.217973 -0.209339 -0.025777 96 95 97
-0.386361 0.009763 0.283043 68 68 64
0.121023 -0.141008 0.092062 53 63 70
0.074831 0.231575 -0.027697 78 78 74
0.163979 0.179412 -0.000817 11 19 20
0.276700 -0.182250 -0.022863 103 107 100
0.071989 -0.123661 -0.039054 34 38 33
-0.208483 -0.121911 -0.041970 117 122 112
-0.210053 0.236956 0.096412 148 156 145
0.088771 0.368291 0.082522 130 148 144
0.302589 -0.034017 -0.001513 54 61 69
-0.102746 0.384917 -0.046576 102 103 97
-0.329298 -0.086312 -0.049350 66 66 62
-0.017966 0.163767 -0.028637 84 94 82
0.337377 0.149796 0.123135 67 72 79
-0.087549 0.030555 -0.032987 88 98 86
-0.318323 -0.178928 -0.043180 123 128 118
0.210513 -0.003074 -0.019429 20 26 28
-0.034072 0.364018 -0.040849 131 136 126
0.324940 0.123826 0.060724 43 55 61
-0.220205 0.241255 0.068783 142 144 135
-0.204588 -0.018040 0.203501 4 8 1
0.324626 -0.177128 -0.021201 110 111 100
0.252912 -0.209511 -0.024533 94 90 93
0.222008 0.056603 -0.018210 18 20 26
-0.050487 0.502417 0.055657 150 152 143
0.271885 0.059745 -0.016038 30 40 43
-0.340360 -0.228879 -0.045267 129 130 119
-0.112163 -0.219618 0.009339 99 106 100
0.339963 -0.049302 0.111963 68 76 77
-0.326469 0.234474 -0.046455 133 138 126
0.170445 -0.071375 -0.023710 20 23 26
0.176101 -0.251342 -0.027066 80 74 76
0.015712 0.489911 0.007955 142 149 141
-0.343918 -0.083871 -0.048693 114 119 109
-0.127271 0.173287 -0.034711 100 98 90
-0.145000 0.123886 -0.033537 91 95 88
-0.188413 -0.209722 -0.042168 94 101 93
0.267044 -0.207092 -0.024026 100 104 97
-0.009767 0.242105 0.055838 128 133 123
-0.195329 -0.214141 -0.042552 55 51 42
0.168426 -0.085908 -0.023548 16 28 34
0.069094 0.031469 -0.026512 72 85 80
0.161105 -0.198871 -0.027857 107 109 98
-0.197209 -0.055192 0.211222 28 34 32
-0.186817 0.257665 -0.018460 128 136 121
-0.118173 -0.266490 -0.040532 103 106 105
0.122485 0.059176 -0.019997 32 43 43
0.081251 -0.119054 -0.037095 74 78 71
-0.045884 0.139021 -0.030697 95 99 92
-0.353530 -0.001683 0.257306 58 62 55
-0.078669 -0.233853 -0.008524 104 115 111
-0.397037 0.144587 -0.039312 102 106 99
-0.020168 0.407335 -0.037077 121 128 122
-0.237113 -0.124542 -0.045142 17 10 4
-0.213128 0.088654 -0.031514 108 113 101
-0.075208 0.041110 -0.032883 31 35 28
-0.091685 -0.009022 -0.034660 87 88 82
0.029972 0.518610 0.070582 142 146 139
0.130938 0.175208 -0.012983 14 20 22
0.291383 0.547814 -0.021357 117 125 114
0.213410 0.103741 -0.018806 19 25 27
-0.328084 -0.156390 -0.044273 124 126 117
0.326369 -0.098239 0.099311 53 65 71
-0.244258 -0.268806 -0.042490 129 127 117
0.395846 0.281842 -0.007585 102 106 99
0.171170 -0.148055 0.096725 113 131 127
-0.186640 0.086428 -0.032754 100 110 98
0.004669 -0.000009 -0.033251 1 4 3
-0.129999 0.249921 0.021626 130 135 125
0.217401 -0.141791 0.115102 121 136 133
0.002968 0.030704 -0.032380 69 73 68
-0.182570 -0.200889 -0.040644 117 122 112
0.112703 -0.195867 -0.031104 109 111 98
0.332069 0.112436 0.118945 71 78 84
0.047329 -0.118160 -0.038320 58 62 57
0.172815 -0.233824 -0.027703 107 108 102
0.239799 -0.250959 -0.024434 99 102 101
0.303810 -0.180773 -0.021647 110 112 101
-0.095366 -0.179456 -0.023685 116 127 123
-0.229399 -0.085558 0.247771 27 24 21
-0.133691 -0.137439 0.019789 105 113 112
-0.168690 0.050860 -0.033737 105 110 96
-0.277687 -0.116247 0.271706 81 81 77
0.123856 0.172059 -0.013957 17 28 26
-0.142164 0.111396 -0.033552 101 106 92
0.085090 0.209124 -0.025484 108 115 107
0.218188 -0.173291 -0.025114 94 95 84
0.397877 0.043471 -0.019608 77 77 79
0.325522 0.339578 -0.019035 119 120 109
-0.112456 -0.043024 -0.036469 79 83 78
-0.271320 -0.263062 -0.041644 128 133 123
0.065564 0.324336 0.008857 148 155 147
0.384227 -0.139540 -0.019618 89 94 82
-0.223848 0.470132 -0.041801 143 145 134
0.389885 0.529121 -0.012952 129 130 121
0.167238 0.185262 0.015925 13 21 22
-0.134358 -0.282848 -0.041066 109 113 106
0.075101 0.376056 0.023052 158 162 155
0.010238 0.472356 -0.029484 138 146 135
0.216425 0.134992 -0.017206 14 20 20
-0.169652 -0.132215 0.169615 142 156 145
0.153971 0.041218 -0.023286 21 28 32
0.056515 0.369522 -0.034650 142 154 144
0.228630 0.392619 -0.026783 104 105 92
-0.049108 -0.063183 -0.010417 121 134 129
-0.240348 -0.114977 0.217393 10 13 12
0.141290 0.390263 -0.029325 112 111 96
-0.060690 -0.197101 -0.031060 128 139 135
-0.033377 -0.293188 -0.041683 72 86 75
0.221758 -0.255330 -0.026180 103 112 105
0.100627 -0.104959 -0.031564 88 92 87
-0.225371 0.024278 -0.032735 94 99 87
-0.167655 -0.101120 -0.038082 111 113 104
0.219862 -0.036559 -0.018972 20 26 28
-0.102512 -0.082178 -0.006933 111 122 118
0.324814 -0.111557 0.091404 54 61 65
0.345528 -0.104203 0.100356 75 85 88
0.316829 0.100398 0.014163 40 47 53
0.238257 0.145969 -0.017217 7 15 16
0.325080 0.494108 -0.019888 122 125 109
-0.006836 -0.081258 -0.006991 132 147 142
0.309393 0.435816 -0.020610 122 127 113
-0.233868 -0.129431 -0.044584 120 124 117
-0.092147 -0.282690 -0.042153 44 46 35
-0.024359 -0.261866 -0.041116 39 41 32
-0.140827 -0.174214 0.028972 107 115 112
-0.260892 -0.265816 -0.041654 30 27 22
0.326565 0.067570 0.080607 48 62 68
0.067715 0.149014 -0.025113 106 111 99
0.074746 0.442679 0.016906 158 162 155
0.212823 0.333383 -0.031733 92 90 82
0.053351 -0.015801 -0.031992 72 79 71
-0.323858 0.140910 -0.044064 126 128 117
-0.145258 0.068156 -0.033627 97 105 92
-0.208777 -0.127090 -0.042510 121 131 117
-0.058033 -0.149004 -0.030205 121 132 128
-0.136825 0.375081 -0.047674 98 102 95
-0.203540 -0.267585 -0.042725 126 127 121
-0.284206 0.186308 -0.039964 131 134 118
-0.259284 -0.064442 0.275036 127 132 122
-0.322616 0.182472 -0.043385 130 132 121
0.185611 -0.236201 -0.027086 104 112 101
-0.127629 -0.254453 -0.040290 110 119 110
-0.228686 0.493134 0.045987 154 152 142
0.206018 0.152581 -0.018101 14 20 22
0.389853 0.537534 -0.012710 124 117 111
-0.134567 0.507268 0.065935 149 154 144
-0.304537 -0.090209 0.331800 86 87 81
0.215842 -0.220329 -0.026537 107 108 102
-0.070034 0.117097 -0.031885 100 102 91
-0.229298 -0.096627 0.243570 11 19 16
-0.145602 0.053801 -0.034129 94 101 93
0.329108 0.108217 0.104942 54 61 67
-0.066311 0.369752 -0.044031 129 133 126
0.369706 -0.180202 -0.020321 102 107 95
-0.264316 0.065992 -0.018278 115 120 110
0.098694 -0.140591 0.091836 59 70 70
-0.249861 -0.241729 -0.042583 128 130 121
-0.159301 0.203886 -0.035444 99 103 96
0.108800 0.402654 -0.030871 118 115 101
-0.267177 0.216965 -0.040865 137 142 132
0.243928 0.082925 -0.017863 14 22 23
0.325964 -0.135126 0.100464 60 70 75
-0.169723 0.441337 -0.046413 102 107 95
-0.251993 -0.194924 -0.043384 120 128 115
0.045692 0.171188 -0.025650 104 114 102
-0.043394 -0.037755 -0.029742 111 122 118
0.084574 0.287392 0.070509 140 150 138
0.214397 -0.186676 -0.025191 97 99 90
0.319283 -0.050238 0.053480 40 50 53
0.024212 -0.285056 -0.038591 101 106 96
-0.078519 -0.168322 -0.028753 128 136 137
-0.249179 -0.082172 0.270863 36 42 40
0.161612 0.503116 -0.029259 99 104 94
-0.135778 -0.134286 0.023935 114 120 118
0.168398 -0.068258 -0.023576 18 26 27
0.143556 0.089333 -0.022906 15 23 24
-0.315431 -0.345634 -0.049096 130 134 129
0.347858 0.036009 0.106125 79 83 78
-0.353753 0.003738 0.263512 67 68 62
-0.122805 0.478667 -0.040038 121 126 114
0.284899 0.489813 -0.022729 62 58 49
-0.229826 -0.063776 0.246671 29 24 22
0.337025 0.526721 -0.018058 130 131 120
-0.260817 0.215571 -0.040286 124 126 115
-0.285957 -0.117791 0.271353 69 73 68
-0.177969 0.459892 -0.046825 110 111 102
-0.181619 -0.238912 -0.041997 121 123 114
0.057358 -0.029336 -0.033952 70 77 69
-0.275084 -0.091566 0.296781 65 68 71
-0.319930 -0.293846 -0.046192 50 43 37
-0.275621 -0.235689 -0.041083 130 130 124
0.082039 -0.227548 -0.033267 108 115 107
0.171909 0.478460 -0.027722 105 107 94
0.051075 0.020959 -0.028719 78 82 77
-0.017921 -0.254670 -0.040971 98 108 94
0.261186 -0.244360 -0.023858 101 105 98
-0.081112 0.079116 -0.032964 94 101 95
-0.035610 -0.275747 -0.042002 109 113 108
0.278291 -0.008105 -0.015521 32 42 45
-0.116508 0.123212 -0.033213 77 78 65
0.269497 0.362369 -0.025987 103 104 95
0.033810 -0.286305 -0.038694 98 105 99
0.197488 0.190941 0.034816 21 33 35
-0.323783 -0.087121 -0.049261 111 112 106
-0.389639 0.122918 -0.038473 68 76 63
0.329078 0.025459 0.113039 81 95 101
-0.089107 0.461870 -0.041202 126 130 123
0.266718 0.473379 -0.024972 108 106 94
-0.228980 -0.128584 -0.044315 68 66 58
0.079030 -0.129750 0.094233 74 84 87
0.095575 0.338137 0.073376 142 147 137
-0.010100 -0.277426 -0.040779 109 109 105
0.141366 0.342759 -0.028568 78 79 68
0.046231 0.127458 -0.025781 96 100 95
0.238694 0.397071 -0.026126 102 104 93
-0.229715 -0.120040 -0.043763 12 3 0
-0.167048 0.251983 0.010954 128 136 123
-0.051779 0.248048 0.086048 136 149 134
-0.084141 -0.276830 -0.041888 114 115 111
0.155115 0.047237 -0.022965 19 27 28
0.333308 -0.078226 0.108988 61 71 78
-0.326999 -0.252071 -0.045059 95 85 83
0.255205 0.487251 -0.024685 104 106 95
0.038693 -0.243985 -0.035963 101 102 93
0.162306 0.153704 -0.017267 14 20 22
0.246294 0.166593 -0.016312 15 21 23
0.275801 0.088071 -0.015025 33 45 47
0.168592 -0.069954 -0.023710 18 24 26
0.009044 0.382298 -0.037812 122 126 121
-0.019831 -0.290881 -0.041296 33 29 30
0.066189 -0.237873 -0.034271 101 101 101
-0.248942 -0.107410 0.179867 78 85 79
-0.274356 0.186033 -0.039803 128 133 121
0.082559 -0.119229 0.101752 59 69 74
-0.100629 0.194314 -0.033248 105 110 96
0.310971 -0.241777 -0.022611 109 110 106
-0.125912 0.203400 -0.034228 86 87 81
-0.188054 0.069656 -0.033599 106 114 101
-0.378545 -0.122716 0.278167 34 45 41
0.067968 0.107234 -0.027287 99 103 98
-0.258828 -0.077836 0.279946 111 112 103
0.292048 -0.024841 -0.012704 33 40 46
0.017819 0.474307 -0.023384 140 148 137
0.059757 0.110825 -0.025346 93 103 91
0.054799 0.410387 -0.029418 144 153 146
0.379500 -0.219665 -0.020895 111 112 108
-0.279792 0.277978 -0.043501 145 146 135
-0.308373 -0.098922 0.335295 87 89 80
-0.340811 -0.087547 0.359201 120 145 150
-0.090219 -0.069314 -0.006180 117 135 129
0.065359 0.243172 -0.026961 92 100 89
-0.155828 0.488389 -0.019152 137 139 128
-0.288852 -0.116497 0.280719 8 8 10
0.256426 0.115418 -0.016129 14 17 20
-0.341100 0.011866 0.261026 106 128 131
0.321417 0.351692 -0.019699 119 120 111
-0.213047 -0.204200 -0.043273 121 123 114
-0.281099 0.260153 -0.043690 144 146 133
0.151141 0.000360 -0.024185 22 28 30
0.080672 0.134441 0.112484 77 87 92
-0.259606 -0.230994 -0.041722 136 132 123
0.159482 -0.144866 0.108758 124 143 143
-0.202924 -0.067438 0.214071 15 23 12
0.085735 -0.164730 -0.033324 57 58 54
0.348364 -0.149089 -0.020515 79 79 79
0.107145 -0.115833 -0.031563 46 50 45
0.309710 -0.068145 0.015571 43 50 56
0.078954 0.080066 -0.026869 18 14 15
0.285640 -0.086413 -0.011863 32 44 46
-0.175331 -0.071746 -0.037746 101 106 96
0.029570 0.245188 -0.027587 42 42 36
0.162136 0.468726 -0.028949 108 111 95
0.336482 -0.045553 0.113107 64 71 77
-0.249620 -0.060550 -0.002695 105 112 104
0.107347 -0.076001 0.000751 25 27 33
0.124901 0.386672 -0.029603 105 106 93
0.369377 -0.135734 -0.019630 92 93 84
0.334075 -0.053425 0.111283 68 67 76
0.068064 -0.062458 -0.038798 64 65 59
-0.298659 -0.163294 -0.042998 78 85 77
-0.175085 0.004941 0.058577 104 105 94
0.224819 -0.254815 -0.026053 94 97 98
-0.190909 0.490464 -0.006490 140 145 135
0.368694 0.328591 -0.014367 109 110 104
-0.062241 -0.197414 -0.030948 126 137 133
0.206162 0.189264 0.023068 25 31 33
0.158102 -0.186850 -0.027473 103 104 98
-0.306529 -0.125401 0.272201 15 23 20
0.100264 -0.127385 -0.031566 109 113 106
0.334794 -0.073261 0.109130 63 69 80
-0.253711 0.241406 -0.040150 133 135 124
0.041770 0.358587 -0.038450 129 130 124
0.029895 0.235367 0.085718 134 143 136
-0.347763 -0.289095 -0.049297 135 137 126
0.243676 0.086888 -0.017773 19 25 25
0.047480 -0.075281 -0.039449 67 71 64
-0.257255 0.174182 -0.037411 122 123 112
0.177175 -0.230028 -0.027657 95 96 92
0.266988 -0.152031 -0.022857 85 91 89
-0.202904 0.246540 0.037997 138 140 129
-0.017055 -0.274188 -0.040687 106 110 105
0.298002 0.335478 -0.021955 109 111 102
-0.180456 -0.155062 0.173490 107 116 107
0.308966 0.164858 -0.005004 44 49 56
0.104702 0.046955 0.030089 20 31 31
0.123170 0.194989 0.107054 46 56 61
-0.283261 -0.154837 -0.044040 119 124 114
-0.140913 -0.264371 -0.040961 111 112 106
0.032971 -0.219896 -0.037751 78 83 73
0.273340 -0.179694 -0.022901 101 106 96
-0.269306 -0.278133 -0.041346 129 133 126
-0.275365 -0.310639 -0.041706 131 133 124
-0.121954 0.122188 -0.033451 18 7 0
0.325346 0.123885 0.064416 40 52 56
0.213011 -0.013917 -0.019135 19 27 28
-0.166606 -0.076403 0.026746 96 106 94
0.221325 0.200356 0.115663 129 142 141
0.389951 0.348552 -0.011329 117 119 108
0.043886 -0.095074 -0.041241 68 69 65
-0.045652 -0.025108 -0.038536 73 75 66
0.109667 -0.075767 -0.003654 25 30 35
0.167840 -0.147647 0.098310 119 137 135
-0.110832 -0.236571 0.031071 97 108 106
0.098844 0.010603 0.040369 25 32 36
-0.179132 -0.258692 -0.042198 126 130 123
0.265182 -0.074218 -0.019050 26 31 36
0.236843 0.512361 -0.025754 112 113 100
0.197891 0.386411 -0.027928 103 105 92
0.134694 -0.231144 -0.029501 116 120 113
0.161923 0.195902 0.074947 29 36 40
0.225528 -0.141149 -0.024791 90 91 85
-0.104128 0.221385 -0.032735 112 117 105
-0.258636 0.452918 0.075909 165 161 152
-0.269556 0.254871 -0.043132 137 139 126
-0.396812 -0.128834 0.243648 83 100 103
0.297254 0.174021 -0.010362 33 40 46
0.268292 0.063270 -0.016680 27 34 38
-0.008272 -0.174410 -0.031176 126 137 133
0.243740 -0.088942 -0.018246 13 23 28
-0.347931 -0.224343 -0.043199 136 133 130
0.303499 0.147067 -0.009725 46 58 64
0.045145 -0.040420 -0.035661 2 1 3
0.372953 -0.167048 -0.020350 109 113 106
0.247849 -0.130621 -0.023951 84 91 83
-0.180249 0.024139 -0.034050 96 101 91
-0.175821 0.020957 -0.033923 94 98 91
-0.250894 -0.099841 0.265232 18 24 22
0.031969 -0.159315 -0.010755 147 158 156
-0.129753 0.040623 -0.034042 0 1 0
-0.274292 -0.090900 0.295964 132 138 138
0.273562 0.017119 -0.015220 31 41 44
-0.298789 -0.233614 -0.040859 138 136 126
0.042918 0.087288 -0.027212 86 95 86
0.268501 -0.015061 -0.016857 27 34 40
-0.314700 -0.120594 0.314609 51 52 48
-0.089458 0.247777 -0.034891 34 31 26
0.174654 0.009914 -0.022177 20 26 28
-0.292443 -0.087040 0.315677 84 89 79
0.124519 -0.026620 -0.026309 18 24 24
-0.284577 -0.120769 -0.046398 111 120 111
-0.045567 0.394587 -0.038796 128 132 125
0.178896 -0.200517 -0.027170 64 59 55
-0.299178 -0.185785 -0.042072 123 127 122
0.077723 -0.064596 0.094769 59 69 76
0.320282 -0.098116 0.070005 40 51 60
0.040346 -0.042905 -0.036484 3 6 5
0.203230 0.001338 -0.019912 25 28 31
-0.173412 0.238580 0.076926 137 142 128
-0.155974 -0.079341 -0.036852 105 109 102
-0.221726 -0.052415 0.227648 31 32 28
-0.282103 -0.110893 0.285852 63 70 64
0.332373 0.536880 -0.017731 135 133 123
-0.228300 -0.100617 -0.042031 92 88 79
0.323943 0.113115 0.039265 42 54 58
0.097344 0.341744 -0.023675 105 106 93
-0.273163 -0.289514 -0.040939 134 135 126
0.259976 -0.145203 -0.022690 91 92 88
0.347846 0.499833 -0.016986 83 81 71
0.174466 0.011753 -0.022087 22 28 28
0.014855 0.253209 -0.012895 123 128 114
0.073557 0.176346 -0.024265 80 82 73
-0.269957 0.316700 -0.024834 99 95 84
0.206546 0.474342 -0.026452 105 106 93
0.280733 -0.022257 -0.015814 36 41 46
-0.182659 0.048098 -0.034012 104 106 95
-0.235677 -0.256317 -0.043017 126 128 117
0.286064 -0.177514 -0.022368 100 105 95
0.185893 0.334539 -0.031272 46 43 38
0.086125 0.085797 0.104245 58 68 71
0.253282 0.189810 0.069261 28 33 38
0.155227 -0.259262 -0.028242 104 110 108
-0.201431 0.015483 -0.033491 98 103 93
-0.334575 0.233940 -0.048220 52 48 39
-0.250872 0.498033 0.085841 162 158 149
-0.059766 -0.164031 -0.031568 128 139 137
-0.119816 -0.163672 -0.014330 83 92 83
0.009946 0.053587 -0.030972 97 106 97
-0.009799 0.244989 -0.029594 50 52 41
-0.095393 0.390621 -0.044811 117 121 114
-0.164872 0.480574 -0.034487 136 138 125
0.147920 0.066159 -0.023756 18 25 29
-0.006786 0.177031 -0.027971 109 111 102
-0.198981 0.006120 -0.033732 97 105 94
-0.091875 -0.124517 -0.030449 117 128 126
0.270918 0.413288 -0.023761 115 120 106
0.238146 -0.204435 -0.024507 95 97 88
0.139225 0.321985 -0.028588 100 105 93
0.038332 -0.180917 -0.003761 120 128 127
-0.208457 0.364752 -0.045846 117 118 107
-0.199344 -0.154682 0.215312 18 26 25
-0.283852 -0.304614 -0.042426 131 128 123
-0.084608 -0.163116 -0.027677 124 135 133
-0.170425 -0.166248 -0.037616 41 26 27
0.383944 0.322973 -0.011981 114 119 107
-0.215622 -0.121187 -0.042895 115 123 108
0.101480 0.087693 0.051826 22 29 33
0.081363 0.073258 -0.024588 83 95 87
0.041360 0.134974 -0.025598 96 100 93
0.067065 0.032986 -0.026404 82 90 87
0.124577 -0.273012 -0.031194 105 109 102
-0.309043 -0.092247 0.337647 86 87 81
0.379381 -0.180052 -0.020240 102 106 99
0.379604 -0.162620 -0.020671 93 98 86
-0.201172 0.234683 0.085045 138 140 129
-0.181247 -0.126765 -0.038306 105 109 102
-0.197257 0.428536 -0.045946 106 107 98
0.077783 0.160662 -0.026307 94 101 95
-0.397930 0.146985 -0.039753 112 116 111
-0.156729 0.492098 -0.011286 139 141 130
-0.234618 -0.254585 -0.042935 127 132 120
-0.375293 -0.017741 0.283489 57 61 56
-0.117492 0.042886 -0.033514 106 114 103
-0.207049 -0.155676 0.214041 16 19 18
0.189103 0.543440 -0.027606 78 78 72
-0.330676 0.010852 0.283106 58 57 64
-0.048162 -0.224206 -0.020321 118 126 125
0.068414 -0.210873 -0.035316 93 94 90
0.016849 -0.181328 -0.017804 146 154 153
-0.368813 -0.087366 0.352058 118 143 148
0.010851 -0.222441 -0.000500 133 141 138
-0.239308 0.201964 -0.037886 123 124 113
-0.173734 0.001359 0.103323 3 4 0
0.131985 -0.047749 -0.025039 18 21 22
0.395446 -0.131232 -0.018549 98 99 95
0.144763 0.195930 0.103547 40 50 53
