ply
format ascii 1.0
element vertex 1223
property float x
property float y
property float z
property uchar red
property uchar green
property uchar blue
end_header
-0.102528 0.038387 0.009917 94 110 101
0.342636 -0.219523 0.023117 130 130 124
0.122512 0.337419 0.003803 73 77 70
-0.006464 0.011463 0.012214 101 116 111
-0.262029 -0.128800 0.287617 58 72 63
-0.012178 -0.041909 0.007134 88 102 93
0.390780 0.078899 0.028003 95 96 92
-0.264415 0.131946 -0.000806 52 60 59
0.217028 0.378869 0.008988 111 119 108
0.311907 0.097602 0.031912 48 64 72
0.317153 -0.229353 0.022158 66 61 57
-0.175616 -0.209823 0.003181 138 141 140
0.083197 0.106892 0.022986 35 48 45
0.066313 -0.250203 0.011724 62 64 72
-0.217898 0.146460 0.005781 118 130 120
0.135481 0.421409 -0.002581 117 124 118
-0.140420 0.446954 0.032452 155 162 156
0.088494 -0.156604 0.019398 100 111 107
0.378618 0.416349 0.024940 72 71 73
0.151170 0.346513 0.002437 81 85 78
0.167866 -0.283218 0.014044 132 133 127
0.283025 0.511149 0.012445 145 145 139
-0.150610 0.389337 -0.004804 110 116 114
-0.311120 0.025839 0.264263 76 76 76
-0.072171 -0.233337 0.028374 128 142 144
-0.285526 -0.129570 0.004164 124 133 124
-0.305942 -0.207919 -0.005341 148 152 147
-0.305057 -0.252559 -0.008788 136 140 133
0.120742 0.118944 -0.003732 20 30 35
-0.191815 -0.251154 0.001057 41 41 43
-0.211843 -0.120753 0.011456 118 131 126
-0.264033 -0.119922 0.297481 113 128 125
-0.267219 -0.145667 0.004074 131 140 133
-0.215431 0.126829 0.005388 114 126 116
0.352811 0.425690 0.022871 141 145 138
-0.129929 -0.174406 0.027345 88 106 102
-0.007672 0.178972 0.026676 116 132 123
-0.009862 0.369144 -0.006594 135 146 144
0.080676 0.093700 0.060120 89 106 109
0.343529 -0.224481 0.022722 132 132 126
0.291776 0.137944 -0.003390 60 78 85
-0.143644 0.019378 0.006220 93 112 102
0.075499 0.021899 0.017147 26 38 40
0.010373 0.332174 0.005387 136 147 145
-0.304244 -0.113353 0.334297 81 92 90
-0.204624 -0.046462 0.204010 29 35 37
0.230642 -0.189045 0.023981 117 121 116
-0.411651 -0.058634 0.329391 62 62 62
-0.057861 -0.225072 0.019711 128 145 146
-0.072171 0.163244 0.021784 69 83 74
-0.279433 -0.088062 0.325870 86 100 91
0.295885 0.178295 0.080439 40 52 58
-0.353089 -0.003528 0.332403 92 100 97
0.130360 0.368975 -0.000250 111 119 108
0.384635 0.524182 0.022209 149 146 143
-0.150919 -0.014646 0.001122 93 108 103
0.324066 -0.268432 0.020047 131 128 123
0.121558 0.198496 0.113986 67 81 87
-0.230097 0.290858 0.044179 153 160 154
-0.380000 0.143457 -0.003415 120 133 128
0.124140 0.107126 -0.006363 21 33 37
0.348307 0.488240 0.020395 132 127 125
0.307518 0.041332 0.013320 55 72 77
-0.009092 -0.255813 0.007020 112 121 114
-0.143994 0.166360 0.015226 114 127 114
-0.178853 -0.131996 0.140919 75 83 84
-0.450306 -0.049113 0.338717 42 45 46
-0.190282 -0.150528 0.009137 119 127 124
-0.151369 0.078909 0.007351 102 116 105
0.101723 -0.182657 0.018907 114 123 116
-0.287727 -0.124803 0.312384 59 71 63
-0.153482 0.459736 0.109196 167 174 168
-0.011331 -0.238785 0.056327 140 151 151
0.028472 0.445781 0.058705 159 167 166
-0.054753 -0.117592 0.025826 120 142 143
0.260517 -0.150989 0.025299 107 110 109
0.329905 0.049386 0.121776 80 90 93
-0.082204 0.199759 0.133987 137 148 144
-0.341124 -0.271459 -0.013091 155 156 150
-0.427970 -0.115067 0.216058 91 117 117
0.386721 -0.130818 0.024069 114 112 104
-0.184953 -0.259331 0.000895 137 141 136
-0.202133 0.139324 0.006911 84 95 91
-0.216908 -0.009823 0.169547 104 113 104
0.089151 -0.170400 0.018482 109 118 111
-0.019828 -0.268810 0.006994 131 134 133
-0.060226 0.405090 -0.006185 138 149 147
0.361688 -0.126125 0.026447 106 113 107
-0.260630 0.297884 0.156568 167 180 179
-0.047972 0.124781 0.019913 99 115 104
0.134539 0.368734 0.000147 116 121 109
-0.246636 0.437462 0.086001 182 183 179
0.035876 -0.206555 0.010993 87 94 86
0.237408 -0.258126 0.017800 123 127 120
0.315444 0.037813 0.117599 88 98 112
0.111387 -0.287482 0.011423 126 130 123
-0.291358 0.205111 0.001324 142 149 141
-0.147066 -0.202309 0.066988 118 132 134
0.144479 0.021176 -0.013642 24 38 42
0.077988 -0.118536 0.069666 88 98 101
-0.073851 0.178197 0.023083 67 76 67
0.171760 0.156391 -0.001884 24 34 37
0.078704 -0.109913 0.101656 62 78 86
0.021870 0.187088 0.028737 84 96 86
0.071189 0.026879 0.124530 66 84 91
-0.076281 -0.167986 0.015634 131 153 152
-0.150613 -0.128246 0.060201 124 141 142
-0.067132 -0.129467 0.023416 122 144 145
0.295588 -0.029655 -0.006738 58 69 78
0.202572 0.167340 0.007363 17 29 31
-0.244848 -0.183851 0.002233 133 142 135
-0.188606 -0.147066 0.009464 119 130 126
-0.344879 -0.099012 0.362425 127 171 176
-0.247761 -0.099184 0.299916 135 157 158
-0.073810 -0.082463 0.061654 125 147 146
0.248614 0.186286 0.094780 48 62 68
0.232844 -0.293102 0.015016 110 103 95
0.052749 -0.275913 0.010055 119 126 118
0.058764 0.373284 0.074140 168 176 175
0.204421 -0.061072 -0.024723 26 36 39
-0.006004 0.444909 0.028128 155 163 160
-0.145640 0.068265 0.007632 102 118 109
-0.063233 0.125467 0.018406 99 115 104
-0.026463 -0.267207 0.007204 122 134 126
-0.068871 -0.129465 0.023401 121 143 144
-0.179442 -0.061920 0.013103 28 33 40
-0.140494 -0.109319 0.055879 126 146 143
0.062043 0.177246 0.030733 118 130 120
-0.038362 -0.166508 0.016738 139 158 160
0.078225 -0.057333 0.111221 60 77 82
0.300580 0.100708 0.000260 52 65 74
-0.106142 0.052389 0.010847 62 80 74
-0.332381 0.249107 -0.001913 147 151 144
0.061656 -0.245270 0.011790 119 125 125
0.173640 0.046564 -0.018714 28 40 42
0.334673 0.389426 0.021261 147 144 139
-0.039742 -0.199344 0.017129 141 158 161
0.311191 0.041843 0.081504 63 76 85
-0.399325 -0.007808 0.356445 176 176 176
-0.428523 -0.012830 0.364099 188 189 183
-0.212159 -0.102842 0.198593 15 23 22
-0.441415 -0.090523 0.235602 74 98 98
0.040307 -0.216688 0.010795 80 91 87
-0.238520 -0.114537 0.008760 117 131 122
-0.324424 -0.072917 0.360860 127 162 165
0.168211 0.031968 -0.019111 28 40 42
-0.380247 0.147567 -0.002803 119 130 126
0.238570 -0.246960 0.019520 128 129 123
0.365389 -0.298749 0.018708 143 143 137
-0.065883 0.463476 0.098688 165 169 164
-0.220427 -0.075964 0.265220 35 35 31
-0.009071 -0.113443 0.053041 134 156 157
-0.138012 -0.020974 0.002262 90 106 97
0.296247 -0.074226 -0.008154 59 71 77
-0.400277 -0.109513 0.237492 57 64 56
-0.112311 -0.129447 0.023125 118 137 137
0.365840 -0.154160 0.024226 122 119 114
-0.229979 -0.216110 0.001079 137 145 142
-0.013448 0.203936 0.103459 133 145 137
0.367377 -0.268699 0.021098 137 132 128
0.311273 0.101236 0.024866 49 65 73
0.367248 -0.224619 0.023275 133 130 125
0.050448 0.036218 0.016715 93 104 100
-0.190403 0.008934 0.164444 41 47 49
-0.225358 -0.201012 0.001994 48 49 45
0.179287 0.189394 0.108982 54 70 80
0.390911 -0.034684 0.022981 92 99 93
-0.306237 -0.076969 0.341134 90 101 101
-0.023624 0.168319 0.025403 110 123 108
-0.082054 0.205141 0.103712 137 149 141
-0.092908 0.207626 0.023141 107 119 109
-0.080925 0.097146 0.014476 96 110 99
0.200939 0.383026 0.006708 114 119 109
-0.050112 0.043323 0.013324 84 100 91
0.079119 -0.104835 0.101936 57 73 81
-0.130596 0.031039 0.007657 96 110 101
-0.280972 0.278693 0.001748 152 157 147
-0.124261 -0.230330 0.054699 115 126 126
0.253480 0.140013 -0.007830 25 35 40
0.286200 -0.266523 0.018781 133 130 127
-0.242898 0.440005 0.114394 176 176 170
-0.308584 0.221160 -0.002289 70 76 74
-0.411052 -0.034432 0.347691 102 113 111
0.023163 0.449278 0.084350 163 169 167
-0.056809 -0.073463 0.067012 129 149 146
-0.127532 0.443163 0.024566 153 161 158
-0.325828 0.347450 -0.014792 128 128 128
-0.126574 -0.150217 0.034056 92 107 106
0.193897 0.188985 0.103190 47 61 67
0.206505 0.121956 -0.012511 20 31 31
0.257015 0.171680 0.020393 35 47 53
-0.216685 0.405818 0.006508 127 131 126
0.169626 -0.065564 -0.023330 27 37 40
0.267460 -0.163186 0.024765 117 124 116
0.195201 -0.289736 0.014466 64 66 72
0.041279 0.428381 0.019917 162 170 167
0.181603 0.084680 -0.017533 26 36 41
0.395439 -0.107019 0.023884 109 110 101
0.205967 -0.210607 0.021391 115 122 116
0.110822 -0.015245 0.010493 25 37 41
-0.227173 -0.197638 0.002221 129 133 128
0.181889 -0.149329 0.098213 70 83 92
0.370694 -0.284765 0.020956 140 135 131
-0.188941 -0.127838 0.011092 111 125 116
0.245939 0.160653 -0.000207 32 42 47
-0.073489 0.194028 0.023198 55 67 57
0.322263 -0.209381 0.023154 132 130 122
-0.155980 0.213236 0.016772 98 107 98
0.063428 -0.267885 0.010172 140 141 137
-0.301301 0.133640 -0.000424 133 143 131
-0.342490 -0.052760 0.002009 128 136 125
0.336594 0.279161 0.019400 137 137 131
0.068229 -0.008563 0.013137 85 101 92
-0.194865 0.357969 -0.005642 114 120 118
-0.269824 -0.277468 -0.006528 151 155 148
0.190831 0.177003 0.025672 20 30 33
-0.211981 -0.250966 0.000186 83 89 91
0.277243 -0.029141 -0.018928 38 52 56
-0.233387 -0.216075 0.000926 133 144 140
-0.256897 -0.266416 -0.004785 68 68 68
0.194186 0.450912 0.002543 102 102 102
0.279454 0.331738 0.014500 136 136 130
-0.167145 0.137633 0.010545 67 70 69
-0.036875 0.048999 0.014619 86 100 91
0.087967 0.243638 0.024809 95 107 99
-0.186410 0.014228 0.003539 100 114 105
0.281881 0.112021 -0.009331 40 53 62
-0.296942 0.362203 -0.013224 97 103 101
0.071658 -0.288763 0.009991 134 134 130
0.311353 0.134538 0.023687 49 65 75
0.260981 -0.232291 0.020508 131 132 123
-0.244883 -0.069546 0.290583 56 61 66
-0.454982 -0.020469 0.368790 192 196 189
0.134836 0.332739 0.003457 112 116 109
0.046897 0.250776 0.095363 153 166 163
0.153781 0.411954 -0.000527 116 120 113
-0.052981 -0.111062 0.028101 122 141 143
0.328149 -0.224449 0.022654 131 131 127
0.088797 -0.136643 0.089127 69 86 89
-0.020903 -0.292723 0.006011 113 121 122
-0.411207 -0.036535 0.346135 104 112 111
-0.277582 -0.109238 0.319011 81 94 89
-0.161319 -0.280529 0.001556 132 139 133
-0.169955 -0.109014 0.009034 110 123 118
-0.099167 -0.096475 0.049704 131 143 145
0.068060 -0.012262 0.012466 88 103 100
0.098761 0.258580 0.016854 90 101 97
0.272712 -0.232397 0.020979 132 133 127
0.154551 0.080418 -0.013550 25 37 39
-0.165036 0.117276 0.007694 113 120 114
-0.354040 -0.023639 0.324238 87 93 91
0.194064 -0.273743 0.014650 63 60 57
-0.218544 -0.136009 0.008108 95 110 105
-0.028749 0.320060 -0.006664 135 148 145
-0.213208 -0.206278 0.002643 135 141 139
-0.189620 -0.028253 0.164205 23 34 30
0.160898 -0.206709 0.019170 120 124 117
0.219294 -0.241845 0.018751 122 126 119
-0.260943 -0.209132 0.000252 135 142 136
-0.324977 -0.096002 0.001817 36 41 46
0.156579 0.189241 0.088575 36 53 58
0.204169 -0.212201 0.020950 120 123 122
0.000276 0.039013 0.014417 105 121 112
-0.113184 0.114518 0.013715 103 117 106
0.243009 0.468425 0.008966 76 76 70
0.221025 -0.256353 0.017163 117 124 118
-0.339473 0.517220 -0.023042 122 118 111
-0.288392 -0.210241 -0.002457 141 149 146
0.281671 0.172068 0.024012 40 52 58
-0.208586 -0.105539 0.015271 115 130 127
0.176910 0.059143 -0.018278 28 40 42
-0.233734 -0.105514 0.273780 22 30 29
-0.310800 0.159038 -0.002203 136 141 131
-0.277769 -0.097163 0.323841 88 102 93
0.240921 0.468670 0.008640 81 81 75
-0.460309 -0.033948 0.361502 104 111 105
-0.270110 -0.120863 0.005418 123 135 127
0.307210 0.160073 0.041135 52 65 76
0.323891 -0.094173 0.118074 80 94 100
0.118473 0.184372 0.071213 22 36 40
-0.076590 0.026068 0.010359 95 109 100
0.215481 0.546759 0.003734 136 138 129
-0.357667 -0.126116 0.347018 114 148 154
-0.192735 0.158211 0.009091 120 130 116
0.197387 0.441949 0.003473 121 119 111
-0.125085 -0.153981 0.041454 90 104 106
-0.494395 -0.029786 0.376204 96 97 91
-0.432559 0.003683 0.371474 163 163 159
0.317832 -0.092288 0.117600 85 96 107
0.334950 0.405192 0.021402 145 145 139
0.266497 -0.002262 -0.020354 45 57 61
0.037286 0.108654 0.023040 101 115 104
0.277544 -0.027140 -0.018902 37 51 57
-0.277551 -0.149017 0.003264 134 143 136
-0.229661 -0.113271 0.010641 127 141 132
0.083720 0.009636 0.017600 93 107 98
-0.272308 -0.149086 0.003532 132 141 134
-0.301086 -0.076245 0.004378 119 128 119
-0.058413 0.439127 0.011543 147 158 154
0.119260 -0.237644 0.014783 130 134 129
-0.203637 -0.102973 0.190706 6 14 13
0.153819 0.172240 0.021616 18 29 29
-0.074768 0.458494 0.075157 165 169 164
-0.200561 -0.020665 0.000803 107 119 111
-0.097715 0.447072 0.026914 152 160 157
0.261344 0.163471 0.003115 42 54 60
0.227064 0.184453 0.065836 38 50 56
0.304901 -0.045976 0.015967 52 63 72
-0.101330 0.387226 -0.007932 125 136 132
-0.178056 -0.155735 0.008788 122 134 126
-0.212868 0.204087 0.146941 159 171 163
0.118903 -0.033514 -0.008811 24 34 39
-0.285899 -0.104093 0.326428 89 100 96
0.074237 -0.116681 0.011571 98 110 102
-0.001071 0.101113 0.020447 120 134 125
0.105694 0.187690 0.096895 29 45 53
0.369867 -0.201215 0.024561 135 132 127
-0.234670 -0.028327 0.197220 66 76 64
-0.359057 -0.081461 0.363225 133 172 179
0.244679 0.170314 0.014728 32 44 50
-0.250870 0.414630 0.040015 174 180 178
0.253019 0.398308 0.011815 73 74 70
0.161317 0.532044 -0.003558 130 131 122
-0.071006 -0.162879 0.016175 121 145 143
0.047077 -0.131996 0.007782 39 39 41
-0.352130 0.168935 -0.012371 18 21 24
-0.076390 0.036061 0.010866 89 104 90
-0.166483 -0.103483 0.008993 124 137 132
0.047824 -0.067698 0.009931 64 79 74
0.372107 0.527682 0.021275 154 152 144
0.225036 0.336012 0.007648 112 121 112
0.178958 0.022019 -0.020135 28 40 44
-0.047824 -0.012929 0.007900 70 77 71
0.244840 -0.288524 0.016179 132 133 129
0.265306 0.068656 -0.014501 49 61 65
0.304237 -0.079803 0.030756 47 63 71
0.331211 -0.254088 0.021776 126 130 123
-0.406416 -0.037098 0.344564 97 108 106
0.223300 -0.165167 0.025566 105 113 110
0.338286 0.362124 0.022903 140 140 134
0.263268 0.460779 0.011822 142 147 137
0.208878 -0.286639 0.014826 143 140 135
0.148037 -0.218139 0.017337 121 126 116
0.192386 -0.066975 -0.024757 29 39 42
0.397415 -0.152644 0.025277 120 120 114
-0.002504 -0.028727 0.008473 85 98 93
0.358070 -0.126166 0.026567 106 113 107
-0.289857 -0.147157 0.002928 124 132 131
0.304312 0.012405 0.008982 57 68 77
-0.048177 -0.078006 0.064613 130 152 151
-0.027838 0.206913 0.082048 133 145 137
-0.128374 0.455413 0.065673 162 168 166
-0.180660 0.439392 0.027908 153 157 152
-0.334723 -0.058823 0.342131 132 160 164
-0.177279 -0.084917 0.014454 109 122 119
0.360210 0.309777 0.025472 138 135 130
-0.074810 -0.096962 0.045934 122 141 141
-0.290097 -0.111412 0.004193 124 137 134
-0.140422 -0.222064 0.053689 152 165 164
-0.239993 -0.269825 -0.004013 141 148 142
0.125092 -0.189605 0.019123 76 82 82
-0.291947 0.252747 0.000564 146 153 145
0.209982 -0.173815 0.025285 105 105 105
0.337979 0.435774 0.020210 149 146 141
-0.329491 -0.295434 -0.014970 124 124 124
-0.319231 0.262216 -0.003333 91 94 93
0.276042 0.001168 -0.018572 38 52 58
0.313422 0.125968 0.035381 54 67 76
0.310646 -0.059405 0.077007 62 75 86
0.152616 -0.149212 0.103319 137 151 157
-0.436821 -0.005746 0.369533 241 238 235
-0.070295 -0.200666 0.015506 138 155 156
0.050405 0.217115 0.148672 159 172 171
-0.125413 -0.209687 0.041495 111 126 125
0.075029 -0.041861 0.117241 60 81 87
0.044871 0.036314 0.016431 94 107 102
-0.009481 -0.097125 0.063036 130 154 152
-0.223933 -0.079400 0.272756 41 36 34
-0.323381 0.547317 -0.023864 152 150 142
-0.032966 0.207972 0.076949 131 145 136
-0.378760 -0.042800 0.328173 70 79 72
-0.239010 -0.298335 -0.006821 141 148 142
0.386793 -0.111112 0.025159 107 108 102
0.237707 0.172347 0.018931 30 42 48
-0.052962 -0.251455 0.010823 56 59 60
0.329048 0.280151 0.017818 136 136 130
-0.077871 0.209078 0.067601 133 144 140
0.367472 -0.194534 0.025286 129 129 123
-0.051506 -0.267111 0.006978 124 132 129
-0.290566 -0.083644 0.331533 87 98 94
-0.308672 0.154933 -0.002857 134 143 134
0.233843 0.187484 0.106196 50 63 72
-0.015770 -0.098965 0.057809 128 152 152
0.037842 -0.025530 0.010773 82 96 87
-0.185075 -0.150524 0.009137 118 130 122
0.142563 0.064242 -0.011283 25 37 39
0.166324 -0.251181 0.016265 128 124 125
0.151990 -0.085548 -0.021660 28 40 44
-0.262499 0.288659 0.008920 106 115 106
-0.310827 -0.134470 0.315290 53 65 57
-0.199554 -0.005597 0.168377 12 18 16
-0.274567 -0.248384 -0.004569 150 154 147
-0.253040 -0.151041 0.004252 128 137 128
0.270590 -0.245564 0.020598 135 132 129
0.080197 -0.119387 0.066835 83 94 94
-0.206015 -0.145329 0.009561 125 137 129
0.263254 -0.299590 0.015463 136 132 123
-0.377868 0.049126 0.297052 147 163 171
0.212872 -0.195590 0.022661 117 121 114
-0.319280 0.410313 -0.017818 145 146 140
0.298562 -0.038772 -0.003544 51 64 73
0.182782 -0.016069 -0.022433 28 40 44
0.006996 -0.230162 0.011258 96 104 103
-0.208468 -0.118120 0.175397 8 14 16
-0.128309 0.207366 0.019242 111 124 111
-0.280441 0.310645 0.001917 164 169 157
0.207642 -0.005083 -0.024216 31 38 42
-0.384495 0.121089 -0.007032 121 134 129
-0.218562 -0.199375 0.002308 132 138 136
-0.408535 -0.009482 -0.009696 133 144 142
0.396483 0.091058 0.029265 95 96 92
0.061584 -0.025838 0.011816 83 94 90
-0.051667 -0.202472 0.015945 137 154 157
-0.287412 -0.196740 -0.001681 133 137 132
-0.203998 0.403518 0.003012 119 125 123
-0.240452 -0.116885 0.268949 15 21 19
-0.239427 0.207371 0.123240 155 164 157
-0.338228 0.534194 -0.022591 164 163 148
-0.206966 -0.249432 0.000777 142 149 143
0.248957 0.166489 0.005618 37 49 55
0.213116 0.162877 0.003392 20 30 33
-0.023522 0.405502 -0.005990 138 149 145
-0.359374 -0.091927 0.361856 134 170 178
0.249190 -0.178920 0.024914 99 103 98
0.175784 -0.226682 0.017973 128 132 125
0.314523 0.018163 0.102454 64 80 88
-0.050205 -0.252097 0.051381 141 155 157
-0.217971 -0.106341 0.243005 98 104 102
0.262560 0.093933 -0.013004 46 58 62
0.048314 -0.221900 0.011538 103 114 110
-0.282635 -0.075975 0.327830 84 96 88
-0.161662 -0.053124 -0.000646 69 80 78
-0.384295 -0.020888 0.342947 100 103 102
0.258718 -0.272718 0.017451 93 93 95
-0.078923 -0.072728 0.064781 122 145 141
-0.340738 -0.091564 0.005207 133 134 128
-0.383726 -0.097683 0.341721 139 169 172
0.268161 -0.264783 0.018299 135 131 124
0.284776 -0.058086 -0.015641 43 57 63
0.086223 -0.252014 0.012484 50 57 61
0.058659 -0.264639 0.010232 128 135 129
-0.214906 -0.139775 0.008786 126 138 130
0.187000 0.445300 0.002534 122 123 114
0.348446 0.541709 0.018144 132 129 124
-0.189916 0.053333 0.038168 84 90 92
-0.271570 -0.203739 -0.001045 139 146 140
0.084891 0.027150 0.019176 20 35 32
-0.291943 -0.129882 0.307621 55 67 59
0.323817 0.071114 0.125129 85 96 105
-0.356911 -0.003963 0.333063 89 95 93
-0.088279 0.419244 -0.000970 138 149 145
0.149641 0.009861 -0.016132 28 40 42
0.192664 -0.299057 0.013052 134 137 136
0.349759 -0.173455 0.023971 49 45 48
0.203598 0.538890 0.002531 143 141 129
-0.070586 -0.298692 0.004371 131 132 126
-0.215594 -0.104080 0.016399 114 129 124
0.191923 0.431190 0.003176 58 61 60
-0.220302 -0.136428 0.168521 27 35 34
0.051273 0.411883 0.046187 171 179 176
-0.075483 -0.016398 0.006364 77 97 90
-0.191162 0.455799 0.128897 177 181 174
0.113212 0.329095 0.004568 114 118 111
-0.297153 0.270835 -0.001327 151 159 148
0.312316 0.272239 0.014768 90 90 92
0.122356 0.109267 -0.006285 21 33 37
0.181781 0.437080 0.002441 119 121 112
0.381615 -0.231180 0.022535 78 75 72
0.111474 0.195721 0.108125 61 79 86
0.136772 -0.265318 0.013369 131 135 128
-0.267693 0.118788 -0.000882 122 134 126
-0.253494 -0.140440 0.004600 124 133 126
-0.315965 0.358209 -0.015184 147 152 142
-0.130365 0.206219 0.114203 139 152 147
0.175744 0.188338 0.079958 35 52 57
0.179564 -0.206854 0.019777 117 121 114
-0.209479 -0.109021 0.189755 11 19 16
-0.163416 0.154755 0.011719 119 129 115
-0.204842 0.215805 0.085669 143 155 147
0.314938 -0.242498 0.021464 131 128 123
-0.313187 -0.261944 -0.011656 148 152 145
0.286153 0.534299 0.012348 145 143 135
0.316655 0.126148 0.110206 67 80 89
-0.293527 -0.143642 0.003106 131 142 138
0.188349 0.174173 0.018879 18 28 31
0.316992 0.133138 0.112501 67 83 93
0.177437 0.495518 -0.000906 130 131 122
0.112267 0.201700 0.115563 84 94 97
0.355558 -0.241119 0.022592 128 132 125
-0.184066 -0.214728 0.002357 128 137 130
0.166394 0.430707 -0.000057 64 67 66
0.039488 0.453050 0.128472 158 165 159
0.026645 0.456632 0.121733 158 164 162
0.273374 0.170667 0.018505 32 44 50
0.166021 0.307740 0.003662 64 73 64
-0.312703 0.006893 0.173939 139 147 144
0.190863 -0.257715 0.015918 130 130 126
0.129225 -0.132001 0.107122 63 82 84
-0.291734 -0.107778 0.328256 86 99 94
-0.147134 -0.161883 0.057872 110 127 128
0.221694 -0.150157 0.101224 99 111 117
-0.245190 -0.126652 0.006748 119 131 123
0.397728 0.523759 0.022939 156 152 145
0.062612 -0.185178 0.014996 68 76 75
0.304284 -0.048424 0.006765 53 65 71
-0.303685 0.276376 -0.002441 153 161 150
0.011332 -0.202662 0.061223 161 178 181
0.288919 -0.192432 0.023716 128 130 121
0.215738 -0.002852 -0.024585 29 39 42
-0.080698 -0.079423 0.063218 124 146 145
0.298501 0.335885 0.016132 137 138 132
0.145776 -0.031805 -0.018456 26 38 42
0.126402 0.332674 0.003389 110 113 112
-0.216554 0.452767 0.134172 179 180 174
-0.336636 0.201831 0.002148 164 166 157
-0.066121 -0.176476 0.014813 139 158 160
0.087442 0.037008 0.019981 88 105 110
0.335513 0.270128 0.018311 132 133 129
-0.083892 -0.089476 0.055773 123 145 144
0.227200 0.357832 0.009441 123 125 116
0.310319 0.036772 0.062908 61 72 81
0.310990 -0.037455 0.073115 61 74 83
0.335706 -0.146960 0.023806 117 118 114
0.153763 -0.276712 0.013664 136 136 130
-0.031057 -0.191229 0.018916 139 158 160
-0.426677 -0.095467 0.240225 82 86 81
-0.058518 -0.132943 0.023120 123 142 142
0.046971 -0.082411 0.008676 69 82 77
0.059455 0.445012 0.137268 159 163 156
-0.089403 0.465976 0.120523 165 169 164
-0.086791 0.464303 0.108569 165 169 164
-0.249360 0.428533 0.129226 180 180 174
-0.070747 0.459237 0.077348 165 169 164
-0.014630 -0.145288 0.029309 131 153 154
-0.250485 0.262149 0.150538 172 175 176
0.196278 0.178017 0.027874 23 35 37
0.359086 -0.154007 0.023638 122 122 118
0.192960 0.519908 0.000905 119 117 107
0.101403 -0.144737 0.021383 108 120 112
0.384518 0.462944 0.024587 146 146 142
0.304092 -0.056604 0.013312 53 65 71
-0.038199 -0.147082 0.022968 131 153 152
0.286100 -0.075303 -0.016592 48 62 68
0.060801 -0.132618 0.010016 34 40 38
0.396295 0.014186 0.024910 89 92 91
-0.010841 -0.288115 0.007021 124 128 123
0.255332 0.481490 0.010245 96 103 95
-0.022191 -0.101036 0.053205 156 179 184
0.196204 0.413798 0.004702 115 120 110
0.154604 0.359613 0.002260 116 117 111
0.304150 0.465453 0.016866 119 120 114
-0.306463 0.150515 -0.002930 135 144 135
0.094235 -0.149699 0.020033 110 116 114
-0.103259 0.151965 0.017620 92 99 93
0.159831 0.009002 -0.018931 28 40 42
0.092319 -0.219161 0.014391 128 132 125
-0.240090 -0.219318 0.000308 133 142 135
0.137250 -0.073630 -0.016944 23 35 37
-0.131908 -0.119745 0.049762 120 139 139
0.377721 -0.224561 0.022922 128 125 120
0.084272 -0.189114 0.017056 122 129 123
-0.148279 0.338456 -0.009692 110 122 114
-0.051668 -0.136450 0.022944 127 146 148
0.227413 0.017019 -0.022523 31 41 44
-0.335915 0.432697 -0.019075 109 109 103
-0.065165 -0.114160 0.026350 121 143 144
0.157736 -0.166414 0.023505 107 113 111
0.335364 0.527768 0.017306 153 149 142
0.305820 -0.016939 0.011906 51 64 75
-0.126732 -0.155161 0.039440 93 108 107
-0.116440 -0.205339 0.021518 106 118 120
0.085202 0.105339 0.021868 60 78 76
0.201264 0.008711 -0.022784 29 39 42
-0.044876 -0.042897 0.004247 76 91 86
0.185937 0.182605 0.053670 35 47 53
-0.161588 0.456004 0.076090 165 169 164
-0.295908 -0.297405 -0.012835 143 150 142
-0.093971 -0.157153 0.059365 53 64 62
0.202861 0.041363 -0.020928 26 38 40
-0.494773 -0.044958 0.364819 39 38 38
-0.101568 0.465671 0.123301 167 168 162
-0.152252 0.211132 0.083578 137 148 144
0.391793 -0.105441 0.024702 105 106 97
0.245321 -0.235495 0.020001 127 124 119
0.207714 -0.240151 0.018627 131 131 125
-0.294277 -0.081740 0.333492 88 99 95
0.193155 0.082517 -0.017393 28 40 42
0.071860 -0.081336 0.011282 94 106 98
0.282912 0.073974 -0.011840 42 56 62
-0.285307 -0.124422 0.311497 60 72 64
-0.333463 0.110851 0.132197 95 63 68
-0.087909 -0.122570 0.024240 124 146 147
-0.067696 -0.172869 0.014271 134 156 157
-0.123894 -0.215367 0.044978 108 123 122
-0.177762 0.059529 0.003511 110 124 113
-0.265131 -0.193745 0.000252 134 142 139
-0.035033 0.455681 0.070251 163 169 167
-0.267919 -0.129843 0.005190 124 136 128
-0.088088 -0.263639 0.006079 127 131 124
-0.115454 0.208699 0.050031 104 122 116
0.121437 0.193947 0.104361 51 69 76
0.032928 -0.080053 0.007154 67 82 79
-0.357349 -0.122132 0.350285 125 161 169
0.287431 0.289826 0.010152 126 133 127
-0.232255 0.295804 0.043979 156 163 157
0.067975 -0.248699 0.012500 125 134 127
0.137882 0.014641 -0.012911 26 38 40
-0.000480 0.462063 0.115488 166 170 165
-0.321520 -0.071096 0.357421 127 160 164
0.338123 -0.162782 0.023352 122 126 119
-0.239637 -0.232501 -0.000915 141 150 143
0.343361 0.354394 0.023001 104 101 98
0.312717 0.100273 0.089996 62 75 84
0.001873 0.351798 -0.004033 131 144 143
-0.410571 -0.031718 0.268471 111 124 119
0.087167 0.268489 0.061317 123 123 123
0.058034 0.175138 0.030426 115 129 118
0.003200 0.196985 0.142669 147 162 159
-0.165730 0.411921 -0.000068 116 120 115
0.022605 0.199215 0.145990 147 162 159
0.108221 0.299788 0.006819 105 109 102
-0.136391 0.206305 0.145211 143 158 153
-0.019369 -0.208518 0.028123 150 167 170
0.333330 -0.279811 0.020591 136 136 130
0.359233 -0.131309 0.025628 113 113 109
-0.171930 0.386476 -0.004928 112 119 113
0.072354 -0.099667 0.010186 98 106 103
-0.420937 -0.002475 0.364630 178 179 175
0.052855 -0.205199 0.012543 86 95 88
0.026892 0.090397 0.020947 90 105 102
-0.339185 0.205519 -0.000153 168 170 159
-0.304315 0.148050 -0.002479 135 144 135
0.148268 0.174400 0.029367 19 29 32
0.066477 -0.060187 0.010438 84 103 93
-0.156887 0.051102 0.008471 102 117 103
0.155692 -0.068229 -0.021330 27 37 40
0.314248 0.390919 0.018981 88 88 88
-0.255417 0.153022 0.001410 124 134 122
0.116295 0.534202 -0.003668 140 141 135
0.029927 0.034680 0.015317 91 106 101
0.213397 -0.064909 -0.024909 27 37 42
0.309819 -0.058132 0.088037 63 76 87
-0.123134 -0.271341 0.004068 123 132 125
0.399787 0.147639 0.029407 93 94 88
0.142037 0.037334 -0.012525 26 38 42
-0.044248 0.120584 0.019685 105 117 109
-0.230039 0.009146 0.174217 34 42 43
-0.227529 -0.090556 0.273894 95 25 25
0.042689 0.030433 0.015835 93 108 103
0.307441 0.001444 0.015861 54 67 76
-0.163622 0.180051 0.014645 133 140 134
0.368171 0.542962 0.020316 98 95 90
-0.329595 0.369827 -0.017050 79 86 78
-0.010570 -0.217540 0.047068 163 177 181
0.105457 -0.177692 0.019843 104 118 109
-0.289533 -0.116145 0.321739 72 87 82
0.142165 -0.067098 -0.019027 25 35 38
0.062433 0.053349 0.019947 92 108 99
-0.033820 -0.040961 0.004375 77 89 81
-0.289859 -0.122335 0.316515 62 74 66
0.070219 0.311559 0.160538 140 154 156
0.128459 -0.137019 0.101616 64 83 87
0.181871 0.158477 -0.001397 22 32 35
-0.257234 0.250756 0.004219 149 157 146
0.241491 -0.172051 0.025218 108 115 109
0.132418 -0.258835 0.013580 117 129 121
-0.302174 -0.072127 0.337323 90 101 99
-0.314400 -0.130407 0.325543 55 66 62
0.072033 -0.033579 0.011701 87 101 92
0.125664 0.133535 -0.001896 19 31 33
-0.088970 0.209479 0.023935 74 82 79
-0.212046 0.438734 0.037406 159 163 158
-0.157453 -0.098888 0.097746 26 37 37
0.072317 0.415688 0.141490 168 165 160
0.160109 -0.048171 -0.022518 24 36 38
-0.025126 0.179496 0.025506 114 128 119
0.083631 0.181190 0.032045 88 97 90
-0.193552 -0.162413 0.007335 55 66 66
0.072784 -0.094134 0.010341 73 84 82
-0.247121 -0.258493 -0.003427 149 153 148
-0.073058 -0.096861 0.045642 122 141 141
0.396164 -0.150804 0.025040 120 120 114
0.312306 0.108944 0.030750 50 64 70
0.358805 0.312621 0.024961 141 138 133
0.302890 0.007720 0.005601 57 68 77
0.399956 0.338725 0.027916 84 81 78
0.288086 -0.242317 0.020716 104 104 106
0.062613 0.263979 0.151310 154 165 163
0.211266 -0.151200 0.025919 100 109 102
0.309673 -0.000163 0.047972 57 70 81
0.289019 -0.114868 0.053893 56 69 80
-0.191949 -0.154020 0.008952 128 136 133
-0.321433 0.264707 -0.003481 155 162 154
-0.216657 -0.139728 0.008609 123 135 127
-0.050244 -0.146899 0.022262 123 143 140
-0.093162 0.340072 -0.014414 135 150 147
0.312114 0.105512 0.065098 60 71 80
-0.359895 -0.025299 0.327080 88 96 93
0.268246 0.179191 0.049643 37 51 57
-0.134121 -0.227300 0.063477 115 129 131
0.269508 0.181452 0.064216 37 51 57
0.321061 0.055582 0.124736 83 94 103
0.282586 0.508169 0.012578 107 108 104
-0.287081 0.200203 0.001855 140 149 140
-0.412417 -0.009784 0.359430 252 255 251
-0.310040 0.509532 -0.023490 148 149 138
-0.433377 -0.001667 0.370322 182 181 183
-0.297601 0.278403 -0.001718 160 168 157
0.089486 0.240448 0.026091 95 106 102
0.279966 0.181569 0.078462 39 51 57
-0.304459 0.346109 -0.012567 130 134 129
0.287440 0.392579 0.016366 141 141 137
-0.126723 -0.161604 0.037737 93 108 107
-0.259377 -0.164981 0.003525 65 76 72
0.361088 0.350670 0.024865 141 141 135
-0.294653 -0.226364 -0.006346 147 154 146
0.386185 -0.123726 0.024605 108 110 101
0.193206 0.131992 -0.010556 19 31 33
0.176053 -0.132572 0.035216 82 89 95
-0.082549 0.004534 0.008670 88 102 91
-0.124619 0.129786 0.013509 101 117 106
0.114719 0.143873 0.007643 23 35 39
0.078563 -0.242228 0.013066 129 136 130
-0.238207 0.302435 0.048055 168 174 172
-0.325345 0.018217 0.271315 49 56 62
0.237397 0.423978 0.009566 109 119 107
0.137904 -0.271681 0.012627 137 138 132
0.372219 -0.207883 0.023907 132 129 124
0.120078 -0.245894 0.014715 131 135 128
0.368475 -0.189413 0.025435 129 129 125
-0.258624 0.133852 -0.000158 124 131 123
-0.272201 0.092662 -0.000647 118 130 120
-0.389791 -0.093829 0.330486 150 164 168
0.218840 -0.217263 0.020913 112 116 111
-0.294622 0.263047 -0.000503 70 76 78
0.101995 0.299769 0.006732 105 112 106
-0.250125 0.436538 0.063479 181 182 178
0.388715 0.474257 0.024403 154 152 144
-0.168537 -0.231616 0.002688 134 142 139
0.308889 0.007611 0.034441 54 67 76
0.185747 0.010299 -0.021794 28 40 42
-0.338456 -0.022496 0.322467 42 48 50
-0.381775 0.146513 -0.000917 119 130 126
0.059147 0.218609 0.030364 98 110 100
0.365276 0.327337 0.025552 139 139 133
-0.396186 -0.038276 0.338815 83 91 88
0.051911 0.228084 0.029988 53 57 50
-0.185907 0.227199 0.016283 113 120 114
0.286372 -0.197524 0.023518 123 124 118
-0.453156 0.012726 0.382805 159 149 147
-0.219510 0.305666 0.023837 132 139 133
-0.220110 -0.061435 0.257368 23 29 31
0.078828 -0.016201 0.012537 54 69 68
0.165251 -0.213438 0.018966 59 59 55
0.181563 0.494628 0.000190 129 130 121
-0.173213 -0.261037 0.001195 139 145 143
0.214552 0.061680 -0.018649 25 37 39
-0.341037 -0.202068 -0.008586 154 156 147
0.034871 0.060174 0.018315 30 45 42
-0.062451 -0.097601 0.042494 119 138 138
-0.312796 -0.092319 0.002001 123 132 123
0.318028 -0.050977 0.120358 81 94 103
0.268412 -0.274393 0.017709 133 133 129
-0.250657 -0.166741 0.003555 131 140 131
0.317316 -0.237648 0.022055 81 80 82
-0.338528 0.016321 0.277234 118 155 158
0.372086 -0.286347 0.020829 140 135 131
0.311629 0.089958 0.034356 49 65 73
0.003949 0.458638 0.110864 165 169 164
-0.349466 -0.223900 -0.018790 173 173 167
-0.289330 -0.124182 0.004271 126 137 133
0.058537 -0.067968 0.010800 24 37 34
0.257986 -0.145585 0.025006 105 106 102
-0.017388 -0.236705 0.053862 147 161 165
-0.043032 -0.197537 0.016667 139 156 159
0.313260 -0.009854 0.113961 71 84 93
-0.110032 0.333042 -0.019220 114 127 122
-0.132374 0.078311 0.008843 101 117 106
0.174902 0.450021 -0.000066 123 124 115
-0.185451 0.194656 0.012736 125 134 127
-0.448166 -0.008983 0.372080 205 197 196
-0.342850 0.244998 -0.006842 177 173 164
0.023753 -0.289947 0.008027 86 92 94
-0.035222 0.101912 0.018390 100 115 101
0.244293 -0.230568 0.020325 129 129 123
0.152804 -0.254213 0.015000 100 104 99
-0.017556 0.119814 0.021535 104 118 109
-0.219720 0.140389 0.004692 76 84 81
0.315088 -0.116121 0.116889 95 106 117
0.246967 -0.053182 -0.024372 29 39 42
0.349023 -0.152152 0.023310 111 110 110
-0.338511 -0.134620 0.328812 52 67 66
-0.238065 0.166610 0.005450 126 135 126
-0.421221 -0.059220 0.327528 60 60 64
0.399062 0.333690 0.027851 134 134 128
-0.098702 0.044455 0.010207 93 112 100
0.253391 -0.225690 0.020929 53 56 55
-0.249660 -0.147667 0.004935 128 137 128
-0.270626 0.099252 -0.000908 111 127 116
-0.326099 -0.295502 -0.014508 126 129 128
-0.243025 0.323102 0.046467 168 174 172
0.364829 -0.175347 0.024575 116 112 105
-0.184904 -0.262523 0.000459 137 141 136
-0.326173 -0.293942 -0.014198 75 75 79
0.216861 0.131651 -0.009550 18 30 32
-0.297590 -0.072862 0.005528 117 129 119
0.122862 0.183949 0.068421 20 34 38
0.108865 -0.299923 0.009528 130 131 125
0.266440 -0.204232 0.023067 129 130 124
-0.106101 0.443223 0.021760 148 159 155
-0.221867 0.058992 -0.009434 106 121 105
-0.137033 -0.176087 0.047574 102 117 116
0.394775 -0.034554 0.022682 100 101 97
-0.025020 0.446213 0.026226 155 163 160
-0.182216 0.106695 0.006937 104 118 107
-0.229391 0.209691 0.010026 122 122 124
-0.112630 -0.113784 0.036445 120 142 141
-0.245381 -0.121344 0.007170 119 131 123
0.398080 -0.187833 0.026020 131 128 123
-0.110015 0.356933 -0.013060 111 122 118
-0.000145 -0.017185 0.009175 88 102 91
0.367143 -0.276817 0.021453 140 135 133
0.159412 -0.254304 0.015454 57 57 59
-0.093140 -0.124239 0.023788 124 146 145
0.266214 0.129290 -0.008567 43 53 58
-0.207793 0.441427 0.040563 159 163 158
-0.020805 0.080888 0.018081 95 109 98
0.019017 0.448043 0.067973 161 167 165
-0.212182 -0.109234 0.194533 18 26 23
0.023680 -0.185044 0.063440 148 155 159
-0.051411 0.141470 0.021382 107 121 110
-0.402197 0.005475 0.357259 166 143 142
0.126069 0.181570 0.061577 22 34 38
-0.234483 -0.184026 0.002971 131 138 132
0.311904 -0.131457 0.117225 83 96 105
0.166607 0.056526 -0.017352 26 38 40
0.284177 0.371004 0.017067 118 114 115
-0.085153 0.200736 0.023258 107 121 110
0.312617 -0.116389 0.091709 67 78 87
0.311391 0.046940 0.083289 63 76 85
0.378011 -0.082218 0.021916 61 68 74
-0.131362 -0.233790 0.005091 130 139 132
-0.350302 0.027775 0.288636 128 165 168
-0.077306 0.206892 0.087939 135 146 142
0.191213 0.462603 0.001738 101 106 96
0.317175 0.070453 0.115171 82 98 106
0.267271 0.326686 0.010766 137 138 132
-0.258129 0.252197 0.140063 181 187 185
0.067159 -0.073625 0.010771 93 107 96
-0.050297 -0.278460 0.007384 129 132 131
0.028949 -0.150965 0.056006 64 74 77
0.245261 0.004889 -0.023040 26 38 40
0.062610 -0.256571 0.010669 129 136 128
0.246395 0.103209 -0.014245 27 37 40
0.006289 0.005634 0.011887 103 115 107
0.180016 0.365262 0.005583 119 120 114
0.277350 0.178374 0.051142 35 49 55
0.069879 0.300203 0.157468 137 156 156
0.170572 0.096689 -0.015469 24 36 38
-0.236000 0.445989 0.099747 172 172 166
-0.126833 0.040910 0.008569 102 114 104
-0.138081 0.067664 0.008992 81 95 84
-0.280557 -0.049632 0.009787 114 126 118
-0.242204 -0.010613 0.170844 21 30 23
0.175727 -0.142372 0.025936 97 104 98
-0.391938 0.163199 0.046743 123 143 154
0.113766 -0.299975 0.009817 132 133 127
0.150161 -0.231320 0.016253 126 130 123
0.372951 0.408289 0.024892 146 146 140
0.305836 -0.225990 0.022122 133 133 127
-0.117286 0.450903 0.040776 156 162 160
-0.415668 -0.070219 0.266918 86 90 85
0.046628 0.001137 0.013536 89 100 96
-0.214476 0.397648 0.003526 124 130 128
0.312361 0.057496 0.090146 64 77 86
0.037821 -0.161899 0.058476 41 47 47
-0.063568 0.329201 -0.016567 132 145 142
-0.030117 0.213257 0.029955 102 114 104
0.204459 -0.031257 -0.024750 29 36 40
-0.204508 -0.087552 0.212276 24 32 31
0.212512 0.518333 0.003048 138 136 126
-0.476580 -0.033510 0.365517 89 93 86
0.145956 0.440607 -0.002538 122 123 117
-0.179617 0.455396 0.107676 171 175 168
0.135755 -0.241036 0.015074 128 128 128
0.305026 0.069630 0.006610 56 67 76
-0.384408 -0.033716 0.336226 78 82 77
0.259623 0.100603 -0.013238 43 55 59
0.234794 0.128060 -0.010956 20 30 33
0.281837 -0.205834 0.022576 124 124 124
-0.037888 0.143296 0.022274 104 118 109
-0.123079 0.437306 0.015639 149 158 151
-0.340266 -0.264697 -0.014621 158 159 150
0.284107 -0.269693 0.018380 133 130 125
-0.012548 0.048670 0.015655 104 116 106
0.095064 -0.205866 0.015489 100 103 104
-0.120898 0.460922 0.097435 166 169 168
-0.155851 -0.104504 0.006436 109 124 121
0.180095 -0.183528 0.022523 110 117 109
0.140689 -0.061534 -0.018208 26 36 39
0.102337 -0.219352 0.015276 124 132 121
-0.204285 -0.114718 0.170417 11 14 15
0.335905 0.031142 0.111842 92 99 105
-0.041536 0.442606 0.017405 150 163 158
-0.142163 -0.180946 0.060192 112 127 126
0.132960 -0.196448 0.019051 121 130 123
0.386277 -0.224581 0.022974 132 133 127
-0.462085 -0.015421 0.372565 158 158 154
0.071430 0.385543 0.144346 160 169 162
-0.283505 -0.110573 0.321962 80 93 88
-0.261996 0.121009 -0.000862 116 127 123
0.256390 -0.129796 0.100970 59 72 81
0.138790 0.347331 0.001099 80 84 77
0.009388 -0.051200 0.006291 40 46 44
-0.293740 -0.140080 0.003156 133 141 138
0.395369 -0.254301 0.022284 125 123 115
0.112107 0.163265 0.028617 18 28 31
-0.280232 0.181932 0.001807 92 100 99
0.277616 -0.222495 0.021558 130 131 125
0.002355 -0.223089 0.057972 147 161 163
-0.154678 -0.003262 0.002474 101 113 103
-0.288955 0.117083 -0.002118 125 138 125
0.075862 -0.109282 0.099762 64 82 89
-0.354288 0.025797 0.289080 128 165 166
-0.072155 -0.205800 0.015730 136 155 155
-0.264150 -0.098928 0.005605 114 130 121
0.069282 -0.095638 0.009197 91 99 96
-0.133459 0.338590 -0.013124 105 116 112
-0.122908 0.077714 0.010195 106 120 109
0.145574 -0.131747 0.032247 77 85 84
-0.070171 -0.086370 0.057350 125 147 146
-0.282804 0.149704 -0.001095 137 146 137
0.000918 0.373717 -0.005516 135 146 144
0.311815 0.085079 0.076036 59 72 81
-0.262568 -0.089752 0.314282 213 233 226
0.189266 0.308346 0.003230 61 67 65
-0.122600 0.153061 0.015370 108 122 113
-0.214073 0.376427 0.000455 119 125 123
-0.376084 -0.046428 0.326571 62 69 63
0.318534 0.447706 0.018596 123 123 119
-0.005132 -0.167287 0.026646 137 156 156
0.143613 -0.297086 0.011219 124 131 123
-0.404899 -0.030414 0.348611 113 126 125
0.376819 0.347218 0.026345 125 125 121
0.116253 0.165607 0.028506 18 28 31
-0.299664 0.413056 -0.014132 145 149 142
0.308879 0.001000 0.021753 55 68 77
0.180329 -0.198588 0.020870 113 120 112
0.228716 -0.139219 0.109358 141 160 162
0.072240 0.125059 0.108015 91 105 109
0.014023 0.185200 0.027974 110 124 115
0.066892 0.393724 0.140693 167 173 171
-0.203829 0.128452 0.006630 112 125 112
0.055785 0.135005 0.026812 50 57 61
-0.362874 -0.041617 0.323437 73 83 86
-0.381003 -0.080124 0.346333 134 159 164
0.021241 -0.198098 0.062758 61 71 76
-0.087618 0.034298 0.010080 92 108 97
0.275552 -0.211040 0.023166 133 131 123
0.044864 0.003030 0.013776 89 102 97
-0.148349 -0.206955 0.005577 130 142 134
-0.014145 -0.180604 0.024684 139 158 160
-0.272979 -0.208884 -0.000883 139 146 140
-0.307404 -0.074933 0.342791 90 101 101
-0.004572 -0.034410 0.007973 81 96 95
-0.064032 -0.159498 0.016673 114 136 135
0.314426 -0.244225 0.021896 131 128 123
-0.022362 -0.286474 0.006928 122 128 128
-0.024110 -0.119485 0.032213 123 147 147
-0.441166 -0.017272 0.366230 195 195 195
-0.451220 -0.097825 0.223091 111 133 136
0.191459 0.354492 0.006330 110 119 112
-0.071100 -0.169553 0.014939 132 151 151
0.379659 0.318475 0.027628 138 138 132
0.379169 -0.148888 0.024485 78 78 74
0.244970 0.184307 0.069946 36 50 56
0.140817 0.174730 0.036268 18 30 34
-0.022324 0.464294 0.112699 165 169 164
-0.139959 0.038690 0.008759 98 114 103
-0.021197 -0.243409 0.055614 142 156 158
-0.027617 -0.132317 0.027256 121 143 144
-0.147524 0.066405 0.007104 106 119 114
0.303261 -0.036085 0.005146 53 64 73
0.311653 -0.192316 0.023188 133 134 125
-0.167965 -0.280398 0.000767 136 143 137
0.323231 -0.204289 0.023169 136 131 127
0.006365 0.095178 0.019621 104 123 111
0.100088 -0.017824 0.050475 28 40 44
-0.067549 0.100833 0.015842 90 101 99
-0.015287 0.023291 0.012826 24 36 28
-0.276665 -0.117565 0.312068 56 64 63
0.283159 -0.285666 0.017766 136 133 128
-0.192031 -0.148925 0.009764 123 134 130
-0.134256 0.144683 0.014296 115 128 123
-0.111561 0.077159 0.011492 101 117 106
-0.170783 0.114870 0.008048 123 132 123
0.013925 0.455422 0.094768 161 168 162
0.142332 0.106304 -0.008801 21 33 35
-0.012426 0.052560 0.016191 109 121 111
-0.268404 -0.098931 0.315269 96 103 111
0.393335 0.219935 0.030409 94 91 88
-0.479684 0.013622 0.396581 162 157 153
0.072976 0.113251 0.117643 75 92 97
0.169131 -0.146043 0.103960 130 154 156
0.297396 -0.016075 -0.005602 53 69 77
-0.244081 -0.076275 0.295227 39 49 52
0.144741 -0.094952 -0.004182 62 81 83
-0.209501 0.200138 0.140417 155 166 162
-0.223122 -0.070359 0.269801 32 38 38
-0.183801 0.220034 0.016571 118 128 116
-0.167859 -0.289883 -0.000043 64 67 66
-0.323432 0.475915 -0.020947 87 87 91
-0.047852 -0.014753 0.007507 35 42 36
0.288742 -0.171867 0.024535 129 127 119
-0.289323 0.314083 -0.003081 157 162 150
-0.087783 0.024301 0.009607 38 49 45
-0.370708 -0.086327 0.358843 132 168 176
-0.267346 -0.181909 0.001364 130 142 134
-0.145438 -0.205462 0.066588 118 133 132
-0.238800 -0.100990 0.280549 29 40 40
0.203513 -0.289768 0.014522 146 144 136
0.242458 -0.165149 0.025531 112 116 111
0.064504 0.091086 0.024332 98 113 108
0.328258 0.093425 0.124535 92 104 108
0.320908 -0.197544 0.023539 133 131 121
-0.061598 0.455854 0.063584 163 170 164
0.130986 0.190084 0.093644 36 52 60
0.026942 0.456219 0.119424 158 164 162
-0.318992 -0.105480 0.353248 125 166 172
0.038514 0.206743 0.093571 86 98 90
0.290267 -0.173558 0.024330 66 61 57
-0.328223 -0.132579 0.337123 63 80 83
-0.219076 0.118343 0.004849 121 130 121
-0.056961 0.454146 0.056601 162 168 166
0.208182 -0.160076 0.026169 112 119 113
0.021452 0.403881 -0.003070 143 154 150
-0.308915 -0.245895 -0.009028 150 151 145
-0.035442 -0.281665 0.007093 122 129 123
-0.296269 0.108670 -0.002794 98 110 102
-0.349012 -0.250678 -0.019535 165 166 162
-0.137926 0.202561 0.128911 142 156 147
0.037571 -0.206579 0.011099 85 92 84
-0.352248 -0.028159 0.324094 89 96 90
0.217751 0.188481 0.104385 45 62 67
-0.367016 -0.108344 0.352839 135 171 179
0.302040 -0.099520 0.045525 54 65 74
0.159777 -0.249530 0.016279 45 46 42
-0.139842 0.351961 -0.010412 104 115 111
-0.016286 -0.189162 0.024687 131 153 154
0.177661 0.145345 -0.006364 19 31 33
-0.065455 0.204762 0.104572 135 149 140
-0.030578 0.011580 0.011647 86 99 86
0.004967 -0.168540 0.051392 138 157 157
0.211939 0.303879 0.002869 108 116 105
0.061404 0.134589 0.027654 59 66 70
-0.491432 -0.010385 0.389876 154 150 151
-0.224105 -0.125362 0.008620 121 130 123
0.266658 0.097712 -0.011733 43 55 59
0.101425 0.174716 0.075789 28 40 44
0.349082 -0.211268 0.023960 108 96 107
-0.401368 -0.017727 -0.024239 126 138 130
0.361788 -0.180670 0.025012 131 128 123
-0.063857 0.013973 0.010359 87 101 90
0.016954 0.447172 0.050816 160 166 164
-0.310613 0.153128 -0.003671 132 141 132
-0.263571 -0.105942 0.308457 172 183 179
0.232421 0.187754 0.099022 42 58 66
0.389408 0.210395 0.030690 118 119 115
-0.004458 0.317524 0.000889 130 141 137
-0.023872 0.453129 0.061417 160 168 165
-0.215455 -0.094733 0.244644 19 27 24
0.002476 0.187753 0.027312 113 127 118
-0.118852 0.127495 0.013787 104 120 109
-0.255785 -0.251945 -0.003224 67 69 75
-0.109129 0.207478 0.086488 134 147 142
0.022912 0.205335 0.028804 100 108 107
-0.063887 -0.294044 0.004997 120 126 124
-0.297987 0.423420 -0.013582 151 153 144
0.399451 0.495209 0.023089 146 147 138
0.245046 -0.248628 0.019597 132 133 124
0.046161 0.206751 0.147946 154 167 164
0.266418 0.423378 0.014162 93 101 98
0.315010 0.018544 0.105721 67 83 91
-0.147680 0.109902 0.009607 110 122 114
-0.346214 -0.097727 0.362596 91 127 135
-0.165630 -0.098437 0.101335 29 37 38
-0.400901 -0.054769 0.327830 42 49 43
0.242350 0.186985 0.096993 45 59 65
-0.051612 -0.078028 0.064642 129 151 150
-0.293130 0.305045 -0.004500 152 155 154
-0.015142 0.080793 0.018353 101 115 104
-0.245695 -0.205928 0.001123 140 144 139
0.239300 -0.054999 -0.024896 31 41 44
-0.045629 -0.239400 0.042982 142 156 160
-0.261253 -0.113254 0.302127 166 181 176
0.004066 0.088601 0.019961 109 125 114
0.237030 0.195941 0.123106 141 160 162
0.252953 0.090669 -0.015400 30 40 43
0.313429 -0.037185 0.117531 86 99 110
0.006516 0.208945 0.065828 129 141 133
0.080396 -0.151144 0.018784 107 116 109
0.132230 0.166908 0.018783 17 28 28
-0.194235 0.454184 0.086071 167 171 166
-0.355739 0.036099 0.294057 129 162 166
-0.023189 -0.047086 0.005302 83 95 87
-0.370269 -0.094861 0.356377 135 171 179
0.072301 -0.107302 0.093863 91 105 107
0.208766 0.082348 -0.016824 25 37 41
-0.301981 -0.073745 0.337657 89 100 98
0.372828 0.545345 0.020971 149 147 139
-0.491673 -0.034254 0.371501 45 45 49
0.080861 0.135724 0.114653 62 79 84
-0.444443 -0.035935 0.354980 111 118 112
0.194723 -0.136118 0.109955 142 161 165
-0.082312 -0.169471 0.054767 102 124 127
0.003456 0.347163 -0.001228 131 142 142
0.313559 0.138343 0.085839 58 71 80
-0.206486 0.160896 0.008088 125 134 125
-0.125163 -0.028787 0.002254 96 108 100
-0.114167 0.409612 -0.002843 111 120 113
-0.344471 -0.128844 0.344096 96 132 138
0.186996 -0.141662 0.106156 137 159 162
0.204854 0.450222 0.003578 119 124 114
-0.227364 -0.102242 0.269624 26 32 32
0.239560 0.457544 0.008660 124 126 117
0.215948 -0.168584 0.025258 106 113 107
-0.174802 -0.267422 0.000446 138 144 142
0.234288 0.293149 0.000757 106 112 110
0.082662 0.169763 0.032330 52 59 63
0.020933 0.433500 0.013376 153 161 158
0.303669 -0.065032 0.015429 51 64 73
-0.285137 -0.075094 0.328963 85 94 87
0.256434 0.362849 0.013624 138 139 133
-0.260759 -0.171992 0.003548 136 142 140
-0.188522 0.216984 0.063922 137 151 142
0.138271 0.149508 0.001857 22 32 35
-0.223851 -0.194274 0.002518 136 139 138
0.270068 -0.227435 0.021198 131 131 125
0.190157 -0.140269 0.107094 137 161 163
0.069535 -0.296549 0.008865 120 124 119
-0.297962 -0.127599 0.003533 132 141 134
-0.028736 -0.098590 0.051189 142 164 163
-0.462939 -0.001088 0.380625 200 196 189
0.118031 -0.232707 0.015037 133 137 130
0.064891 0.296909 0.152921 144 163 163
0.120499 0.171034 0.038376 18 28 33
0.130326 0.412998 -0.002291 109 120 116
0.144370 -0.255722 0.014347 121 128 120
0.043923 0.016993 0.014060 84 103 93
-0.024247 0.209389 0.028874 57 70 65
-0.026999 -0.077936 0.059519 111 128 129
0.077065 0.147964 0.111687 66 84 93
-0.131968 0.448036 0.034487 156 163 157
0.346067 -0.148668 0.023572 76 73 70
-0.310146 0.247352 -0.002505 146 156 144
0.125313 -0.186295 0.019684 106 109 110
0.102793 0.169271 0.066810 24 36 42
-0.036093 -0.106230 0.035827 125 147 148
-0.022926 -0.108085 0.041729 135 157 158
0.130086 -0.265285 0.013258 71 75 70
0.169286 -0.190096 0.021184 111 118 110
0.027256 -0.206608 0.011272 79 87 84
0.317522 0.484191 0.018006 108 103 101
-0.290688 -0.082182 0.331492 88 96 93
0.385085 -0.012125 0.025501 93 96 95
0.298868 -0.260172 0.019523 130 130 124
-0.020175 -0.009624 0.009853 89 103 92
-0.298396 0.114547 -0.001578 82 89 81
0.243855 -0.220706 0.021189 123 125 116
0.147268 -0.088377 -0.018849 49 63 67
0.206723 0.361285 0.007910 118 120 111
-0.150049 0.215048 0.017685 77 88 84
0.133802 0.322298 0.003837 114 119 109
0.270178 0.015244 -0.017754 42 56 62
-0.264046 -0.296440 -0.008615 143 150 142
0.270787 0.377610 0.015021 139 139 133
-0.322891 0.124693 0.007727 140 147 139
0.354297 -0.123109 0.028441 100 111 107
-0.235295 -0.209445 0.001636 135 142 136
0.185102 -0.166728 0.024778 62 69 63
-0.119305 0.208871 0.049696 109 124 119
-0.055634 0.217488 0.030130 101 114 111
0.182692 0.188876 0.103161 45 62 67
0.220522 -0.273972 0.015720 135 136 130
-0.250668 0.268159 0.151443 173 176 175
-0.342457 -0.083380 0.364488 131 170 177
-0.027219 -0.229821 0.043468 154 171 174
0.383121 -0.010539 0.026448 92 98 98
-0.112921 0.201529 0.137096 142 157 152
0.187551 0.163418 0.002024 20 31 31
-0.303029 -0.197921 -0.004076 141 145 140
0.227848 0.187708 0.095619 41 57 65
0.364273 -0.211409 0.024564 132 131 138
0.039895 0.122974 0.024622 107 119 111
-0.324232 -0.135433 -0.000745 40 40 44
-0.328074 0.514193 -0.022640 70 69 69
0.203583 0.421884 0.004844 114 118 111
0.314180 0.419956 0.019274 123 122 126
0.269121 -0.293346 0.016021 120 125 115
-0.420617 -0.102359 0.238425 71 78 72
-0.222761 0.330934 0.013019 132 139 133
-0.231357 -0.226042 0.000247 141 148 142
0.317934 -0.284375 0.019242 137 137 131
0.048884 0.184112 0.030365 114 126 116
0.138695 -0.061695 -0.017756 25 35 38
-0.436202 -0.104141 0.227434 104 132 136
0.307558 0.137676 0.013844 56 72 80
-0.103688 -0.118366 0.028080 120 142 141
-0.267182 0.292488 0.003322 148 157 150
-0.006095 -0.111270 0.057373 127 146 146
0.193103 -0.188770 0.022840 113 117 110
-0.453880 0.006183 0.381208 167 167 163
-0.007028 -0.224016 0.054695 152 166 170
