ply
format ascii 1.0
element vertex 1228
property float x
property float y
property float z
property uchar red
property uchar green
property uchar blue
end_header
-0.272499 -0.083257 0.321973 55 65 70
-0.124242 0.232645 0.019835 131 143 135
-0.315956 0.482100 0.010638 144 145 136
0.084374 0.077391 0.098594 59 77 84
-0.325256 -0.064761 0.107721 122 124 115
-0.025892 0.228395 0.090221 136 151 146
-0.104604 0.013197 0.006953 50 69 59
0.340372 0.436016 0.013449 150 148 140
-0.494736 -0.015029 0.366543 113 117 112
0.243432 0.074309 0.013673 33 43 46
0.261320 0.182681 0.083390 40 53 62
-0.342646 0.136612 0.009660 176 173 168
-0.300013 -0.213721 -0.001979 129 133 128
0.146451 0.108644 0.016438 20 30 33
-0.163926 -0.179084 0.011272 135 146 144
0.154464 0.346100 0.006521 63 70 74
-0.189072 -0.039500 0.173774 86 95 86
-0.255588 0.293240 0.101232 169 172 171
0.056068 -0.168474 0.010785 69 80 76
0.246992 0.049036 0.009317 40 52 56
-0.209419 0.370448 0.008283 118 125 117
-0.122554 0.087544 -0.001136 104 120 111
0.365060 0.106662 0.055948 97 104 108
-0.203594 -0.092305 0.227694 22 33 29
0.305837 0.070227 0.060823 50 66 74
-0.112468 -0.176199 0.013665 125 142 143
0.152728 -0.214515 0.007917 117 124 116
0.203362 -0.248079 0.007484 130 135 125
-0.135151 0.462702 0.098066 167 171 166
-0.096602 -0.270231 0.006955 136 136 136
-0.308994 -0.224477 0.001346 147 154 148
-0.110304 -0.074216 0.032618 151 170 170
0.052705 -0.134079 0.015098 40 39 41
-0.224307 0.100915 0.004974 80 92 84
0.137712 -0.141693 0.010524 103 111 108
0.244850 -0.136021 0.016407 89 97 96
0.085555 0.054826 0.008189 77 89 81
0.312418 0.037013 0.107452 67 83 93
-0.104190 0.343813 -0.002198 123 134 130
-0.474139 -0.007956 0.360330 198 193 189
0.271473 0.459644 0.013315 140 144 137
0.192486 0.115215 0.021149 20 30 33
0.037344 0.231715 0.049105 128 140 132
-0.317964 -0.124052 0.336458 68 85 90
-0.171668 0.458743 0.101505 173 174 168
-0.066664 -0.238278 0.019776 130 144 146
-0.158094 0.235379 0.033020 136 150 141
-0.178328 -0.026320 0.005469 97 111 100
-0.328797 -0.173666 -0.003931 142 145 144
-0.297735 -0.201258 -0.004529 143 150 142
-0.245708 0.146603 -0.002981 111 119 116
-0.388690 -0.061649 0.321207 124 133 143
-0.321317 -0.102761 0.367667 126 165 170
-0.148645 0.407472 0.012362 118 125 119
-0.205817 0.253380 0.083804 153 162 153
-0.007363 0.229977 0.078293 137 148 144
-0.485535 0.042601 0.323119 179 170 173
0.277070 0.103487 0.024166 48 66 73
-0.178911 0.233037 0.080689 142 156 147
0.164249 0.498030 -0.000803 119 126 118
0.348879 0.383982 0.015088 75 75 77
0.004955 0.452885 0.100155 164 168 163
0.332369 0.381025 0.011818 140 141 132
0.101288 -0.065936 0.032198 33 43 50
-0.272190 0.208977 -0.004696 139 148 139
0.064948 -0.014537 0.008209 57 66 59
-0.104515 0.015794 0.005607 43 61 55
-0.111088 -0.200576 0.015201 121 139 137
0.057436 -0.076422 0.013345 21 34 33
0.289334 -0.095333 0.043797 49 65 73
-0.148985 -0.041352 0.004293 96 108 100
0.134802 -0.042271 0.014753 25 37 41
0.226119 -0.159134 0.009092 107 107 109
-0.295876 -0.112241 0.331906 82 95 90
0.209291 0.011430 0.010140 32 39 43
-0.225173 -0.018389 0.228929 36 41 46
-0.372249 -0.119260 0.355780 138 172 180
0.142502 -0.175596 0.011288 113 120 112
-0.177853 -0.172535 0.005798 48 52 45
0.397083 0.214701 0.023933 114 118 113
-0.353259 0.024847 0.265267 64 78 84
0.212761 0.136074 0.027351 23 35 37
0.036561 -0.006722 0.003317 84 99 94
-0.115641 -0.001688 -0.000936 94 110 101
0.074515 0.134368 0.008140 107 121 110
0.321991 -0.012715 0.120470 82 93 102
-0.118821 0.387639 0.004713 108 115 109
0.044411 0.011246 0.008587 89 103 94
-0.436678 -0.079258 0.266291 72 85 84
0.063955 -0.244758 0.008880 88 91 90
-0.042907 0.183714 0.006580 44 57 52
-0.192140 0.223522 0.003451 96 109 106
-0.127921 0.198481 -0.000296 115 127 117
-0.266029 -0.076050 0.303915 143 154 150
-0.167530 0.379100 0.004640 106 113 105
0.146062 0.514088 -0.003175 95 95 91
-0.157542 0.148292 -0.000605 115 126 122
0.287720 -0.167819 0.015436 80 81 77
0.302584 0.033794 0.043247 54 67 76
0.086493 -0.133479 0.100814 69 87 94
-0.268612 0.221887 -0.002771 118 125 119
0.208922 0.381763 0.008486 110 119 112
0.031866 -0.183211 0.014006 81 84 87
0.387639 0.487234 0.009577 83 83 83
0.292933 0.428513 0.015012 134 141 135
0.073887 0.346443 0.124598 147 161 163
-0.421597 -0.095610 0.286306 73 77 72
0.291436 0.019017 0.026443 54 70 80
-0.345165 -0.108186 0.367306 130 169 176
-0.236624 -0.125539 0.245584 17 28 26
-0.181352 -0.170634 0.005176 120 125 115
0.115424 0.040265 0.022200 22 36 40
0.290854 -0.241152 0.014300 108 109 105
-0.113763 -0.006899 -0.002894 96 110 99
-0.015596 0.159603 0.001517 111 125 114
-0.136098 0.018013 0.000032 38 52 43
-0.233266 0.128188 -0.001541 43 52 45
-0.325937 0.279090 0.000354 124 125 116
-0.477282 -0.017387 0.155836 119 120 114
0.160485 0.043242 0.016283 26 38 42
-0.294927 -0.100089 0.336066 90 102 94
-0.050734 -0.294188 0.005787 107 114 108
-0.244298 0.432789 0.119320 176 177 171
0.159319 0.139206 0.024826 22 34 36
-0.421572 -0.037882 0.309906 62 70 67
0.312745 0.190543 0.116224 80 92 98
0.158740 0.060177 0.015609 24 36 40
0.303938 -0.010366 0.062719 57 70 79
0.083133 0.154005 0.101984 61 82 90
-0.211896 0.136593 0.003665 120 129 120
0.312147 0.061635 0.101565 65 78 87
-0.136783 -0.192189 0.030495 113 128 127
-0.142987 0.446267 0.072555 158 165 159
0.041312 0.077529 0.008565 102 115 110
-0.029597 -0.027300 0.004488 76 90 79
-0.346208 -0.107379 0.368442 134 173 180
-0.199780 0.121441 0.007531 54 65 61
-0.013483 0.076262 0.001648 102 116 105
-0.211460 -0.156498 -0.001917 123 137 128
-0.259680 -0.231343 0.001959 143 150 144
0.271507 -0.156336 0.012108 120 124 117
0.301438 -0.156431 0.012536 123 124 120
0.315061 0.349813 0.004560 133 130 125
0.304969 0.111475 0.061796 51 64 73
-0.223219 -0.265595 -0.000113 60 59 59
-0.018358 0.438424 0.063064 160 166 164
-0.264668 -0.124008 0.268118 21 26 31
0.393938 -0.261295 0.015152 136 136 132
-0.122721 -0.152689 0.017376 99 114 111
-0.236088 -0.149625 -0.001013 129 141 133
-0.496283 0.032514 0.368894 166 158 155
-0.366228 -0.029186 0.303234 74 85 83
0.263251 0.026904 0.008059 40 54 60
-0.043276 -0.085459 0.028177 127 149 150
0.332397 -0.193789 0.014552 133 134 125
-0.407244 0.002052 0.332635 251 255 250
-0.030058 -0.189287 0.010514 138 157 161
-0.054565 0.112790 0.001260 96 110 99
0.182284 -0.112825 0.052374 59 78 82
-0.020016 -0.279672 0.004064 127 135 132
0.239484 0.164338 0.047890 35 47 51
0.120545 0.195317 0.108896 59 80 88
0.145377 0.535648 -0.001473 138 143 133
-0.004983 -0.236469 0.009499 96 107 103
0.350942 -0.298988 0.020942 107 104 101
0.279291 0.145735 0.030859 51 64 73
-0.446498 0.038985 0.314184 159 159 153
-0.076390 -0.253665 0.033355 145 151 149
-0.286819 -0.077511 0.333815 82 94 86
-0.267733 -0.071338 0.303416 131 143 135
-0.081739 -0.145137 0.028520 95 105 108
-0.046838 -0.177230 0.010787 142 161 163
-0.412903 -0.057301 0.288139 72 78 76
0.012444 0.458956 0.107916 158 165 159
-0.166540 0.077518 0.009978 120 129 120
-0.380730 -0.131802 0.297430 56 63 55
-0.278102 -0.046819 0.017711 108 122 111
0.032009 -0.044710 0.004642 71 84 81
-0.231223 0.125801 -0.001158 107 115 112
0.052499 0.044371 0.007850 98 110 102
0.149364 -0.194408 0.010000 120 124 117
0.208248 0.049942 0.011364 27 37 40
0.200045 -0.286137 0.011386 136 136 136
-0.220029 -0.095215 0.260248 28 31 30
-0.330388 -0.073150 0.000583 124 133 124
0.393362 -0.090966 0.020135 108 109 105
-0.213946 -0.245619 -0.002120 138 144 142
-0.323619 -0.044121 -0.000386 116 125 118
-0.229495 0.355762 0.016962 149 156 150
-0.290003 -0.107680 0.331185 88 99 95
0.369422 0.496364 0.008473 153 149 142
-0.046795 -0.145508 0.004175 120 135 132
-0.037949 0.447321 0.076482 162 168 166
-0.344728 -0.021656 0.277777 70 78 75
-0.110488 0.339757 -0.003761 114 126 118
0.142444 0.016450 0.016532 29 41 43
0.039905 -0.223321 0.010286 86 97 93
-0.387204 -0.012448 0.298270 80 87 81
0.382170 -0.172911 0.014767 97 91 93
0.258526 0.079235 0.016838 40 54 60
-0.138009 -0.063270 0.001106 99 113 104
0.066980 -0.164765 0.010047 90 97 91
-0.242166 -0.077962 0.285960 31 44 43
0.382284 -0.188682 0.014888 106 105 107
-0.112722 0.097972 -0.004635 104 121 107
0.040046 -0.170513 0.011905 54 61 67
0.179351 0.181100 0.077477 37 49 55
0.047363 -0.244419 0.007140 121 128 120
0.000588 -0.020324 0.002084 88 102 91
0.316191 0.151467 0.113512 65 81 91
-0.108313 -0.020572 -0.003521 89 101 93
-0.043114 -0.238040 0.018295 141 158 159
0.253241 0.407096 0.007486 119 119 113
0.317258 -0.104700 0.128283 80 93 102
-0.007383 0.232783 0.028916 127 141 132
0.386561 0.087259 0.028202 92 98 98
0.142750 0.158386 0.037522 16 28 30
-0.342147 -0.270348 0.001180 162 163 152
-0.320425 0.246231 -0.004650 146 153 145
0.270236 -0.206891 0.011736 126 127 123
-0.366532 -0.129761 0.349091 120 152 159
0.243080 -0.212177 0.012623 58 68 71
0.223332 0.012478 0.007834 34 41 45
-0.110439 -0.039065 -0.001471 92 106 97
0.297248 -0.027808 0.048881 53 64 73
0.291715 0.462805 0.013259 137 142 132
-0.481389 0.016470 0.376737 69 72 75
0.165753 -0.000140 0.013182 28 40 42
-0.197767 0.001575 0.042282 19 35 26
-0.479643 -0.012194 0.357274 133 136 137
-0.407816 -0.036460 0.286853 39 47 44
-0.161797 0.234024 0.092671 149 164 159
0.015300 0.451927 0.098561 162 169 163
0.018042 0.233399 0.017503 128 140 130
-0.191305 -0.185288 0.008316 137 146 139
0.203203 0.026899 0.011995 26 36 39
-0.117796 -0.033888 0.000285 93 107 96
-0.290076 -0.185818 -0.004164 100 103 102
0.135780 0.182044 0.085699 36 50 56
0.037159 -0.189349 0.010697 78 86 83
-0.233311 0.443782 0.110562 170 170 164
0.357807 -0.198863 0.014037 130 132 123
0.192971 -0.134970 0.012488 98 101 100
-0.387091 -0.006410 0.301687 89 97 94
0.293100 -0.128817 0.092674 68 80 86
0.097090 -0.167547 0.007140 108 115 109
-0.499698 -0.006750 0.377124 183 186 185
0.218550 -0.140783 0.114364 140 162 163
0.279954 -0.038627 0.021977 58 72 78
0.251235 0.021024 0.007273 44 58 60
-0.101307 0.233842 0.043423 136 147 143
-0.125608 -0.068908 0.011918 102 117 112
-0.159984 0.213982 0.000483 123 133 121
-0.086123 -0.164820 0.036976 39 51 53
0.028826 0.326745 0.006229 138 149 147
0.151229 0.325874 0.002713 108 115 107
-0.260871 0.234206 0.000294 157 166 157
0.367640 -0.241382 0.014862 135 130 126
0.021482 0.229392 0.020137 124 138 127
0.137415 0.040806 0.016797 26 38 42
0.307825 -0.204098 0.014533 134 134 128
-0.304704 -0.087873 0.351619 87 111 113
0.282259 -0.009772 0.023416 56 74 81
-0.154725 -0.274896 -0.004111 133 133 133
-0.310074 -0.263448 -0.002125 143 148 138
-0.107322 -0.176245 0.013853 131 148 149
-0.308548 0.417883 0.006232 153 154 145
-0.324884 -0.217471 -0.000020 110 116 114
0.178995 0.188798 0.116483 68 88 99
0.161363 0.105984 0.017617 19 31 33
-0.325956 -0.041288 0.022810 120 128 125
-0.183857 0.454038 0.095000 172 172 166
-0.012001 -0.236024 0.024823 140 154 156
0.023039 -0.017336 0.014768 24 43 45
0.238031 0.528783 0.004766 139 141 132
-0.212070 -0.159879 0.216587 33 43 46
-0.255748 -0.098019 0.300482 162 177 172
-0.371658 0.046127 0.258044 135 158 163
0.152158 -0.141418 0.009584 105 112 106
-0.138462 -0.107123 0.032265 126 141 140
0.050087 -0.060259 0.010493 64 83 73
-0.494232 -0.017567 0.363363 58 54 57
0.247556 0.081652 0.016093 40 54 56
0.379705 0.371191 0.018664 77 77 77
-0.201628 -0.008346 0.028718 102 119 105
0.247369 0.514070 0.005306 130 131 122
-0.409863 -0.096192 0.294403 85 92 86
-0.456730 -0.015212 0.347590 149 145 148
-0.335925 -0.092245 0.001608 128 135 127
0.189256 0.459547 0.008542 103 104 98
0.081603 0.097076 0.017011 93 107 98
-0.288020 0.248003 -0.003120 147 157 145
0.002750 -0.275777 0.010025 84 90 88
0.192525 -0.046172 0.010157 27 37 40
0.293147 -0.148109 0.014804 118 119 113
-0.224035 0.213337 0.000439 135 144 135
-0.176290 0.436089 0.034982 153 157 150
0.316412 0.121398 0.104077 65 78 87
0.056893 0.212861 0.017302 101 113 105
0.247817 0.083730 0.016204 40 54 56
0.099994 -0.254897 0.009983 121 127 129
0.264401 0.056248 0.012043 40 54 58
0.168364 0.432333 0.011197 122 124 115
0.242009 -0.049667 0.009583 34 44 47
-0.191262 -0.020243 0.004851 104 116 106
-0.255541 -0.102236 0.300124 166 181 178
-0.352685 -0.101254 0.369739 135 171 179
-0.453427 -0.078191 0.239343 104 117 114
0.010580 0.128921 0.000820 107 123 114
0.053305 -0.278535 0.005950 119 123 118
-0.043778 0.462839 0.102636 166 170 165
-0.245526 0.255495 0.000856 144 154 142
-0.086472 0.073139 0.002701 98 114 105
0.130444 0.408943 0.006115 117 124 116
-0.178994 0.233677 0.076439 142 156 147
0.221412 0.311823 0.002454 62 65 66
0.134760 -0.150847 0.011234 103 112 105
-0.332179 -0.131287 0.330737 58 81 86
0.322757 -0.094635 0.124146 81 94 103
-0.325234 -0.284202 -0.003180 152 153 147
-0.224043 -0.239592 0.001335 52 55 56
0.300212 0.162769 0.077234 54 65 74
0.275594 -0.281795 0.013198 133 133 127
-0.058884 -0.253059 0.000994 118 129 125
0.217828 -0.039694 0.008689 30 40 43
0.008710 0.213825 0.003610 107 121 110
0.274813 0.531911 0.011565 149 147 139
-0.008406 0.211166 0.011412 42 48 48
-0.079403 0.218606 -0.001833 106 122 111
0.306044 0.046732 0.054595 53 64 75
0.187885 -0.292309 0.010065 57 63 65
0.202426 -0.279818 0.012023 134 138 133
0.220956 -0.240156 0.009473 126 127 121
-0.161386 0.137899 -0.002040 116 126 112
-0.130063 0.437504 0.043575 154 161 155
0.218248 -0.149109 0.004993 108 112 107
-0.090212 -0.044082 -0.003531 87 99 91
0.074718 0.386627 0.126510 161 169 166
-0.135905 0.143808 -0.004313 29 44 39
0.036032 0.203536 0.005624 112 124 116
-0.190855 -0.285971 0.006862 54 61 55
-0.311068 -0.130564 0.315914 55 67 59
0.232427 -0.086553 0.011229 32 39 43
-0.324858 0.408751 0.007319 94 91 86
0.217562 -0.178861 0.010333 113 117 110
0.293122 0.459249 0.014212 138 146 135
0.062040 -0.084275 0.014381 81 94 93
0.240844 0.346116 0.001182 112 116 109
0.396019 -0.096972 0.015617 98 105 97
-0.118170 0.444172 0.069490 161 170 163
-0.217804 -0.284446 -0.003699 145 149 144
-0.381817 0.011720 0.303816 91 97 95
0.210226 0.190469 0.117795 74 87 98
0.167731 0.359231 0.009877 117 122 112
-0.247110 0.247872 0.061239 156 165 156
-0.305751 -0.205117 -0.002457 146 153 147
0.110497 -0.144699 0.104718 64 81 86
-0.487158 0.019641 0.376497 158 159 153
-0.158472 0.007218 -0.003492 100 114 103
0.210816 -0.069885 0.012138 30 40 43
-0.113558 -0.103899 0.016497 121 138 139
0.322783 -0.223065 0.015764 126 122 123
0.075447 -0.117360 0.098204 65 86 92
-0.337656 -0.089855 0.371839 129 170 178
-0.033317 0.064643 0.003538 79 96 97
-0.009551 -0.268565 0.005235 125 132 126
-0.094796 -0.252917 0.010299 36 49 48
-0.028688 -0.162708 0.008753 137 156 156
0.103010 0.087887 0.039457 26 36 39
-0.180179 -0.141363 0.001707 115 129 120
-0.160023 0.219017 -0.000077 122 130 119
0.293092 0.163976 0.060548 44 55 64
0.171485 -0.280834 0.008493 136 138 129
-0.157686 -0.096727 0.005229 104 120 111
0.056811 -0.024412 0.008101 33 39 37
-0.015051 -0.281249 0.003746 119 130 126
0.305871 0.170318 0.110534 57 71 77
0.085629 -0.130941 0.010590 99 105 103
0.104958 0.008134 0.030726 26 40 46
0.098173 0.298796 0.004493 108 114 112
0.307588 -0.104455 0.112767 68 84 94
-0.038447 0.379255 0.006933 127 140 137
-0.200373 -0.062378 0.221151 27 35 32
0.297599 0.113831 0.041567 49 67 76
-0.131284 -0.268464 -0.004077 125 132 124
-0.092328 0.160179 -0.004757 109 123 112
-0.205892 -0.227817 0.000582 140 146 144
0.152387 0.189714 0.097976 40 57 62
0.219864 0.465556 0.011833 100 103 102
0.222421 0.094523 0.015654 29 40 40
-0.389580 -0.001929 0.304967 91 97 97
-0.444879 0.023199 0.333694 171 172 168
0.219321 0.012188 0.008472 33 40 44
0.030750 0.436809 0.068892 162 168 166
-0.283134 -0.127015 -0.004716 123 132 125
0.186574 0.184088 0.100503 39 55 63
0.007224 0.231994 0.023148 128 142 133
0.107641 0.184476 0.095127 30 42 48
-0.164120 -0.104579 0.078725 33 41 40
-0.133720 -0.226173 0.042086 153 164 162
-0.212481 -0.175007 0.001609 125 136 132
0.378183 0.326264 0.013419 131 131 127
0.271961 -0.145935 0.120662 77 90 99
0.180628 -0.160403 0.007033 110 119 112
-0.213830 0.204456 -0.000106 131 140 131
0.040016 -0.137853 0.015686 64 72 71
-0.194894 0.377076 0.006714 112 119 113
-0.034345 0.370342 0.005046 129 142 139
0.207871 0.163041 0.049558 33 43 48
-0.297485 0.285030 0.002905 157 165 154
0.263244 0.064074 0.013255 43 55 59
0.187681 0.168344 0.055183 32 44 48
-0.292033 0.502293 0.022798 150 151 142
-0.489235 -0.033431 0.342041 35 38 39
0.089254 -0.163354 0.004542 106 113 107
0.161004 0.400457 0.010654 120 120 114
0.142754 -0.191004 0.010236 118 125 119
0.268744 0.044295 0.010859 40 54 60
-0.090101 -0.176119 0.013345 137 154 155
-0.304992 0.475650 0.008736 150 151 142
0.054734 0.442767 0.103589 174 181 173
0.008695 0.443049 0.082166 161 167 165
0.233821 -0.161890 0.005989 112 113 107
0.121005 -0.264672 0.009528 126 127 121
0.006243 0.374247 0.004136 137 148 146
-0.336766 -0.182341 -0.004127 149 157 146
0.039216 0.227666 0.085860 136 149 144
-0.079885 0.108418 0.000910 92 101 94
0.223070 -0.172369 0.012466 52 51 58
-0.036932 0.180134 0.004983 113 127 118
-0.285753 0.505670 0.022303 151 152 143
0.387767 0.264241 0.024381 132 132 128
-0.157502 0.459406 0.098286 169 173 166
-0.163565 0.417140 0.016499 129 136 130
-0.021430 -0.018001 0.000980 81 95 84
0.152351 0.186570 0.089231 38 55 60
0.006248 -0.168640 0.018322 147 169 170
0.054398 -0.125196 0.009416 75 88 85
0.013387 -0.149333 0.024917 149 168 168
0.346533 0.292090 0.015107 68 68 70
-0.469588 -0.030043 0.294526 167 174 168
-0.116404 -0.246113 0.009081 132 139 131
-0.315602 -0.298783 -0.001119 134 142 139
-0.202339 0.237515 0.007250 137 149 141
-0.159812 -0.052528 0.008366 102 114 106
0.080124 0.114865 0.011851 95 109 98
0.200918 0.024673 0.012377 30 40 43
-0.230643 -0.153446 -0.000028 125 139 130
-0.139708 -0.262300 -0.001610 121 128 122
-0.134213 0.067894 0.004170 106 119 116
-0.179208 -0.296792 0.004625 134 137 136
0.360020 -0.161183 0.010378 127 122 118
-0.397522 -0.110941 0.298418 98 102 97
-0.148771 -0.134050 0.032635 118 135 136
-0.378469 0.080155 0.243164 142 163 169
0.100118 0.168179 0.079264 28 40 46
-0.004301 -0.213250 0.026746 152 171 173
-0.273320 -0.015482 0.264222 77 78 65
-0.065878 0.063643 0.005206 59 71 63
0.310244 0.504117 0.008135 146 147 141
0.202762 -0.012283 0.009072 29 39 44
-0.106327 -0.127713 0.004812 120 142 143
0.362639 -0.264487 0.015103 139 134 130
0.075093 -0.044651 0.010151 87 99 91
-0.106012 0.371827 -0.001666 119 130 126
0.123973 -0.287042 0.007940 132 133 127
0.339781 0.254292 0.038295 120 126 126
-0.155580 0.148052 -0.000139 112 123 119
0.097602 -0.252332 0.014210 44 43 50
0.207087 -0.047987 0.009961 27 37 40
0.003223 0.431197 0.053551 157 165 162
-0.141924 0.214608 -0.000227 119 129 117
-0.167846 0.436481 0.037808 155 159 152
0.219993 -0.129477 0.024854 72 85 94
-0.025237 -0.076257 0.044442 122 144 143
-0.031281 -0.178811 0.010134 139 158 160
-0.108502 -0.080585 0.029626 130 147 148
-0.238396 -0.064672 0.273963 47 58 54
-0.144875 0.443006 0.055296 155 162 156
0.303922 -0.166599 0.010633 125 126 117
-0.090606 -0.048212 0.002449 83 98 93
-0.312767 -0.251782 -0.003493 150 151 142
-0.069076 -0.253596 0.023515 69 72 73
-0.254186 0.217801 0.000272 141 146 134
0.057675 0.348749 0.094909 168 176 175
-0.311633 -0.115339 0.347880 116 155 160
-0.291419 -0.099339 0.334499 90 101 97
-0.188067 0.235937 0.095914 151 164 159
-0.089990 -0.028824 -0.002424 85 100 95
-0.490552 0.021899 0.375385 165 165 161
-0.173172 -0.138322 0.003725 116 132 123
0.146186 -0.078138 0.019105 25 37 39
-0.088610 0.065935 0.004494 30 43 40
0.226119 0.536836 0.002068 119 120 114
-0.098535 0.145870 -0.003409 93 107 98
-0.339880 -0.285794 -0.002896 155 159 152
-0.145328 0.461770 0.098843 170 174 169
0.016275 0.318851 0.002940 137 150 145
0.013860 0.054410 0.003617 106 120 111
0.024717 0.052902 0.007018 69 89 84
-0.259135 -0.126475 0.255587 28 41 38
0.275513 0.020426 0.013681 49 61 67
0.122850 -0.144250 0.019701 30 36 36
-0.201705 0.235588 0.024784 139 153 144
-0.115224 -0.108120 0.012403 119 136 137
-0.419883 -0.039324 0.301051 34 40 42
-0.102161 0.166742 -0.004485 87 100 95
-0.331631 -0.090764 0.370996 129 170 176
-0.186031 0.337653 -0.002311 113 122 115
0.315015 0.075551 0.131369 84 94 101
0.269479 -0.067831 0.017674 46 58 64
0.043305 0.409640 0.042424 170 178 175
0.201621 -0.188064 0.012426 109 112 111
0.222088 -0.103835 0.024319 52 65 74
0.090372 -0.191332 0.011741 118 125 119
0.076051 0.094008 0.014529 99 113 104
-0.338545 -0.084291 0.000088 131 136 126
0.055260 0.257766 0.082467 156 169 166
-0.111490 -0.276059 0.003055 133 141 138
-0.157722 -0.091513 0.006361 111 124 121
-0.325423 -0.237093 -0.002353 144 148 143
-0.209499 -0.018704 0.184554 33 48 43
-0.477424 0.002936 0.367119 228 227 234
-0.380720 0.018578 0.305959 89 95 93
-0.472808 -0.005673 0.361563 156 155 157
-0.253753 0.316821 0.113295 165 178 175
0.158396 0.116336 0.018512 20 30 33
0.144251 -0.064665 0.018383 26 38 40
-0.425134 -0.042053 0.300295 56 55 55
-0.165612 0.451468 0.086738 166 170 165
0.386071 0.302679 0.014900 126 134 123
0.167507 0.376145 0.018256 76 82 82
-0.190361 0.230730 -0.000472 125 134 125
-0.272618 -0.124350 0.279931 86 100 89
-0.269892 -0.229620 0.001739 147 151 144
0.306459 -0.091489 0.105558 68 79 90
0.132312 0.102175 0.016201 21 34 33
0.313860 0.133150 0.101847 66 77 88
-0.391868 0.017100 0.316139 93 96 95
0.220102 0.439871 0.016214 65 69 62
-0.481222 0.015085 0.376515 65 68 71
0.300540 0.547326 0.008028 145 146 140
-0.279112 -0.087279 0.003930 116 128 120
-0.099969 0.182650 -0.004288 104 119 105
-0.163570 0.450516 0.084938 166 170 165
-0.133958 0.128476 -0.004711 111 127 116
-0.171084 -0.023278 0.002766 96 110 99
0.358199 -0.290486 0.016423 55 55 59
0.128905 -0.096249 0.023004 26 36 39
0.239659 -0.151934 0.008900 107 114 108
0.209012 -0.250207 0.010154 119 125 125
0.007659 -0.170721 0.019671 150 172 173
0.320990 0.464360 0.012035 75 76 72
-0.333350 -0.217441 -0.000119 109 113 108
-0.280140 -0.114631 -0.003294 123 132 125
-0.220217 -0.106625 0.251199 21 27 25
-0.296256 -0.245485 -0.002000 149 153 146
-0.078204 -0.131545 0.005661 124 146 147
-0.189279 -0.127043 0.200539 8 14 14
0.211335 0.164179 0.051430 32 44 48
-0.155596 0.150877 -0.001199 110 123 110
0.208261 -0.246661 0.008800 132 133 127
0.235692 0.422996 0.007427 117 119 110
-0.298405 0.347417 0.006456 145 153 142
0.385332 0.179062 0.021553 98 106 105
0.301399 -0.262283 0.012419 130 132 123
0.083554 -0.038183 0.086208 59 80 86
-0.065215 -0.045558 0.006007 81 96 95
-0.164073 -0.150473 0.028503 114 132 130
0.252861 -0.145777 0.120034 79 92 103
0.236386 -0.269995 0.010602 136 132 123
0.280244 -0.148065 0.111313 72 86 92
0.020041 0.089581 0.001128 101 115 106
0.008756 -0.174849 0.022311 153 175 176
-0.169894 0.052502 0.022972 100 112 102
0.253038 0.368642 0.005964 84 85 79
-0.085019 0.234204 0.032543 136 147 143
-0.009646 0.421923 0.033012 153 161 158
-0.195320 -0.002287 0.004504 99 115 104
0.079749 0.003619 0.097730 60 81 87
-0.167689 0.468598 0.105156 172 176 171
-0.077161 0.134472 -0.002618 103 117 106
0.057070 0.419601 0.091806 178 184 182
0.049532 0.200052 0.007768 112 124 114
-0.455220 -0.020812 0.341651 122 128 126
-0.456123 -0.032316 0.284209 172 169 164
-0.307068 0.473231 0.008296 151 152 143
-0.010528 0.303870 0.012944 134 147 142
-0.048564 -0.078917 0.030660 129 151 150
0.173887 0.351029 0.007176 116 120 113
-0.293454 -0.087029 0.003062 54 67 64
0.190114 -0.083946 0.014386 28 40 42
-0.446697 0.005461 0.356507 252 255 251
-0.322875 -0.126472 0.342005 109 145 151
-0.468416 -0.038056 0.329127 40 34 38
-0.106018 0.388798 0.003486 121 132 128
0.344015 0.281202 0.005722 134 134 128
-0.259187 0.305037 0.110173 178 184 182
-0.057622 0.081382 0.003630 93 108 94
-0.415230 -0.013219 0.334597 206 209 210
0.038401 -0.200918 0.008615 86 95 88
0.152223 0.036990 0.016330 25 37 41
-0.244475 0.225147 -0.000040 147 158 154
0.028481 -0.144902 0.040619 150 167 168
0.308266 -0.105138 0.114744 68 84 94
-0.225938 0.210769 0.000786 134 143 134
0.185429 0.205806 0.107528 135 157 160
-0.159584 0.467928 0.103246 173 174 170
0.389894 0.235872 0.016458 124 129 119
0.177364 -0.298493 0.008971 135 136 130
0.263266 0.016298 0.008910 40 52 58
-0.396313 0.130044 0.016831 124 132 129
0.085171 -0.049331 0.081858 58 76 83
-0.194053 -0.089198 0.176119 110 124 113
0.230696 -0.008571 0.005117 30 40 43
0.310623 -0.131848 0.123670 85 96 107
-0.004085 0.149099 0.000354 82 92 95
-0.063895 -0.081690 0.022350 124 143 143
0.202490 0.124563 0.024192 18 30 32
-0.320786 -0.222936 0.002098 94 100 100
0.109901 -0.140633 0.102334 62 84 87
0.171672 -0.070934 0.014836 28 40 42
-0.336473 0.140527 0.014606 154 162 151
0.335558 0.286665 0.008427 137 137 131
-0.332558 0.148180 0.072935 147 135 135
-0.096744 0.134625 -0.003204 103 117 106
-0.397414 -0.000179 0.312764 105 111 111
0.029909 -0.127245 0.028516 86 99 98
0.152738 0.415053 0.005623 116 118 109
-0.292048 0.076029 0.052756 63 70 64
-0.050808 0.414436 0.015532 140 151 147
-0.222959 0.237478 -0.004190 140 148 137
0.129403 0.194464 0.110338 62 80 89
-0.062709 0.231879 0.077844 137 148 144
0.203533 0.105611 0.018968 20 31 31
0.394406 -0.027456 0.014439 91 98 92
-0.349799 -0.011014 0.278896 75 84 75
-0.174588 -0.032218 0.005599 100 112 102
-0.484261 0.007064 0.374723 65 63 72
-0.298158 0.375791 0.003024 93 94 90
-0.083310 -0.122531 0.005860 123 145 144
-0.208372 -0.027255 0.230196 28 36 33
0.069544 0.026670 0.010831 82 94 98
0.303595 -0.283034 0.010051 140 137 132
0.133615 0.191114 0.098864 40 56 64
-0.136343 -0.278320 -0.003147 130 134 127
-0.018012 0.107826 0.002981 67 80 79
-0.192594 -0.153608 0.211230 20 31 29
0.007248 -0.053612 0.007613 47 65 63
-0.063864 -0.083215 0.021360 124 143 143
-0.253177 -0.111969 0.292377 164 182 176
0.268481 -0.289453 0.010766 92 90 99
0.158994 0.206381 0.115978 138 156 152
0.084192 -0.101475 0.021752 86 99 94
0.122328 -0.035152 0.016340 24 36 40
-0.282769 0.277372 0.003659 147 159 151
0.090599 -0.189542 0.011464 116 128 120
0.066154 0.284002 0.119441 162 173 173
0.051709 0.433910 0.093161 177 180 181
0.133147 -0.024465 0.014093 25 37 39
-0.154225 0.235343 0.067752 139 153 144
0.399940 -0.108683 0.017415 109 109 105
0.195872 -0.184073 0.010230 112 117 107
-0.016927 0.232418 0.043562 131 145 136
0.002910 -0.274107 0.009603 89 95 95
0.034745 -0.031039 0.004662 80 93 88
0.182635 0.078563 0.012796 26 36 39
-0.115385 0.036016 0.001271 96 110 99
0.005275 -0.234819 0.009480 96 99 98
-0.027000 -0.044198 0.007934 83 97 88
0.007456 0.081051 0.005228 108 124 115
-0.292378 -0.203166 -0.003641 139 146 140
-0.237102 -0.165915 0.000283 131 143 135
-0.291350 0.235625 -0.002467 145 152 144
0.122139 -0.014343 0.018242 25 37 39
0.247974 0.185852 0.102232 43 59 67
-0.184317 0.235978 0.095924 151 164 159
0.254534 0.050667 0.010411 45 59 63
-0.400447 -0.030649 0.296721 71 77 77
0.184687 -0.146648 0.106064 137 154 159
0.104884 0.294338 0.011012 109 114 104
-0.479752 -0.006586 0.173747 139 140 131
0.168960 0.182769 0.081653 39 51 57
-0.027859 0.101743 0.002000 93 107 96
-0.130064 -0.205118 0.028215 111 125 127
-0.225261 -0.104195 0.259949 22 30 27
0.163046 0.287602 0.007531 110 119 110
-0.163714 0.238337 0.092941 150 165 160
-0.159413 0.433144 0.032511 151 155 150
-0.221832 -0.029563 0.227934 17 25 26
0.008816 0.105021 0.004613 85 100 95
-0.093322 -0.276487 0.005653 68 77 70
0.379766 -0.127128 0.017610 84 83 83
-0.173567 0.020958 -0.002542 92 108 97
-0.061981 0.133201 0.004093 99 115 104
-0.339718 -0.044572 0.000682 127 132 122
-0.011577 0.239386 -0.003514 103 114 110
0.086521 -0.290369 0.009762 94 93 95
0.388248 -0.188373 0.013554 126 126 126
0.345942 0.339196 0.009067 137 138 132
0.197880 -0.020394 0.009436 28 40 44
-0.302871 -0.047745 0.004426 119 131 123
0.130226 -0.013286 0.015708 25 37 39
0.034898 0.009118 0.008729 84 100 91
0.005012 -0.275204 0.006103 121 127 125
-0.344480 -0.205577 -0.000155 166 167 161
-0.137952 0.004462 -0.001476 99 115 104
0.298982 0.185193 0.110857 52 65 74
0.147986 0.130899 0.019737 18 30 32
0.352466 0.334363 0.012290 136 133 130
0.056164 -0.239528 0.007525 114 121 115
0.215095 -0.230374 0.010851 129 130 124
0.294807 0.508481 0.009313 112 113 109
0.239623 0.436014 0.014714 127 128 119
-0.007756 0.236308 -0.002365 86 94 91
0.311771 -0.221808 0.017957 134 131 126
0.182932 -0.215092 0.010569 121 123 114
0.026163 -0.201145 0.009684 83 94 94
-0.496086 -0.003086 0.378488 164 154 152
0.315640 0.097892 0.109146 67 83 91
-0.088330 0.164321 -0.003998 109 123 112
-0.365609 0.075528 0.236388 130 162 169
-0.008969 -0.091067 0.034189 128 150 149
0.012604 0.456015 0.105435 162 166 161
-0.108125 0.382712 0.001143 114 122 119
-0.258598 -0.216532 0.003308 110 116 116
0.060889 -0.246013 0.006658 122 129 121
0.164178 0.165694 0.048096 20 30 33
-0.496230 0.135562 0.166786 164 143 142
-0.480587 -0.028180 0.343503 77 81 76
0.294500 0.028694 0.027532 56 69 80
-0.290862 -0.114416 -0.004071 128 136 135
0.279543 0.468791 0.012503 138 138 138
-0.065146 0.087581 0.003940 91 107 96
-0.187685 0.315103 0.000885 121 130 121
0.399709 -0.226530 0.015768 137 137 131
0.209485 0.075071 0.011625 26 36 39
0.109440 -0.264509 0.008668 130 131 125
0.285689 0.432955 0.019297 127 136 129
-0.388618 0.123995 0.055021 114 131 132
-0.197733 -0.021746 0.028243 19 32 27
0.116767 -0.030257 0.018744 22 36 40
0.180114 0.101632 0.017967 22 34 36
0.139375 -0.295234 0.009252 126 131 121
0.243282 0.017155 0.006662 32 42 45
0.324631 -0.209052 0.013646 132 132 134
-0.220094 0.420075 0.034164 162 166 161
0.394394 -0.199657 0.017513 132 132 126
-0.033806 0.412179 0.015370 137 145 144
0.169951 0.303359 0.002843 107 114 108
0.240856 0.507158 0.009680 90 91 85
0.159009 0.126253 0.020387 20 30 33
0.219804 0.533832 -0.001129 140 141 132
0.255878 -0.080089 0.014631 44 56 62
0.230578 0.457976 0.017657 103 106 105
0.177511 -0.284181 0.009309 137 139 130
-0.069152 0.011967 0.005519 93 106 101
0.088639 0.103089 0.088842 51 70 74
0.138842 -0.269659 0.009977 135 139 132
-0.293933 0.428947 0.009345 153 154 150
-0.143016 -0.286486 -0.002112 127 134 128
0.123626 0.530475 0.003717 140 142 131
0.138869 -0.174140 0.012484 94 101 95
-0.374836 0.064490 0.245278 131 165 171
0.020512 -0.176166 0.034533 155 172 173
0.334795 -0.298360 0.016422 141 138 133
0.180792 0.391905 0.005092 115 119 112
-0.131539 0.357393 -0.000233 106 115 108
-0.124681 -0.261250 0.001834 125 133 132
0.006910 0.442590 0.079709 162 169 163
0.280422 0.517200 0.008868 146 147 138
-0.255934 0.289038 0.094429 167 171 166
0.264695 -0.224351 0.014109 131 132 123
0.372558 -0.279256 0.016077 143 135 134
0.392491 0.023858 0.016644 87 94 88
-0.216754 -0.116591 0.234219 23 34 30
0.233026 -0.139061 0.007893 98 105 99
-0.060012 0.428504 0.030522 153 161 158
0.363020 -0.147751 0.013703 120 120 114
0.239854 0.365889 0.005901 121 123 114
-0.032274 -0.010195 0.001248 75 77 68
-0.068870 0.520556 0.070335 159 159 155
-0.461659 -0.022926 0.244226 161 162 156
0.167242 0.107906 0.018169 21 33 35
0.073092 -0.297921 0.007111 125 127 118
-0.081640 -0.086693 0.020517 122 141 141
0.270540 -0.244109 0.012474 133 133 127
-0.102135 0.332651 -0.004356 133 144 140
-0.106076 0.360109 -0.003358 123 131 128
0.300292 -0.002076 0.047738 55 68 77
0.045766 -0.071452 0.009783 66 81 76
0.311904 0.096890 0.099852 62 78 86
0.195042 0.420884 0.012508 90 91 82
-0.466446 -0.038425 0.327080 35 34 36
-0.102551 0.139242 -0.003605 89 98 91
-0.177945 -0.104269 0.132225 29 35 37
0.050872 -0.075314 0.010041 69 82 77
-0.199089 0.376751 0.007051 112 119 113
0.121482 0.377784 0.005160 112 120 109
0.327014 -0.219634 0.015477 133 130 125
0.232991 0.165000 0.050407 33 45 51
-0.446021 -0.023773 0.336416 120 126 124
-0.146238 0.340661 -0.002185 110 119 112
-0.265412 0.418015 0.118259 189 184 180
0.181267 0.039845 0.014949 29 41 43
-0.292898 0.119102 -0.001862 125 137 129
-0.074061 0.112170 0.002165 82 96 87
-0.298600 0.308621 0.004426 158 160 151
-0.021123 0.393555 0.009124 142 153 149
0.090656 0.230716 0.015593 100 113 112
0.219960 0.121144 0.022701 20 30 33
-0.089581 0.232032 0.080462 139 152 147
0.057416 -0.138848 0.006477 71 79 76
-0.205701 0.234361 0.022999 142 156 147
-0.322630 0.490643 0.013417 82 80 72
0.015828 0.431604 0.053336 157 165 162
0.124712 0.138000 0.022476 21 33 35
-0.355180 -0.136672 0.309927 50 63 58
-0.158189 -0.258928 -0.001965 71 79 80
0.118637 -0.236888 0.010708 129 136 130
-0.251117 -0.086118 0.300249 212 228 217
0.059336 0.169943 0.008420 107 118 114
0.328422 -0.131159 0.018732 99 99 93
-0.158908 0.070112 0.007979 109 122 109
0.137867 0.354583 0.008624 115 123 112
-0.146542 -0.231523 0.002027 131 139 136
-0.025279 0.404208 0.012260 141 149 150
0.078868 0.212966 0.017511 110 123 110
0.183349 0.298845 0.005981 107 111 106
-0.161393 -0.134888 0.192169 25 37 41
-0.145514 0.474787 0.115721 167 170 169
-0.345406 -0.264390 0.004408 175 177 168
-0.492144 0.007518 0.380799 164 158 160
0.126036 0.187408 0.097688 39 55 63
0.317992 0.024102 0.122071 87 99 105
0.272226 0.068609 0.017118 42 56 62
0.357850 -0.137041 0.014088 113 114 103
-0.446472 0.017399 0.342715 174 174 174
-0.069935 0.377906 0.001317 129 142 139
-0.129646 -0.117250 0.024268 117 134 135
0.276925 0.087019 0.022850 50 64 70
0.386935 0.023952 0.016358 83 89 91
-0.086946 -0.191483 0.012661 136 155 155
-0.095460 0.107626 0.002218 100 107 101
-0.177207 0.011458 -0.004168 97 111 102
-0.029827 -0.108596 0.008531 124 146 147
0.171769 -0.230621 0.012456 130 131 125
0.174830 0.286967 0.001457 108 115 107
0.252876 -0.189237 0.009942 119 120 114
0.029872 -0.017736 0.005897 69 89 82
-0.175141 0.001721 -0.000144 99 113 104
-0.080854 0.059767 -0.000159 92 108 99
-0.435632 -0.028534 0.236185 141 145 140
0.177899 0.344716 0.005368 112 119 111
0.144566 -0.261699 0.010979 131 133 124
-0.164977 0.107077 0.002255 116 124 123
-0.285698 0.501520 0.020707 153 153 147
0.228351 0.071155 0.011216 31 41 44
-0.104977 -0.085559 0.027983 130 149 149
0.061528 -0.208220 0.010728 98 109 105
-0.473230 -0.022897 0.344920 104 105 101
-0.085085 -0.122559 0.005944 123 145 144
0.364914 -0.197245 0.014500 133 131 123
0.169240 -0.038787 0.010989 29 41 45
0.280883 0.148805 0.033287 47 60 69
0.176918 0.286990 0.001460 108 115 107
0.113234 -0.130170 0.014321 91 100 93
0.296525 0.326517 0.011546 137 138 132
0.394551 0.098092 0.028035 96 93 88
-0.287417 0.296554 0.007705 146 147 141
0.080919 -0.156436 0.005274 105 112 104
0.067116 -0.102118 0.017875 91 103 95
0.166386 -0.045018 0.012033 28 40 42
0.148191 -0.064275 0.017316 26 38 40
0.001042 -0.146597 0.014874 142 162 159
0.273557 0.182262 0.080765 40 53 62
0.303609 0.034636 0.045824 55 68 77
-0.043805 -0.251396 0.019856 122 121 121
0.173731 0.189261 0.115689 66 86 97
0.136124 -0.251521 0.009031 51 51 55
0.228417 0.348680 0.000969 110 110 110
0.269551 -0.049709 0.015253 44 55 64
0.380607 -0.165614 0.013833 127 125 117
-0.373928 -0.003665 0.294278 90 98 95
-0.197476 0.429938 0.026075 156 160 155
-0.376673 -0.110451 0.357239 134 170 176
0.161857 -0.037149 0.011743 26 38 42
-0.319304 0.229247 -0.004101 144 153 144
0.034960 0.215994 0.004344 109 118 109
-0.286443 0.179786 -0.002431 140 152 142
0.001975 0.376109 0.005027 135 146 144
-0.083272 0.130754 0.000089 106 120 109
0.039687 -0.206118 0.008946 86 95 88
-0.263125 -0.122202 0.281905 86 101 98
-0.302597 -0.094474 -0.002814 57 63 61
0.105455 0.158865 0.058621 17 31 37
-0.003315 0.421909 0.033154 153 161 158
-0.308366 0.132853 0.004995 143 144 138
0.395237 -0.010297 0.016203 96 95 95
-0.193997 0.233136 0.083568 145 157 149
-0.290875 0.082179 0.015842 128 138 126
-0.300249 0.127953 0.006072 131 143 133
0.004366 0.389413 0.008192 142 153 151
-0.311628 -0.089426 -0.001172 124 133 124
0.075566 -0.002472 0.098605 68 89 95
-0.414104 -0.122403 0.280715 48 67 67
0.251720 -0.215296 0.011230 116 125 118
0.031599 0.017004 0.009176 81 97 88
0.131995 0.007934 0.017460 25 37 41
-0.120907 0.056647 0.001496 99 115 104
0.073060 0.400282 0.119585 164 172 169
-0.101820 0.232547 0.099117 142 160 154
-0.318693 0.365919 0.001978 144 149 139
0.032866 -0.196675 0.012666 77 85 82
0.307501 0.474017 0.010244 144 144 138
-0.273054 -0.120657 0.288679 90 103 100
-0.121368 -0.261459 0.003087 118 126 123
-0.230012 0.401718 0.033905 166 170 165
0.194763 -0.256628 0.009338 47 47 49
0.007688 0.315783 0.003553 138 149 145
-0.109468 0.239486 -0.001625 101 115 106
0.042154 0.140461 0.004599 98 114 105
-0.262806 -0.080221 0.010900 112 124 116
-0.250042 0.449767 0.131213 180 180 176
-0.040114 -0.071958 0.037365 132 154 153
0.314831 0.080398 0.107784 67 80 89
0.197566 0.444980 0.012930 119 124 110
0.119113 0.111514 0.018825 19 31 33
-0.219973 -0.212500 -0.000064 66 69 72
0.069228 -0.135497 0.020133 38 40 31
0.075583 0.012438 0.069744 84 103 107
-0.190382 0.354260 0.002810 117 124 118
-0.250635 -0.140144 -0.002963 124 138 129
-0.013405 -0.194960 0.012752 146 163 166
-0.312456 -0.222831 0.001515 143 150 142
0.348867 0.168615 0.086332 102 110 111
-0.141677 0.002463 -0.001557 98 114 103
0.238882 0.061213 0.010068 30 40 43
0.207243 0.011221 0.010608 33 40 44
0.230215 0.098151 0.017095 24 35 35
-0.171504 0.170050 0.000538 123 133 121
-0.340422 -0.282388 -0.004420 156 156 150
0.384080 0.459481 0.012531 118 114 115
0.120802 0.086308 0.017754 21 33 35
-0.482233 -0.010318 0.361560 127 132 141
0.041018 0.352534 0.019670 158 169 167
0.018687 -0.120678 0.036374 145 164 164
-0.155161 0.429089 0.027926 147 154 148
-0.427901 -0.025385 0.326142 112 120 119
0.018830 0.070059 0.001752 91 106 103
-0.210026 0.135662 0.001335 119 129 117
-0.450870 0.034051 0.324277 162 163 157
-0.270377 0.269228 0.001548 149 158 149
0.052058 -0.273660 0.005758 119 123 118
-0.095105 0.000555 -0.001272 91 107 98
0.296811 0.054916 0.032986 55 68 77
-0.285995 0.134578 -0.001925 124 137 124
-0.082680 0.415138 0.014044 140 151 149
0.097479 -0.298275 0.009288 133 134 128
-0.014126 -0.089195 0.034037 131 153 152
-0.047668 -0.027730 0.000301 76 90 81
0.239213 -0.055575 0.009853 31 41 44
-0.030952 -0.208209 0.011025 139 158 160
-0.015833 0.231899 0.051373 133 145 137
-0.309116 0.307924 0.001712 161 163 152
0.119978 0.296068 0.008807 80 79 81
0.307804 0.478642 0.011361 152 150 142
0.322656 -0.270235 0.010782 119 113 115
-0.461433 -0.023630 0.341173 110 114 109
0.376965 0.395605 0.014293 146 146 140
-0.263624 -0.193313 -0.001678 133 142 135
-0.289970 0.108359 0.002108 123 135 125
-0.195821 -0.296103 -0.000407 130 139 132
0.385516 -0.111932 0.015880 106 105 105
-0.001795 -0.026843 0.003594 83 98 93
-0.215631 0.128595 0.002086 116 126 114
0.087775 0.267616 0.013980 40 54 43
-0.212333 -0.154667 0.191129 36 48 50
0.184164 -0.024635 0.010027 30 42 46
0.202141 0.163097 0.049368 33 43 48
0.220925 0.142007 0.028697 21 33 35
-0.375053 -0.115443 0.356285 137 171 177
-0.225542 -0.291418 0.000888 91 90 92
0.259060 -0.008521 0.010275 41 55 61
0.027853 -0.257510 0.006905 116 125 118
-0.475162 -0.028015 0.340682 79 86 80
0.052365 0.074732 0.010111 102 116 107
-0.227187 -0.153331 -0.000459 35 50 45
-0.305676 0.361880 0.004137 147 155 144
-0.220030 -0.092752 0.261601 32 32 28
-0.339922 -0.206485 -0.003913 155 156 150
-0.131906 0.173121 -0.004171 108 120 110
-0.133163 0.474842 0.102143 168 174 172
0.015699 0.425914 0.035102 155 163 160
-0.259006 -0.091380 0.027706 40 58 54
0.079030 -0.184259 0.011094 118 125 119
0.096253 -0.245991 0.015500 55 63 62
0.053776 0.317874 0.081390 162 173 171
-0.272292 -0.086186 0.322022 73 83 86
-0.387325 0.135307 0.027127 121 132 130
0.258026 -0.234333 0.013741 90 90 92
-0.449221 -0.012391 0.348095 192 199 193
-0.086747 0.047649 -0.001183 94 110 99
-0.209783 0.460281 0.110213 175 175 169
-0.119612 -0.028281 0.000991 94 106 98
0.223557 -0.212463 0.014070 56 54 61
-0.395503 -0.124910 0.294209 75 79 72
0.156705 -0.221550 0.009157 122 126 119
-0.006481 0.382242 0.007077 131 142 142
-0.154558 -0.023606 0.003785 99 113 104
0.199107 -0.279794 0.011922 130 134 129
-0.319115 -0.114407 0.360679 122 161 166
-0.215573 0.123099 0.000034 111 124 111
0.158395 -0.204815 0.010422 96 99 98
0.363412 -0.283965 0.015446 142 140 130
-0.444858 -0.093164 0.259805 103 122 126
0.100084 -0.123075 0.020903 77 92 89
0.362757 -0.249565 0.014284 97 91 93
0.068561 -0.287105 0.009586 133 134 130
0.296128 0.386969 0.006871 136 137 133
0.318317 -0.053415 0.126361 82 93 102
0.347814 -0.236452 0.015411 130 131 127
0.122495 -0.182637 0.011553 115 122 114
-0.000313 -0.255414 0.004514 113 122 113
0.155574 0.175968 0.063968 24 36 40
0.331091 0.386370 0.011693 136 134 126
0.242553 0.184405 0.100993 47 61 67
-0.037893 -0.209980 0.011412 139 156 159
0.055039 -0.255858 0.006482 130 134 127
-0.006920 -0.232892 0.025584 145 150 155
-0.200951 -0.086737 0.225681 22 33 29
-0.171947 -0.228441 0.003585 135 144 137
-0.200667 0.448287 0.072074 166 167 163
0.305272 0.020662 0.054508 55 68 79
0.146843 -0.218124 0.008996 122 126 119
0.289155 0.020485 0.023059 52 68 76
0.007361 -0.204225 0.031390 155 172 175
0.329108 0.290122 0.010481 134 135 126
0.393269 -0.138161 0.018200 109 114 104
0.288094 -0.006239 0.029341 53 69 77
0.209484 -0.248441 0.009492 130 134 127
-0.107449 0.233833 0.050310 134 147 142
0.273620 0.164476 0.044457 40 54 58
-0.324862 0.227428 -0.001307 142 151 142
0.285362 0.025758 0.020268 64 78 84
0.004769 0.127325 -0.000424 111 127 118
0.361665 0.357959 0.015256 141 141 135
-0.100747 -0.195183 0.013904 125 144 144
0.045279 0.302686 0.026052 158 169 167
0.377173 0.397886 0.014767 149 146 141
0.131321 -0.040367 0.014812 25 37 41
0.302022 -0.040884 0.067478 57 68 77
0.086872 0.156990 0.093721 59 78 82
-0.052139 -0.179109 0.011372 141 158 159
0.073569 -0.122437 0.012506 103 115 107
0.365947 0.358031 0.015243 141 141 135
-0.460742 -0.028749 0.336913 85 89 84
-0.270548 -0.055172 -0.001295 43 54 50
-0.173710 0.362799 0.002063 114 121 115
-0.231220 0.422179 0.062250 168 169 165
-0.048347 -0.171935 0.010517 138 157 157
0.305193 0.101054 0.061541 52 65 76
0.210088 0.084658 0.013790 26 38 40
-0.208340 -0.197726 0.002573 133 140 134
-0.268233 -0.298783 -0.002394 145 152 144
-0.038510 0.230125 0.084172 137 148 144
0.303732 0.155907 0.085033 58 69 78
0.297909 -0.276601 0.010347 135 132 129
-0.102353 -0.188351 0.013978 127 146 146
-0.285092 -0.232560 -0.000228 144 148 141
0.101531 -0.241549 0.009092 126 132 130
-0.250420 0.165125 -0.004020 126 135 126
0.053508 0.166601 0.006244 108 114 112
0.085514 -0.189434 0.011003 118 127 120
-0.050395 0.432520 0.044778 156 164 161
-0.157472 0.455181 0.091476 169 173 168
0.023343 0.435289 0.061441 159 167 164
-0.142297 0.411619 0.013917 119 126 120
0.187640 0.070481 0.012048 29 39 42
-0.019551 -0.114444 0.009702 124 146 145
0.044864 -0.126213 0.012844 74 85 83
-0.237816 -0.103170 0.275223 25 35 38
-0.318832 -0.083470 0.365012 129 165 171
-0.227564 -0.069190 0.267217 34 42 41
-0.205932 -0.132230 0.214900 8 14 16
0.159419 -0.053441 0.013872 28 40 42
0.167750 0.361218 0.010668 117 122 112
-0.280663 -0.123144 0.308479 58 70 62
0.365171 -0.106501 0.039412 97 104 110
-0.456561 -0.039954 0.324500 41 41 43
0.110718 0.168335 0.064869 19 31 33
0.167155 0.081826 0.014590 25 37 39
0.398287 0.180201 0.019834 98 99 93
0.305394 0.056344 0.055754 54 65 74
-0.211219 -0.219407 0.000584 131 140 133
0.312293 -0.286526 0.011849 133 133 127
0.277890 0.054249 0.016503 52 65 74
0.391199 -0.153613 0.015595 122 122 118
-0.003818 0.405167 0.011491 138 146 145
0.068656 0.092893 0.012385 99 115 104
0.080754 0.075822 0.042310 76 94 88
-0.056593 0.041290 -0.000518 86 100 89
-0.267124 -0.258555 -0.002768 154 155 149
-0.304177 0.374223 0.004931 90 91 87
-0.111947 0.190388 -0.001973 115 129 120
-0.053146 -0.092836 0.016886 118 140 141
-0.371884 -0.076583 0.359025 143 155 157
0.018906 0.442773 0.082681 162 168 166
-0.054614 0.119800 0.004579 98 110 100
-0.211082 0.172981 -0.001253 128 136 123
-0.473073 -0.034464 0.336146 53 59 59
-0.015471 0.231039 0.099632 145 163 157
-0.283859 0.168303 -0.002191 138 145 137
0.031362 -0.217144 0.013065 19 30 28
-0.247178 0.242272 -0.000930 143 150 144
0.126493 0.315716 0.005848 110 117 109
0.223887 0.063356 0.009785 31 41 44
0.117397 0.160725 0.048240 17 29 33
-0.260746 0.400474 0.118172 186 186 180
0.002860 0.095570 0.001829 111 127 116
-0.390549 -0.085799 0.331609 103 108 115
-0.288296 0.112739 0.002046 126 135 126
0.175552 -0.192749 0.010252 117 121 114
-0.084705 0.385258 0.001699 135 146 144
0.040544 0.183993 0.007486 46 59 54
0.146139 -0.261765 0.011368 131 133 124
0.120532 0.515099 0.001564 135 136 130
0.104462 -0.020691 0.028970 29 41 47
0.210716 0.134141 0.026840 21 33 35
-0.299423 0.205588 0.000406 146 156 142
0.313132 0.037564 0.110278 67 83 93
-0.006808 -0.138461 0.011284 132 154 153
0.389348 0.329108 0.013209 138 138 134
0.032050 -0.241381 0.008817 47 54 48
0.083943 0.172859 0.106066 63 79 89
-0.152002 -0.173017 0.035419 116 131 130
0.312740 -0.284878 0.011540 132 132 128
0.106872 -0.024753 0.024504 24 38 40
-0.473350 -0.023925 0.344088 101 102 98
0.293907 -0.087918 0.049000 52 65 74
-0.331493 -0.125240 0.354586 107 141 149
-0.180494 -0.223350 0.003308 132 139 131
0.321947 -0.116999 0.119561 84 93 103
0.260022 0.029245 0.007373 41 55 61
0.211665 0.162961 0.049756 33 43 48
-0.328902 0.478010 0.008719 153 154 143
0.311253 -0.045097 0.119105 77 93 103
0.017753 0.193348 0.002976 111 125 114
0.016372 0.000848 0.004195 96 110 101
0.124121 0.195042 0.109374 60 78 87
0.111704 -0.278841 0.006973 126 128 119
0.335643 -0.231189 0.014227 132 132 126
-0.062095 -0.165271 0.011848 125 147 148
-0.230629 -0.112364 0.257828 18 26 25
0.299488 -0.062236 0.059816 54 67 76
-0.031549 -0.217048 0.012913 141 158 163
-0.467989 0.075846 0.262201 159 150 145
-0.231449 0.345737 0.013351 149 158 151
0.315858 0.161004 0.118642 74 87 98
-0.208221 -0.062716 0.239669 27 35 34
0.198959 -0.211681 0.010449 56 60 55
0.302059 -0.068947 0.068031 55 69 75
0.184033 -0.269894 0.010782 132 133 127
-0.077048 -0.293897 0.004177 121 130 121
0.125656 -0.224429 0.015351 93 97 92
-0.051130 -0.116674 0.004765 116 138 139
-0.052975 0.399909 0.010474 139 150 148
-0.010609 -0.287887 0.005327 126 133 127
-0.119769 0.224032 0.000122 82 95 82
-0.404788 -0.085526 0.147302 118 126 125
-0.151967 -0.179942 0.035887 119 134 131
-0.230565 -0.111397 0.259140 18 26 25
-0.201874 0.218015 0.008338 75 86 82
-0.331494 -0.110846 0.367393 125 164 171
-0.321163 -0.111857 0.363918 126 167 173
-0.381659 0.025463 0.305402 104 110 110
-0.116807 0.469993 0.099178 165 172 166
0.270341 0.088328 0.020146 42 56 62
0.121635 -0.241784 0.010204 128 135 129
0.290919 0.428798 0.014627 136 143 137
0.390328 0.441926 0.017162 152 150 140
-0.148627 -0.170463 0.032105 112 129 130
0.119767 0.480379 0.002341 124 128 123
0.383593 -0.266402 0.016584 134 130 123
-0.001647 -0.189103 0.017100 151 170 172
-0.219229 -0.153301 0.219102 26 34 33
-0.054409 0.056870 0.001911 86 101 87
-0.041775 -0.240141 0.020766 145 159 161
-0.092013 0.186266 -0.002472 78 92 83
0.317504 -0.149979 0.015173 90 90 86
0.178415 -0.143437 0.111926 141 160 164
0.253345 -0.209756 0.009186 104 109 116
0.291194 0.024049 0.024214 52 70 79
-0.313436 0.523159 0.015039 139 135 128
0.197654 -0.151529 0.007271 107 114 108
-0.316188 -0.000631 0.306691 55 58 59
0.215805 0.187221 0.116237 65 78 87
-0.456968 0.006451 0.183249 148 152 147
-0.015126 -0.058373 0.009979 79 94 93
-0.224207 0.399805 0.023563 147 150 149
0.304971 -0.060991 0.085924 63 74 83
-0.283215 0.388554 0.058132 136 136 138
-0.026465 -0.084493 0.036338 136 158 157
-0.172973 -0.154125 0.002684 126 138 130
-0.497862 -0.009344 0.374170 144 144 146
0.385652 -0.076330 0.015754 105 104 104
-0.199925 -0.078503 0.221228 24 32 29
0.296478 -0.077750 0.051509 53 64 73
0.251430 0.391583 0.006871 123 126 125
0.074019 0.268656 0.121558 152 160 159
-0.307660 0.323541 0.004355 149 151 142
0.306625 0.009953 0.069591 62 75 84
-0.060330 -0.165180 0.011494 123 145 146
0.309626 -0.090747 0.118065 76 89 98
0.108434 -0.168472 0.010831 111 118 110
-0.178609 -0.235036 0.003244 134 143 136
-0.499197 -0.002675 0.197182 156 153 150
0.231119 -0.071278 0.010831 30 40 43
0.152527 -0.251876 0.010915 50 53 54
0.091234 0.281133 0.012071 111 117 115
-0.078834 0.443239 0.068370 162 169 163
0.186492 -0.083958 0.014392 28 40 42
0.034911 -0.196274 0.010874 80 92 84
0.211045 0.145253 0.030624 19 31 33
0.194658 -0.016442 0.009436 25 37 41
-0.044771 0.419778 0.022112 144 157 152
0.000343 0.011576 0.002488 102 115 110
0.202850 0.153369 0.035672 21 29 30
