ply
format ascii 1.0
element vertex 1210
property float x
property float y
property float z
property uchar red
property uchar green
property uchar blue
end_header
0.224846 0.353214 -0.027348 135 137 128
0.228415 0.146480 0.005175 34 44 51
-0.246642 0.201009 0.082644 147 156 147
0.146933 0.134692 -0.016035 52 59 65
0.233595 -0.251115 -0.031068 122 127 117
-0.183812 -0.116042 -0.035050 42 46 41
-0.090505 -0.301707 -0.041553 121 125 120
-0.172576 0.442885 0.087714 141 139 129
0.342570 0.368373 -0.022042 139 147 136
-0.353579 0.204195 -0.060438 115 115 109
-0.098167 0.328219 -0.050960 122 134 124
0.233959 0.062376 -0.016868 59 69 76
0.192902 -0.220519 -0.031172 126 127 116
0.141668 -0.193791 -0.031164 106 110 105
-0.300484 -0.194734 -0.046645 88 88 82
-0.346876 -0.036159 -0.028929 29 24 20
0.336638 0.017849 -0.033806 135 137 128
0.387136 0.162376 -0.017734 140 145 133
-0.306611 0.399178 -0.052078 125 127 116
0.111413 -0.064743 -0.024060 49 63 69
0.061959 -0.268183 -0.038081 117 121 114
-0.221695 0.211218 0.020221 126 131 121
-0.069666 0.221363 -0.011299 120 128 117
-0.194348 -0.179763 -0.047061 190 190 190
0.259041 0.347861 -0.023393 135 137 128
-0.203122 -0.101764 -0.035509 88 84 75
-0.237353 0.435383 0.099622 143 145 136
-0.144105 0.451992 -0.026491 135 140 130
-0.160433 0.452654 0.062953 133 138 128
-0.315915 -0.183974 -0.047325 101 103 94
-0.319457 0.138267 -0.045541 22 12 0
-0.230372 -0.291063 -0.048446 125 126 117
-0.308893 -0.333706 -0.053690 115 116 110
0.090142 -0.236184 -0.037027 117 122 112
0.231764 -0.209245 -0.029754 122 129 121
-0.079523 0.206989 -0.038349 101 103 90
-0.211184 0.455077 -0.016961 136 137 131
-0.176620 0.183945 -0.046446 114 124 112
-0.192087 0.208975 0.071326 146 155 146
0.330493 -0.011204 -0.035032 141 142 131
-0.010373 -0.136303 -0.037056 117 125 114
-0.306137 -0.237486 -0.050024 12 12 8
-0.356346 -0.086245 0.323633 44 45 41
0.028766 -0.187991 -0.034278 115 117 106
-0.288931 -0.333879 -0.048559 125 120 116
-0.077446 0.204652 0.070193 138 145 137
0.342680 0.179564 -0.026670 66 66 62
-0.088708 0.223245 -0.033919 121 126 116
-0.233884 0.003324 -0.046857 109 110 99
0.320805 0.387687 -0.020063 137 142 130
0.342358 0.509828 -0.020172 147 148 137
0.151930 -0.253447 -0.031316 119 123 116
-0.334909 -0.208320 -0.033436 79 83 76
0.253068 -0.066177 -0.007698 50 57 65
-0.251921 0.459057 0.079597 149 147 137
-0.289101 -0.194949 0.184831 10 13 12
-0.267583 -0.302094 -0.048872 37 38 32
-0.277008 0.454269 0.075478 140 145 133
0.039807 0.145262 0.035986 22 32 37
0.092988 -0.203749 -0.033117 5 0 0
0.267060 -0.051747 0.114979 85 92 98
0.239922 0.102721 -0.014111 62 67 76
-0.163109 -0.012722 -0.024075 112 130 126
-0.317267 0.037724 -0.047852 108 113 101
-0.349685 -0.248657 -0.030853 113 109 110
-0.237154 -0.038347 -0.025953 146 164 158
0.330604 0.156145 -0.040611 134 142 139
0.251080 0.141846 0.029476 39 51 55
-0.254056 -0.141430 -0.026145 113 126 123
-0.143467 0.059409 -0.040044 117 119 108
-0.304293 -0.185571 0.116769 13 19 19
0.176170 0.328716 -0.022934 138 140 131
0.084498 -0.252648 -0.035487 117 118 112
0.141404 -0.270050 -0.031465 6 7 1
-0.311112 -0.184238 0.361034 96 118 119
0.322418 0.519024 -0.019818 134 139 129
-0.175143 0.169566 -0.045223 113 118 104
0.089059 -0.100207 -0.025989 54 66 72
0.100149 -0.058115 -0.023483 55 69 73
-0.346458 -0.075234 0.312708 78 95 96
0.375395 0.260486 -0.021529 119 117 109
0.200313 0.454063 -0.030584 140 143 127
0.038330 0.506509 -0.043302 130 132 121
0.227264 -0.209832 -0.030924 126 130 123
-0.299583 -0.228244 -0.049895 99 104 94
-0.069735 -0.229831 -0.041229 116 118 107
-0.282937 -0.201078 0.221581 9 15 13
0.157795 0.356076 -0.024258 129 134 122
0.175621 -0.042847 -0.020257 52 64 70
-0.117435 0.067203 -0.036628 110 115 103
-0.173211 0.121315 -0.043106 104 112 101
0.189461 -0.102158 -0.019744 45 64 68
0.224533 0.045195 -0.018012 59 72 81
0.395761 0.087413 -0.017619 147 149 140
-0.275588 0.213141 -0.002044 125 133 122
0.115978 0.107380 -0.024579 53 60 66
0.039564 0.137234 0.017703 22 30 31
0.271265 0.500111 -0.022033 133 134 121
0.103924 -0.177168 0.097841 170 190 185
-0.344443 0.339099 0.013213 145 143 135
-0.036791 -0.114931 -0.022361 68 75 69
-0.286311 -0.115578 -0.046754 105 109 102
0.178686 0.149483 0.011246 29 36 40
0.269800 0.449035 -0.024795 138 140 127
-0.099641 0.460128 -0.002537 134 142 131
-0.038589 0.208581 -0.037783 102 107 95
-0.339439 -0.345754 -0.057533 112 114 105
-0.229610 0.435882 0.100997 145 147 138
0.163670 0.163854 0.107816 67 79 81
0.259569 0.082714 -0.002364 43 45 55
0.230281 -0.170607 0.095395 69 83 89
-0.254212 0.049937 -0.046050 103 116 103
0.128639 0.060771 -0.024930 51 61 64
-0.155687 -0.032050 -0.037810 123 136 131
-0.299820 -0.215166 0.298520 37 45 34
-0.197359 0.511372 0.031168 146 148 137
0.231871 0.072592 -0.018261 60 70 77
0.092782 -0.202165 -0.033302 98 99 95
0.138602 0.159678 0.057400 27 37 42
0.271432 -0.172419 -0.028967 100 109 100
0.174325 0.394538 -0.028388 129 134 124
-0.301481 -0.148913 0.161123 10 19 12
-0.332085 -0.147258 -0.047667 102 107 97
-0.116050 -0.201804 -0.027245 115 119 112
0.390532 0.030375 -0.024098 141 141 135
0.174668 -0.207633 -0.026555 29 29 31
-0.085066 0.062467 -0.034578 110 118 105
0.264471 0.047296 0.113968 74 88 94
0.043051 0.046559 -0.023309 25 37 39
-0.031602 -0.115760 -0.022096 55 64 55
-0.139874 -0.054844 -0.043870 136 149 146
-0.183419 0.140328 -0.041356 111 119 106
-0.250783 0.037974 -0.045699 112 117 105
0.396142 0.105894 -0.018084 136 141 129
0.359477 0.436806 -0.024060 140 142 131
0.272725 -0.197450 -0.028904 121 123 114
-0.137310 0.466990 0.073521 148 157 148
0.120236 -0.247884 -0.035339 107 119 109
-0.201281 0.217919 -0.024776 122 127 115
0.195786 0.030995 -0.021038 51 63 69
-0.231053 0.342909 -0.055078 113 113 107
-0.315865 -0.213676 0.354496 77 101 103
0.345395 -0.028016 -0.026195 140 141 130
-0.365760 -0.044419 0.342122 98 126 130
0.089797 0.006538 -0.022413 57 67 74
0.193790 0.151725 0.016612 26 39 38
-0.182607 -0.066557 -0.045032 129 142 137
0.391109 0.309674 -0.015105 144 145 132
-0.329265 -0.164003 0.343764 106 125 127
0.016046 -0.011031 0.099896 87 99 103
-0.326575 -0.198383 -0.006708 111 112 106
0.376848 0.157457 -0.020595 145 146 140
0.116106 -0.020559 -0.022188 56 68 74
-0.180425 0.143657 -0.042059 110 115 103
0.271490 -0.138824 0.109224 82 89 97
-0.122217 0.502386 0.041121 142 150 139
-0.261483 -0.162930 -0.048934 110 115 103
0.179285 -0.061638 -0.021172 52 64 70
-0.318776 -0.229594 0.323923 30 37 29
0.121282 0.543723 -0.032890 146 148 135
-0.193321 -0.142884 -0.049444 116 131 128
0.329212 -0.149478 -0.027084 136 138 127
-0.356153 0.355197 0.073164 138 150 142
0.143871 -0.019097 -0.021522 53 64 73
0.216657 -0.088917 -0.018097 56 69 78
-0.126267 -0.285243 -0.045028 117 122 112
0.370965 0.291867 -0.020342 137 138 129
0.235717 -0.050637 -0.016429 66 80 84
0.347429 0.515782 -0.022299 143 145 132
-0.091655 0.058773 -0.034074 111 121 105
-0.150464 -0.187502 -0.043821 145 153 152
0.390039 0.503550 -0.019415 106 102 93
-0.278119 -0.141990 -0.048176 115 117 108
0.213545 -0.093020 -0.017899 59 69 76
0.266436 0.090920 0.119092 76 93 98
0.210642 0.128176 -0.014638 65 77 83
-0.257275 0.513975 0.028229 139 141 132
0.266786 -0.071838 0.042939 45 57 63
-0.208923 -0.112654 -0.038212 118 130 122
0.023795 -0.019753 0.099494 71 85 89
0.318502 0.373051 -0.018493 115 116 105
0.374904 -0.139899 -0.025526 143 141 133
-0.216138 0.396978 -0.053499 112 116 109
-0.298254 -0.205994 0.317182 41 50 41
-0.171440 0.212916 0.014437 129 131 122
-0.262831 -0.269334 -0.048664 116 126 114
0.358800 0.013244 -0.025370 143 144 135
0.273795 -0.238192 -0.030744 119 126 118
-0.202343 0.444202 0.094750 147 149 140
-0.073979 0.415331 -0.048416 151 158 150
-0.255547 -0.205146 -0.044665 116 117 106
0.358891 0.235722 -0.024700 141 142 133
0.381143 0.423939 -0.025146 115 120 110
-0.293167 -0.265249 -0.049800 102 104 93
-0.287487 -0.026800 -0.043923 115 119 112
-0.284901 -0.184989 0.273323 114 119 109
-0.138553 0.437662 -0.049783 133 140 132
0.086381 -0.033675 -0.022611 56 68 74
0.310558 0.498341 -0.028716 141 146 132
-0.114899 -0.079123 -0.045281 135 148 145
-0.311136 -0.226585 0.288405 30 37 31
0.016974 0.220291 -0.005445 80 95 94
-0.136655 -0.305898 -0.047988 130 130 126
-0.340074 0.393309 0.057831 147 145 137
0.268306 -0.163001 0.098748 76 86 93
0.003724 -0.177439 -0.029875 4 9 0
0.247360 -0.019771 -0.015276 54 63 73
-0.005083 -0.164483 -0.035264 112 114 103
0.126269 -0.106911 -0.020735 51 65 71
-0.184940 -0.123788 -0.049121 115 126 122
-0.323893 0.416429 -0.029440 140 141 130
0.201952 -0.210945 -0.032525 126 124 116
0.030057 0.004609 0.062444 44 54 59
0.382224 -0.227149 -0.028081 95 95 91
-0.180602 -0.245278 -0.047981 115 116 107
0.184554 -0.010333 -0.018726 51 63 69
0.091765 0.409754 -0.034485 131 133 122
0.263558 -0.019623 0.103504 56 61 68
-0.369098 0.104337 -0.070134 13 14 10
0.172085 -0.057548 -0.021471 52 64 70
0.193220 0.426179 -0.028820 138 146 133
-0.104098 0.219735 -0.016633 121 131 117
0.017180 -0.137916 0.101635 75 87 93
-0.164924 0.095164 -0.040084 64 66 57
-0.289255 -0.164028 0.181654 7 11 6
-0.119908 0.165901 -0.034921 112 117 105
0.011276 0.100374 -0.048658 119 128 121
0.246620 0.164201 0.116450 70 89 91
-0.221987 -0.046569 -0.034910 113 126 123
0.154031 -0.192086 -0.028685 109 111 100
0.131607 0.030652 -0.022912 50 67 70
0.350263 -0.006991 -0.025788 137 139 130
-0.086013 -0.091304 -0.041435 143 154 150
0.031726 -0.118732 0.048465 40 50 55
-0.088280 0.034044 -0.036320 111 119 106
-0.299544 -0.176210 0.318825 55 56 50
-0.046165 0.071138 -0.035741 113 118 108
-0.223478 -0.118495 -0.044721 103 111 108
0.218573 0.289850 -0.035094 132 140 129
-0.097433 -0.078955 -0.041524 138 151 146
-0.105614 0.013186 -0.042072 92 102 90
-0.147647 0.109768 -0.040279 108 116 103
0.128462 0.461924 -0.030379 68 65 62
-0.331525 0.270606 0.070433 138 139 130
-0.327926 0.436215 0.059269 139 135 126
0.344304 -0.112658 -0.024529 86 83 78
0.145518 -0.170200 0.111230 123 141 139
-0.341086 -0.004244 -0.051624 13 18 8
-0.258309 0.000229 -0.046635 113 118 108
0.152911 0.108233 -0.023567 46 56 63
-0.187540 0.156814 -0.043833 110 115 105
-0.271909 -0.311869 -0.048410 116 121 111
-0.014121 0.131529 -0.032560 113 121 108
0.270083 -0.167431 -0.030932 97 107 95
0.013099 -0.182859 -0.033852 111 120 111
-0.298311 0.199014 -0.045729 98 106 93
-0.286142 0.117076 -0.043251 109 110 99
0.240747 0.286788 -0.034107 80 85 75
-0.171831 -0.128215 -0.049554 127 135 134
-0.199216 -0.205370 -0.029228 143 149 147
0.028752 0.452589 -0.050157 123 128 114
-0.170900 -0.156347 -0.048160 128 141 136
0.030059 -0.165365 -0.038693 103 107 100
0.221481 0.298327 -0.025159 135 140 126
-0.134641 -0.046976 -0.042128 136 149 144
0.058615 -0.267410 -0.037228 122 124 115
0.327302 0.539839 -0.022307 140 142 131
-0.190232 0.201081 0.070430 134 141 133
0.233368 0.079079 -0.018554 60 70 75
-0.122681 0.016793 -0.040145 119 124 112
0.379120 0.415733 -0.025437 144 146 135
-0.191745 0.383870 -0.050824 117 125 114
0.122068 0.160951 0.119797 161 181 178
-0.037788 0.166498 -0.025446 26 27 18
-0.026742 0.034870 -0.032832 114 122 111
0.096934 0.340331 -0.032008 127 137 123
-0.235105 -0.150663 -0.039303 126 138 130
0.002419 -0.019710 -0.028595 77 77 71
-0.056993 -0.021673 -0.038416 117 125 112
0.049728 -0.225513 -0.033657 119 121 112
0.256062 0.509234 -0.023532 144 145 139
0.340257 0.465766 -0.024953 87 85 77
-0.238310 0.440820 -0.030020 131 133 124
0.106539 -0.209472 -0.031683 27 28 24
-0.279696 -0.280142 -0.048275 31 31 27
0.124127 0.017427 -0.022808 54 66 72
0.145813 -0.267820 -0.031427 116 121 109
-0.013990 0.318850 -0.023853 142 151 144
0.257847 -0.000706 -0.006602 43 54 63
-0.210735 0.421145 -0.047643 125 133 122
0.213969 -0.161103 -0.039440 2 2 2
-0.302295 0.094334 -0.044195 51 55 48
0.089574 0.161216 0.061398 29 36 40
0.079332 0.104897 -0.026369 52 62 69
-0.200474 -0.057892 -0.042725 212 220 209
-0.006712 0.414125 0.072010 155 162 154
-0.152350 -0.212315 -0.031142 114 115 111
-0.361058 -0.017487 0.326797 111 124 123
-0.338672 0.357636 0.093204 141 142 131
-0.314594 -0.210487 0.353183 78 102 104
-0.005745 -0.051083 -0.033849 113 123 111
0.066104 0.026736 -0.026098 50 64 70
-0.173862 0.460299 -0.003982 135 140 130
-0.303394 -0.212965 0.221493 8 11 10
0.127893 -0.045740 -0.022738 56 68 74
-0.303219 -0.224769 0.152151 4 7 6
-0.372766 0.123932 -0.066447 18 19 15
0.121896 -0.024997 -0.022234 54 66 72
0.174377 0.147310 -0.001480 28 33 40
-0.287687 -0.218538 -0.047503 108 109 100
0.022428 -0.283949 -0.038224 133 134 128
-0.171655 -0.041308 -0.045982 131 142 138
-0.141518 0.346586 -0.050272 124 131 123
0.258687 0.046553 -0.005592 41 51 54
-0.082419 0.040852 -0.035359 112 117 107
0.270810 -0.135008 0.110975 86 91 98
-0.248133 -0.269959 -0.047792 122 123 119
-0.083935 0.092961 -0.032333 101 109 96
0.129081 -0.165369 0.103807 79 96 101
-0.086900 0.403304 -0.047668 150 154 147
-0.101639 -0.162983 -0.039215 141 154 151
-0.290469 0.158036 -0.045048 105 113 100
0.010803 -0.187800 -0.035285 123 128 114
-0.088155 0.190920 -0.038084 102 103 90
-0.310466 -0.222463 0.316484 38 39 33
0.036921 -0.147986 -0.036455 0 1 0
0.105545 0.039706 -0.024082 56 68 70
-0.320706 -0.170896 -0.048424 98 99 93
0.142351 0.030825 -0.022846 53 63 70
0.154522 0.055635 -0.024162 50 60 67
-0.328862 -0.119341 0.130856 49 54 44
0.106911 0.337364 -0.028470 41 48 42
0.014987 -0.149113 0.097332 90 102 106
0.149838 0.524822 -0.033752 42 37 33
0.156589 -0.176197 0.109038 159 174 173
-0.034782 -0.018383 -0.031231 116 125 118
0.180993 0.155691 0.030497 29 34 39
-0.196896 -0.160578 -0.050373 134 142 139
-0.232833 -0.186473 -0.031456 138 141 140
-0.206678 0.456979 0.017038 134 139 127
0.215179 0.514195 -0.027175 124 126 115
-0.056677 0.188459 -0.034339 103 108 94
-0.366211 0.195100 -0.068810 10 11 7
-0.038317 -0.218477 -0.038277 119 121 110
-0.300606 -0.173979 0.311353 56 60 53
-0.258366 0.007452 -0.044988 117 119 108
0.130585 -0.177172 0.094579 150 164 166
-0.220571 0.436984 -0.039599 126 131 121
0.031870 0.527844 -0.033106 137 138 125
-0.002408 0.127404 -0.028604 27 24 21
-0.028400 0.095961 -0.035946 100 113 98
-0.310044 -0.218920 0.212859 6 9 8
-0.014294 -0.151012 -0.035722 104 112 101
-0.335368 -0.232832 0.289089 23 27 20
-0.312099 -0.219390 0.333057 80 105 112
-0.066560 -0.303839 -0.038180 129 131 122
0.109523 0.394030 -0.029961 37 38 29
-0.152118 -0.062443 -0.044972 133 144 142
-0.150737 -0.276111 -0.044509 125 123 115
-0.337730 -0.036447 0.322092 91 119 123
0.036349 0.121841 0.017584 25 35 40
0.135973 -0.146996 -0.040495 55 58 57
-0.226864 0.101191 -0.043303 105 110 98
0.108157 0.389499 -0.031349 102 107 97
-0.119615 0.220010 -0.028844 123 127 120
-0.048756 -0.161471 -0.039340 105 112 104
0.097756 -0.102088 -0.025822 57 67 72
-0.285062 0.048867 -0.044377 110 112 99
0.353266 0.023462 -0.025137 142 144 135
-0.228176 -0.197658 -0.053470 111 112 106
-0.207850 -0.244415 -0.045727 115 123 112
0.215561 0.338713 -0.027801 117 122 112
-0.335314 -0.182007 -0.049081 114 116 107
0.296972 -0.176324 -0.026328 112 113 104
0.390427 -0.126292 -0.022536 111 118 112
-0.364178 -0.076835 0.332567 54 52 44
-0.161180 -0.031272 -0.037717 120 135 132
-0.022130 0.144760 -0.031817 111 120 111
0.189665 -0.105694 -0.019233 48 58 63
-0.362406 0.006609 -0.057715 3 4 0
0.170143 -0.233849 -0.030365 114 121 115
-0.369874 0.369675 0.049825 138 149 145
-0.021154 -0.111539 -0.008011 11 10 10
0.066817 -0.190555 -0.034974 102 103 97
0.345953 0.291769 -0.017657 62 57 55
0.397652 0.272095 -0.017411 140 142 131
-0.044514 0.014474 -0.035254 120 128 117
0.188613 0.151355 0.015346 25 37 41
0.091092 0.162489 0.082558 32 42 45
-0.215537 -0.200590 -0.052368 101 106 96
-0.292379 -0.205240 0.298775 46 48 39
0.034057 0.288613 -0.032565 116 121 109
-0.311166 -0.238626 0.152346 1 1 1
0.153020 -0.121595 -0.011547 60 67 75
-0.071634 0.454536 0.058598 143 145 136
-0.249139 0.321430 -0.060024 109 118 109
-0.277657 -0.249839 -0.049927 117 119 110
0.191531 0.158949 0.066923 31 38 44
-0.142596 -0.289363 -0.046580 118 126 115
-0.118417 -0.223406 -0.045740 97 105 94
-0.347794 -0.089575 0.309745 21 25 20
0.373508 0.068857 -0.021799 92 92 86
0.023126 -0.173774 -0.036651 116 121 111
-0.097567 -0.279416 -0.040613 75 80 70
0.261766 -0.124541 0.029991 40 50 55
-0.295621 -0.202799 0.223015 10 14 9
-0.051996 0.034224 -0.033854 113 121 110
0.043911 -0.281579 -0.038906 114 119 109
0.363937 0.027406 -0.024976 143 145 134
0.166741 -0.115753 -0.017005 54 67 76
-0.102887 0.205275 0.073543 139 145 143
0.021791 0.205472 0.037822 83 94 94
0.018887 0.147293 0.106213 83 97 99
-0.306353 -0.197309 -0.047316 64 68 61
-0.087230 0.064022 -0.034448 112 120 109
-0.131983 0.351265 -0.050018 114 123 116
-0.290411 -0.145518 0.154884 1 1 1
-0.221155 -0.077299 -0.041815 118 129 125
0.262316 0.105750 0.009259 41 51 56
-0.066591 0.007442 -0.029670 33 31 21
0.168293 0.169639 0.122094 155 173 171
0.263075 0.137386 0.120414 75 82 90
0.387765 -0.202356 -0.025547 133 141 130
0.113752 0.524965 -0.030745 113 111 101
0.024189 -0.081082 0.101217 66 80 84
0.162356 0.529067 -0.031868 143 144 133
-0.084225 -0.164759 -0.027504 141 154 149
-0.291435 -0.061115 -0.046592 106 114 101
0.125318 0.121008 -0.022704 51 61 68
-0.006381 -0.241334 -0.035717 128 129 123
0.308191 0.306462 -0.019577 32 37 27
-0.291343 -0.118595 0.172321 15 15 15
0.204512 0.290105 -0.011837 66 70 65
-0.044200 -0.257998 -0.039952 123 127 120
0.257585 0.139459 0.078657 40 50 55
-0.194422 -0.193434 -0.039906 134 142 139
0.209534 -0.159647 -0.035102 51 55 50
-0.296154 -0.207231 0.180831 5 14 7
-0.323671 -0.327471 -0.053928 110 108 100
-0.307690 -0.223107 0.305165 37 38 34
-0.231004 -0.209840 -0.053178 109 110 104
-0.302433 0.089183 -0.042901 69 74 64
0.033793 0.516531 -0.036313 131 136 122
-0.266136 -0.241254 -0.050487 119 128 119
-0.274191 0.380701 -0.053920 115 120 108
0.226860 0.100936 -0.020050 58 72 76
-0.181468 -0.193765 -0.041956 139 150 146
0.008049 -0.241383 -0.038094 120 124 119
0.003157 0.258019 0.100940 157 167 155
0.209379 0.005300 -0.017353 57 71 75
-0.159252 -0.180191 -0.046084 135 150 147
-0.171822 -0.177177 -0.047253 137 148 146
-0.351199 -0.100613 -0.038415 93 94 90
-0.307332 -0.196627 0.225125 84 87 86
-0.184105 0.175082 -0.042496 114 124 110
0.107311 -0.174770 -0.036299 80 84 79
-0.322194 -0.094158 -0.044825 101 109 98
-0.135895 -0.225892 -0.048785 106 111 101
-0.315452 0.442634 0.040222 139 137 129
-0.243873 0.448422 -0.018436 131 132 126
0.093025 0.039385 -0.024587 52 66 72
-0.239601 -0.188566 -0.045882 100 109 100
-0.087208 0.370924 -0.051430 131 141 127
0.066812 -0.231528 -0.034750 119 121 112
0.183998 0.427331 -0.026269 134 142 129
0.392425 0.131619 -0.017441 144 146 135
0.140520 -0.164856 0.104368 72 89 94
0.264051 -0.189719 -0.028345 119 120 111
0.004658 -0.198584 -0.035343 3 7 2
-0.322288 -0.208478 -0.047733 105 105 99
-0.106929 -0.255051 -0.041878 119 124 112
-0.280526 -0.008067 -0.042992 107 112 100
-0.105600 0.451708 -0.022228 134 141 133
-0.349653 -0.048837 0.330998 93 116 121
0.141906 -0.092834 -0.023096 54 64 71
-0.307985 -0.089711 -0.044321 104 111 103
0.333887 -0.080508 -0.030393 55 52 47
-0.018655 0.071790 -0.034002 113 122 113
-0.220112 0.126370 -0.042443 108 113 103
-0.040260 -0.170360 -0.037681 110 111 107
0.128929 0.142872 -0.014436 40 54 60
0.224674 0.080308 -0.020605 59 69 76
0.373093 -0.175567 -0.025047 140 142 133
-0.330027 0.422907 -0.011173 141 142 133
0.035922 0.090373 0.014536 31 43 45
-0.286229 0.026971 -0.046634 107 113 96
0.204814 -0.158502 -0.036668 71 78 70
0.014999 -0.165893 -0.034672 120 125 115
0.254922 0.301589 -0.029723 135 143 130
-0.295188 -0.226227 0.131267 0 1 0
-0.052154 -0.243752 -0.041615 123 133 121
0.331979 0.207203 -0.036309 136 141 131
-0.302972 0.194067 -0.046973 17 22 10
-0.126861 0.060056 -0.034682 114 119 107
-0.320492 -0.273340 -0.049608 105 106 102
-0.314442 -0.311681 -0.050055 103 101 93
0.048859 0.162226 0.109179 53 69 77
0.363155 -0.142130 -0.025107 140 142 131
0.132435 -0.223544 -0.031359 118 118 112
-0.186081 -0.162465 -0.048726 129 142 137
-0.226212 -0.108620 -0.043729 95 108 103
-0.069357 -0.104049 -0.026491 134 138 131
-0.295515 -0.224144 0.137681 1 1 1
0.324667 -0.202134 -0.029172 140 140 134
-0.228452 0.193826 0.085757 140 152 142
-0.329179 -0.215469 -0.021706 67 65 57
-0.288678 -0.199004 0.230279 8 14 12
0.059601 -0.196821 -0.034325 106 111 101
0.051787 -0.034207 -0.024385 43 53 58
0.259679 0.288178 -0.029953 133 135 124
-0.294924 -0.207756 0.219063 5 11 9
-0.176441 -0.017200 -0.028629 118 129 125
-0.142296 -0.149527 -0.047178 132 145 142
-0.017220 -0.258263 -0.037143 121 128 120
-0.117666 -0.035898 -0.037861 128 140 132
-0.027999 0.073092 -0.036259 114 124 112
0.266128 0.098192 0.119431 85 97 101
0.192482 0.028540 -0.021380 52 62 67
0.189462 0.420062 -0.029050 78 78 72
0.350825 0.170186 -0.022340 66 59 49
0.072436 0.479907 -0.043359 132 140 125
-0.099738 0.211706 0.035227 123 133 121
-0.294424 0.213217 -0.014374 123 125 114
-0.266000 0.364701 -0.055419 112 112 106
-0.178448 -0.193058 -0.042498 141 149 146
-0.088690 0.460975 0.022684 135 143 132
0.042319 -0.208998 -0.036586 111 120 113
0.245095 -0.148490 -0.040911 27 30 29
-0.023798 0.190792 -0.037600 111 119 106
-0.113844 -0.141276 -0.045298 128 136 133
0.270587 0.012785 0.029946 49 56 60
-0.222831 -0.198522 -0.052755 99 106 98
0.006903 -0.128607 -0.040413 117 127 113
-0.096914 -0.097570 -0.050095 140 149 142
0.124105 0.086908 -0.026059 44 56 60
-0.219872 -0.132576 -0.048187 117 130 125
-0.211517 0.457744 -0.005064 134 139 129
-0.185254 -0.218598 -0.049740 102 107 97
-0.344324 -0.348196 -0.056503 116 116 110
0.028892 -0.242832 -0.035076 116 116 110
0.151646 0.357993 -0.025231 125 133 122
-0.042041 -0.260628 -0.040102 122 127 117
-0.056374 -0.187611 -0.039838 111 113 104
-0.222026 0.367465 -0.052838 116 121 109
-0.296421 -0.331937 -0.050912 123 114 109
-0.327535 -0.135821 -0.047534 102 103 97
0.097561 -0.170289 0.105547 161 179 177
-0.251580 0.015162 -0.045495 107 109 98
0.249353 0.547801 -0.029167 147 152 142
0.237752 0.334480 -0.025500 93 88 84
-0.345149 0.363690 0.000731 146 144 136
-0.310588 -0.228275 0.158548 29 36 28
-0.046944 -0.106620 -0.016691 160 161 155
-0.024698 0.449214 0.025188 147 154 146
0.332633 0.213174 -0.038567 140 145 135
0.010666 -0.035598 -0.031873 50 57 61
0.258919 0.092327 -0.001725 37 46 56
0.255707 -0.161702 0.101632 65 77 83
0.175732 -0.171868 0.111498 167 186 186
0.302987 -0.096428 0.037850 97 107 110
-0.214545 -0.322120 -0.050132 20 16 19
-0.000859 0.265806 -0.032289 89 102 87
-0.290771 -0.338340 -0.049960 117 118 109
0.161877 -0.073361 -0.022667 53 65 71
0.075914 0.381524 -0.034076 14 14 10
0.144482 0.346113 -0.025301 132 139 131
-0.299233 -0.207834 0.169380 10 13 12
-0.075306 -0.240351 -0.040596 56 53 48
0.046649 0.535898 -0.034564 73 86 71
-0.287521 -0.159602 -0.047835 102 107 97
0.242484 -0.055187 -0.014978 62 69 75
-0.178631 0.452825 0.066367 133 134 123
0.032718 -0.182265 -0.034854 106 107 98
-0.286204 0.215468 -0.038011 121 126 116
0.107820 0.004384 -0.022429 52 65 74
0.237267 0.160291 0.097130 31 43 47
-0.153829 -0.097343 -0.046059 139 147 146
-0.028160 -0.060570 -0.039851 110 117 111
-0.245475 0.212567 0.011129 126 131 119
-0.343315 0.400550 0.016940 149 142 134
0.169584 0.107102 -0.022782 47 57 62
0.207091 -0.130103 0.007450 64 74 81
0.356525 -0.073832 -0.026788 140 141 132
0.033084 -0.247825 -0.037121 117 122 110
0.276255 0.301739 -0.026594 58 63 53
-0.006076 0.084278 -0.032958 118 127 118
-0.212618 -0.311922 -0.047473 123 124 118
-0.293748 -0.018180 -0.044059 112 113 104
-0.371783 -0.098748 0.328720 13 13 9
-0.261343 0.214349 -0.048962 89 91 80
-0.359241 -0.104057 0.315063 32 39 31
-0.359446 -0.138745 0.291423 100 108 109
0.025695 0.541601 -0.033403 133 135 122
-0.152948 -0.051778 -0.043866 132 147 142
-0.213017 -0.005723 -0.044040 110 117 109
0.221562 -0.147811 -0.047848 62 65 64
-0.091548 0.428553 -0.045937 133 140 134
0.288213 -0.206180 -0.025329 120 119 119
-0.324279 0.419889 -0.024227 142 139 134
-0.036128 -0.273243 -0.039552 125 126 120
-0.190158 0.113727 -0.040123 105 113 102
-0.052039 0.413234 -0.049607 154 162 151
-0.231472 0.449944 -0.019810 131 139 128
-0.290927 -0.198922 0.187100 9 13 8
0.315505 -0.233631 -0.032687 121 122 116
-0.302183 0.447495 0.019578 139 135 126
0.172264 -0.248036 -0.033632 48 49 45
0.270029 -0.246026 -0.032748 126 133 125
-0.342606 0.359321 0.095674 143 143 137
-0.226997 0.453801 0.012299 136 137 128
-0.208326 0.066339 -0.043053 110 115 105
0.080211 -0.000972 -0.022766 55 64 74
-0.186065 0.211947 0.020753 127 132 122
0.063411 0.440323 -0.039489 131 136 126
-0.340207 0.122554 -0.049309 6 7 0
-0.138917 -0.094653 -0.045506 133 148 145
0.042375 0.151102 0.037736 28 35 39
-0.292930 0.009230 -0.042564 112 117 107
0.353171 0.164762 -0.023420 135 143 132
0.276098 -0.184888 -0.025949 12 12 8
0.103755 0.086617 -0.025616 49 56 64
0.269450 -0.005915 0.030602 46 58 64
-0.103159 -0.257429 -0.041983 119 124 114
-0.088602 -0.132803 -0.040494 141 154 149
-0.121433 0.320686 -0.061630 123 132 123
0.248947 -0.109687 -0.008023 54 60 71
-0.133292 -0.251915 -0.042614 104 106 97
0.258908 -0.064516 0.001226 42 49 55
0.343570 0.507351 -0.023496 84 85 76
-0.312381 -0.131519 0.164636 17 18 14
-0.198473 -0.265771 -0.047277 77 77 73
-0.097568 -0.145586 -0.043699 132 138 136
-0.308678 0.209353 -0.013513 125 126 115
0.169089 0.353457 -0.027546 127 132 120
-0.357633 -0.036572 0.336345 96 120 122
-0.318971 0.049535 -0.047093 103 111 98
-0.335292 0.249538 0.076996 136 136 130
0.017282 0.386741 -0.024642 103 104 95
0.225731 -0.193150 -0.029832 115 119 112
0.210216 -0.068918 -0.018879 57 68 77
-0.094122 0.373624 -0.050121 126 130 123
-0.239530 0.451458 0.000045 133 138 128
0.301698 -0.208077 -0.027201 13 19 19
-0.247435 0.448766 0.040048 137 138 127
0.264900 -0.057483 0.019731 43 55 61
0.368296 0.112697 -0.022779 139 140 129
-0.314148 -0.175983 0.353394 101 125 127
0.033886 -0.140457 -0.035216 72 79 73
-0.294297 -0.217730 0.135890 0 2 1
0.145712 0.520659 -0.033521 147 145 133
-0.045343 0.137261 -0.035005 116 121 109
0.003002 -0.272316 -0.039677 127 132 120
-0.296878 -0.036554 -0.043798 103 111 100
0.138055 0.037957 -0.023169 46 62 70
0.046947 -0.180218 -0.032553 103 105 94
0.016448 0.064280 0.105852 108 122 124
-0.233554 0.028990 -0.045324 121 123 112
-0.273150 0.376301 -0.054927 115 120 110
-0.225701 -0.124611 -0.048831 102 110 107
0.033344 0.081164 0.034030 33 43 48
0.104230 -0.256430 -0.037147 117 122 112
0.122223 -0.192168 -0.032878 104 106 97
-0.023954 -0.092281 -0.035253 112 119 113
-0.181514 0.210789 0.075031 144 156 146
0.262002 0.492494 -0.019159 139 141 132
0.155142 -0.187061 -0.028963 99 103 96
0.354131 0.059781 -0.023472 138 140 129
-0.301938 -0.204554 0.333458 40 58 52
0.002361 -0.161930 -0.027344 1 0 0
0.118156 -0.167453 -0.038086 84 88 81
0.388136 -0.151350 -0.021408 148 146 136
0.067250 0.407666 -0.038911 133 138 126
-0.343336 0.013648 -0.051725 83 90 82
-0.166663 0.416373 -0.043048 138 150 140
-0.111170 -0.024661 -0.029901 120 133 128
0.060376 -0.259901 -0.035487 119 120 114
-0.057106 0.369406 -0.054152 132 140 129
-0.023405 -0.235862 -0.039767 121 122 116
-0.344377 -0.127747 -0.049242 111 113 104
-0.190944 0.439322 -0.043600 133 137 130
0.030517 -0.114673 0.054978 39 46 50
0.306796 -0.155974 -0.023473 103 100 97
-0.339105 0.225512 -0.054933 16 20 13
0.023170 0.084385 0.106569 67 86 90
-0.294506 0.088199 -0.042039 98 103 91
0.125729 -0.027991 -0.022155 58 68 73
0.242894 0.518965 -0.025043 139 141 128
0.267097 -0.087088 0.044014 46 56 63
0.093494 -0.071579 -0.024632 57 66 76
0.103825 0.475330 -0.033014 131 139 126
0.084072 -0.101315 -0.025487 52 66 70
-0.300198 -0.150511 -0.045865 96 100 95
0.281716 0.537427 -0.031753 142 143 137
0.213969 -0.169435 0.101726 73 85 91
-0.233993 0.059444 -0.040267 77 80 64
-0.054045 0.206209 0.066215 136 144 133
-0.251311 -0.309445 -0.050081 123 125 116
-0.023365 -0.228330 -0.038430 120 125 115
-0.217453 0.175739 -0.044057 105 113 100
0.090495 -0.025529 -0.022365 58 68 73
0.270566 0.018605 0.029250 49 56 64
0.198110 0.349195 -0.026706 136 141 129
-0.345435 -0.051535 0.325770 89 113 113
-0.040201 -0.217217 -0.038360 123 124 113
0.032457 -0.288547 -0.034716 74 85 83
-0.054566 -0.180770 -0.039597 110 115 105
0.128371 -0.049101 -0.023253 56 63 71
-0.005704 0.200209 -0.038939 106 114 101
-0.006949 0.209237 0.079648 145 154 147
0.006294 -0.124564 -0.042715 121 130 121
-0.351878 0.225556 0.075673 148 148 142
0.209030 -0.100836 -0.017577 55 69 75
-0.090529 0.183161 -0.037607 108 113 99
-0.101651 0.180465 -0.037187 110 120 106
-0.195058 -0.018031 -0.022410 111 122 120
-0.053034 0.107467 -0.035210 105 115 103
0.267357 -0.043922 0.031723 47 57 62
0.274037 0.499572 -0.023885 141 139 127
-0.167579 0.208452 0.043569 129 131 120
0.350070 -0.010975 -0.025119 136 137 126
-0.071988 0.188180 -0.039125 101 109 96
0.275751 -0.080013 0.113934 85 90 99
-0.367711 0.188385 -0.066562 11 18 10
-0.302877 -0.226931 0.150547 3 3 3
0.175141 -0.021295 -0.019232 49 66 69
-0.350761 -0.205252 0.183878 56 56 50
0.306041 -0.198120 -0.026810 123 124 118
-0.210987 0.374832 -0.052007 112 120 109
0.192700 -0.186411 -0.029997 95 99 94
-0.253514 -0.105701 -0.027317 116 124 121
0.078017 0.002642 -0.023291 59 71 77
-0.280703 0.416397 -0.048579 127 128 117
-0.170270 0.218831 -0.026336 121 129 116
0.261348 0.130515 0.038897 36 46 49
-0.161516 -0.029733 -0.037000 124 135 131
0.244819 0.146141 0.037858 43 48 55
0.221672 -0.091749 -0.017037 65 70 79
0.256347 0.005392 -0.008597 47 54 62
0.243073 -0.118944 -0.008712 63 75 81
0.257189 -0.156023 -0.034422 91 93 84
-0.166999 -0.235416 -0.045738 61 62 56
0.011995 -0.261604 -0.040431 124 129 119
-0.149177 0.333154 -0.052236 126 134 123
-0.130170 0.107498 -0.041226 104 112 101
-0.181971 -0.315430 -0.046968 125 126 122
-0.043041 -0.117015 -0.024921 89 99 85
0.011234 0.045421 -0.030281 23 26 25
-0.212660 -0.301639 -0.047078 127 123 116
0.335248 0.327123 -0.022949 144 145 136
0.104945 -0.106171 -0.025030 57 64 70
0.021109 0.351670 -0.032424 98 103 93
0.081419 0.103283 -0.026475 51 63 67
-0.295147 -0.209069 0.186437 8 14 12
-0.077752 0.053682 -0.034595 119 124 110
-0.267022 -0.095396 -0.028185 126 127 121
0.040932 0.303396 -0.023458 103 104 95
-0.086307 -0.155504 -0.026206 140 155 154
-0.168211 -0.204051 -0.037101 140 146 146
-0.364048 0.127544 -0.065546 14 17 16
-0.245506 -0.195135 -0.044228 102 103 99
-0.346309 -0.039000 0.326960 92 117 122
0.268519 0.328395 -0.024816 137 138 127
-0.156886 0.451438 -0.026187 136 141 131
0.134901 -0.060393 -0.023547 57 67 72
-0.217348 -0.130000 -0.049142 117 130 125
0.379122 -0.218651 -0.028252 121 122 118
-0.162869 -0.088662 -0.044761 134 147 144
-0.054842 -0.273768 -0.038227 125 133 122
-0.190359 0.426632 -0.045136 131 135 128
-0.295613 0.192513 0.084680 139 151 141
-0.306112 -0.131635 0.177481 1 5 0
-0.188217 -0.324132 -0.044519 58 54 55
-0.129512 0.121783 -0.039253 112 120 107
-0.057632 -0.087039 -0.032990 62 73 71
-0.169365 -0.255998 -0.046805 120 121 110
0.380955 0.431482 -0.024604 139 140 127
0.106664 0.471630 -0.034481 132 140 129
0.003678 0.285496 0.093018 159 179 172
0.378750 -0.143113 -0.022587 78 75 70
0.364112 -0.230539 -0.026346 138 139 133
0.215995 0.367548 -0.028547 137 139 128
-0.347943 0.161156 -0.058407 111 112 101
-0.084631 -0.057635 -0.032992 138 146 145
0.267446 0.074447 0.076325 54 64 69
-0.149043 -0.311178 -0.046730 123 124 118
-0.316750 -0.089505 0.283432 2 1 1
0.316959 -0.182058 -0.027122 132 134 125
-0.208861 -0.135596 -0.048657 119 130 128
-0.346709 -0.046186 0.328332 93 118 123
-0.124329 0.458258 -0.012891 137 139 130
-0.104017 -0.260524 -0.042631 118 120 111
-0.002247 -0.042472 -0.030365 115 128 115
-0.293570 0.034445 -0.044105 108 116 103
-0.337185 0.353151 0.066800 139 140 129
-0.249267 0.194013 0.090702 148 155 147
0.179338 0.155765 0.029775 28 35 41
-0.190510 -0.209404 -0.044927 94 95 86
0.175239 0.132182 -0.016164 55 62 66
-0.340133 0.324107 -0.016151 144 145 136
0.131445 -0.161447 -0.032550 31 26 24
-0.105531 0.355987 -0.051521 123 132 123
0.086152 -0.188581 -0.035250 110 111 105
-0.109783 0.334678 -0.052602 128 135 127
-0.177478 0.213493 0.008561 125 133 122
0.087240 -0.064007 -0.024081 57 66 76
0.247191 -0.171124 0.092478 64 77 88
0.166302 -0.000222 -0.020063 49 63 69
-0.011945 -0.237164 -0.038484 132 133 122
0.240141 0.020762 -0.017003 66 78 82
-0.179560 -0.149333 -0.048269 123 134 130
0.046383 -0.140888 -0.043430 68 69 60
-0.076089 -0.216462 -0.042420 105 113 102
0.308004 -0.220156 -0.030594 124 129 119
0.261553 0.130621 0.078063 38 48 51
-0.142765 0.212146 0.024399 125 133 122
-0.226320 -0.099217 -0.049590 114 123 116
0.160279 -0.257964 -0.031104 119 123 118
-0.313389 -0.219930 -0.047896 105 107 98
0.264251 -0.133880 0.113074 75 82 90
-0.110732 -0.035152 -0.036358 127 140 135
-0.121401 -0.016701 -0.017973 116 127 125
0.070678 0.332381 -0.029462 101 102 98
-0.052870 0.116915 -0.036605 108 113 103
0.263388 -0.110084 0.108667 57 67 72
-0.230956 -0.284930 -0.049455 128 126 118
0.339584 -0.152200 -0.028262 135 140 128
-0.360347 -0.133499 0.310677 18 21 24
0.117855 0.288400 -0.026596 133 138 126
0.246188 -0.170911 0.090873 66 77 88
-0.251013 0.126421 -0.046133 112 114 103
-0.282956 -0.142860 -0.048347 108 116 103
0.382227 0.395951 -0.022682 114 116 107
-0.020002 0.219357 0.000875 121 131 117
-0.016680 -0.115300 -0.020088 43 52 45
0.176094 -0.098935 -0.021679 52 63 72
-0.047458 -0.159740 -0.038661 109 118 111
-0.107585 -0.233332 -0.042143 104 105 94
0.060849 -0.035799 -0.025259 51 65 71
0.213165 0.430203 -0.024743 45 49 42
0.047111 -0.013745 -0.026165 30 35 42
0.331029 0.075324 -0.042283 139 140 134
0.144296 -0.229116 -0.031330 116 120 115
0.131165 0.160509 0.092652 29 43 47
-0.345187 0.364679 0.002566 144 145 136
-0.308946 -0.044113 -0.045313 103 110 102
0.336085 -0.041693 -0.034038 139 141 132
0.080020 0.113071 -0.025574 52 61 71
0.339621 0.153462 -0.027756 127 124 119
-0.365581 -0.118020 0.317308 32 36 29
0.156986 0.160150 0.085986 29 41 43
0.160073 0.054799 -0.024241 52 59 67
0.289848 0.505025 -0.019336 143 144 135
0.228271 -0.096204 -0.015232 61 75 81
-0.045097 -0.000937 -0.036159 114 122 111
0.280772 -0.159369 -0.029431 91 95 88
-0.309178 0.444087 0.045742 140 138 128
-0.297575 0.414326 -0.050787 128 130 121
0.319938 -0.155702 -0.028526 132 133 124
0.164548 0.146313 -0.007181 30 40 45
0.133851 0.418336 -0.026383 72 73 64
-0.362874 -0.004453 -0.052092 11 15 10
-0.284238 0.059053 -0.043441 103 108 96
-0.313213 0.065219 -0.050222 103 111 98
-0.279190 0.392323 -0.052698 118 120 111
0.034500 -0.229494 -0.035176 115 117 108
0.062119 0.536303 -0.034127 134 139 127
0.292065 -0.177244 -0.026145 115 116 107
-0.121063 -0.249771 -0.042353 110 112 103
-0.054890 0.446404 0.089445 143 151 140
-0.147551 -0.310929 -0.046654 122 123 117
-0.276545 -0.108344 -0.046500 115 120 110
0.283689 0.359719 -0.018125 137 142 130
-0.199162 0.438765 0.095456 141 149 136
0.203718 0.112577 -0.019676 47 57 62
-0.188661 -0.111216 -0.036267 39 42 41
0.257469 -0.214140 -0.028535 134 132 124
0.244136 0.069980 -0.015919 54 64 71
0.159362 -0.175749 0.109284 158 178 175
0.053877 0.147544 0.009201 28 35 39
0.259910 0.427246 -0.024287 139 141 128
-0.101617 -0.282723 -0.043019 18 14 17
-0.244711 0.216137 -0.012741 125 127 116
0.040854 0.374028 -0.031624 50 51 45
0.266140 0.106175 0.118739 83 93 98
-0.169908 -0.011622 -0.016922 112 124 116
0.153960 -0.062253 -0.023133 54 64 69
0.260927 -0.243692 -0.028864 124 128 121
-0.278933 -0.269051 -0.049084 122 123 114
0.262851 0.409275 -0.024419 140 142 129
0.104085 -0.235785 -0.033964 117 121 114
-0.028177 -0.069368 -0.040927 109 118 109
0.178518 0.161468 0.103946 45 52 58
-0.339852 -0.205545 0.148918 5 5 5
0.009767 0.094340 -0.041839 75 76 63
0.229906 -0.162186 -0.036319 14 14 10
-0.296947 -0.204081 0.313491 46 50 45
-0.227496 0.201639 0.078919 147 156 147
-0.286010 -0.318271 -0.051599 122 123 117
-0.221408 0.088309 -0.041501 105 113 100
-0.309071 -0.224000 0.309524 34 41 33
-0.313942 0.440983 0.009052 136 134 124
0.095681 0.354236 -0.033672 128 133 119
-0.342045 -0.343261 -0.057842 118 116 108
-0.026172 -0.283096 -0.041556 110 111 105
0.013990 0.192644 0.007653 83 94 92
0.030373 -0.233391 -0.034844 115 117 108
0.060613 0.065601 -0.025986 51 60 70
-0.347181 0.259450 0.078778 165 165 159
-0.140227 0.209757 0.037860 126 130 123
0.243678 0.149232 0.053523 40 50 55
-0.341346 -0.292727 -0.048251 110 111 105
0.097296 -0.175100 0.101731 186 207 196
0.109048 0.155968 0.025552 23 33 36
-0.116390 -0.224794 -0.045022 94 102 91
-0.189763 -0.308475 -0.043824 121 123 114
0.235111 0.149953 0.020261 33 43 50
0.137807 0.021806 -0.022126 56 68 72
0.217925 -0.017611 -0.016667 59 71 77
0.038002 0.310744 -0.024127 99 107 96
-0.315681 -0.028264 -0.044649 61 57 46
0.117967 0.159230 0.044172 31 38 44
-0.299625 -0.211563 0.268951 79 93 84
-0.007408 0.161297 -0.035611 121 126 114
-0.185705 -0.301736 -0.044644 119 123 116
0.221282 0.077780 -0.021000 54 64 71
0.110551 -0.200218 -0.034822 103 107 102
-0.086682 -0.126589 -0.042472 146 159 154
0.264718 0.112955 0.075436 43 57 63
0.143202 0.526995 -0.034656 139 141 128
0.068336 -0.016263 -0.023627 56 67 76
-0.086826 -0.218793 -0.040762 99 106 98
0.239524 0.337042 -0.025010 98 99 93
-0.324610 0.449048 0.066419 139 137 129
-0.121001 0.461128 -0.003135 138 139 133
0.137325 -0.038826 -0.021642 51 65 71
0.124726 0.160443 0.115379 72 78 89
-0.191691 -0.267508 -0.047920 117 118 112
-0.244501 -0.080796 -0.030778 108 121 118
-0.296543 -0.003079 -0.043582 109 111 100
0.124700 0.159139 0.046666 26 36 41
-0.202275 -0.165120 -0.050041 130 143 138
-0.191747 -0.188108 -0.045396 134 147 144
-0.323784 -0.211830 -0.008455 18 19 13
0.202794 -0.126269 -0.003363 57 71 77
-0.215131 0.441805 -0.037205 131 136 126
0.018681 0.375488 -0.039821 98 103 93
-0.284393 -0.174692 0.185565 18 24 22
-0.268557 -0.175519 -0.045738 18 25 17
0.369186 0.371300 -0.021284 140 142 131
-0.057093 -0.221410 -0.040411 114 116 105
0.310350 0.352514 -0.017348 47 47 41
-0.371002 0.183442 -0.060442 103 111 100
0.064191 -0.010901 -0.024851 53 62 74
-0.293242 -0.188381 0.313043 53 53 47
0.306181 0.298279 -0.018922 113 114 105
-0.046517 0.006255 -0.035388 75 84 77
0.356484 0.173484 -0.022228 145 147 134
0.023595 0.029327 0.104602 69 88 90
0.082271 0.341996 -0.031856 129 131 118
0.175397 -0.211863 -0.028077 103 110 104
-0.351961 0.014421 -0.056713 110 115 105
0.230171 -0.101108 -0.014770 65 77 81
-0.019944 -0.122356 -0.032338 94 102 91
0.104590 0.300967 -0.027643 88 90 81
-0.354763 0.084909 -0.058402 111 111 107
0.378689 0.388664 -0.024421 137 143 126
0.177940 -0.182385 -0.031479 96 100 93
0.220667 0.151760 0.019119 34 39 46
0.136373 0.312407 -0.030095 126 134 121
-0.271731 -0.261664 -0.048449 127 125 117
-0.142270 -0.175324 -0.046168 140 155 152
-0.014074 0.142375 -0.032338 115 123 112
0.127927 -0.106560 -0.020857 51 65 71
0.153249 0.426911 -0.031173 133 138 126
-0.332055 0.396485 -0.037379 143 144 133
-0.107202 -0.111350 -0.041848 118 131 128
-0.117207 0.216355 0.007267 127 132 122
-0.306875 -0.212956 0.334121 80 108 112
-0.104492 -0.171164 -0.035886 144 157 154
-0.104353 0.360623 -0.050307 128 132 125
-0.141903 -0.075370 -0.044806 135 148 147
-0.089306 -0.248882 -0.041516 118 120 109
0.280499 -0.123330 0.102922 83 82 86
0.228699 0.168514 0.113145 73 85 91
0.128284 -0.005214 -0.021625 55 64 74
0.120601 0.519252 -0.029151 138 140 127
-0.320847 -0.299172 -0.050870 106 104 96
0.276671 -0.134290 0.101941 87 86 97
-0.364459 0.136875 -0.062311 16 16 12
-0.128468 -0.234729 -0.045852 104 111 103
-0.008073 -0.047999 -0.033413 113 123 111
-0.199293 -0.169677 -0.050039 135 148 143
-0.328457 -0.153333 -0.048369 26 26 20
0.160633 0.407325 -0.028325 131 133 122
-0.005684 -0.260384 -0.039315 130 131 120
0.392441 0.165085 -0.016710 112 113 107
0.266816 -0.069147 0.073671 47 59 65
0.086086 0.121745 -0.023533 52 64 70
-0.294185 -0.218211 0.115532 20 26 28
-0.124464 -0.075492 -0.045223 130 145 140
-0.023608 0.142426 -0.032137 109 122 109
-0.041661 0.222456 -0.027858 118 128 114
0.234223 0.155916 0.066620 29 39 42
-0.340693 -0.162627 0.352710 97 118 126
0.032609 0.081904 0.039657 37 47 50
-0.071178 -0.277955 -0.039378 125 126 120
0.161115 0.491547 -0.032518 138 139 128
-0.198089 -0.173248 -0.048674 170 183 180
-0.008200 -0.231849 -0.038409 124 126 117
-0.323819 0.449202 0.074199 141 139 131
0.307073 -0.235343 -0.030985 130 130 124
-0.204001 0.177105 -0.041636 46 48 39
0.102599 0.493728 -0.025197 128 136 121
0.049822 -0.272363 -0.034290 122 123 117
-0.224216 0.433973 -0.040389 128 130 121
0.213058 0.004250 -0.017637 58 70 74
0.128179 -0.153873 -0.038802 58 62 57
0.127508 0.159492 0.050473 27 37 40
0.022208 0.100419 0.108576 72 84 88
-0.119985 0.029029 -0.039355 117 119 108
-0.177191 0.200168 0.075525 140 148 137
-0.038293 -0.233739 -0.040386 124 126 117
-0.293158 -0.205109 0.219965 9 12 11
-0.187188 -0.089089 -0.046506 131 142 138
-0.318500 -0.138250 0.071196 16 23 17
0.054165 0.159849 0.061340 26 36 39
-0.015259 0.115922 -0.032222 114 119 107
-0.069909 0.033076 -0.034893 114 127 114
-0.285991 0.065016 -0.043394 105 110 96
0.169609 0.141006 -0.011089 43 53 58
0.384498 -0.100283 -0.024098 138 143 133
-0.376473 0.070202 -0.067455 113 120 114
-0.078281 -0.125577 -0.035240 181 194 189
-0.026652 0.453049 0.037937 147 151 144
-0.263134 -0.212789 -0.045873 121 122 116
0.226718 0.158806 0.086066 31 43 47
0.268524 0.045652 0.070699 48 58 63
-0.093101 -0.193095 -0.044885 81 82 73
-0.116540 0.412139 -0.043620 146 153 145
0.345267 -0.227756 -0.026982 53 59 61
-0.323010 -0.113619 -0.046933 55 60 50
-0.123432 0.061106 -0.035327 110 120 106
-0.033472 0.213382 0.041008 126 128 117
0.084942 -0.035740 -0.022783 55 65 72
-0.372714 -0.079369 0.335502 54 54 54
-0.283013 0.215688 -0.044066 120 128 117
0.329678 -0.098450 -0.037041 132 134 125
0.125002 0.447840 -0.028004 134 139 127
-0.268555 -0.293548 -0.047235 91 93 84
0.066999 0.162114 0.068667 24 36 38
0.141784 -0.252841 -0.027421 74 78 71
0.111978 -0.185314 -0.036042 101 108 100
-0.218243 -0.321098 -0.051555 49 45 50
0.253642 -0.101976 -0.002583 34 51 56
-0.359970 -0.325074 -0.062516 117 118 109
0.270420 -0.094810 0.113132 81 93 99
0.269714 -0.179431 -0.027356 112 112 106
0.388094 -0.146574 -0.021209 145 146 133
0.378885 -0.039188 -0.022258 82 83 72
-0.333470 0.008963 -0.046553 103 111 98
-0.300369 -0.239202 0.134214 2 2 2
-0.187356 -0.109456 -0.035500 43 56 51
-0.268099 0.016755 -0.043313 78 82 75
-0.147643 -0.101432 -0.046439 140 146 144
-0.158329 0.067894 -0.038234 105 113 100
0.094399 0.162501 0.083643 36 43 47
0.104891 0.458209 -0.029376 124 126 117
-0.352073 -0.294798 -0.039864 114 115 109
0.010936 0.050784 -0.037324 93 102 93
-0.185531 -0.080964 -0.042887 132 143 139
0.317395 -0.236204 -0.033365 132 133 129
-0.348567 -0.250405 -0.029303 117 109 106
0.144801 0.155944 0.020608 32 37 42
-0.207088 0.457987 0.007378 137 138 127
0.206940 0.446223 -0.029280 143 144 131
-0.341180 0.228670 0.069424 140 141 132
-0.374853 0.279987 -0.074275 147 90 97
0.268095 0.313182 -0.028014 132 133 124
-0.041875 -0.116191 -0.000886 86 82 83
0.146794 -0.179756 -0.032634 93 94 88
0.329624 0.388209 -0.021498 143 144 133
-0.029889 0.041927 -0.032102 116 125 116
-0.236952 0.350412 -0.052845 110 115 105
0.395348 -0.199687 -0.024334 149 145 138
-0.378369 -0.070642 0.339733 54 55 51
-0.296554 -0.235417 0.124051 0 3 0
0.155176 0.480307 -0.031131 136 137 124
0.133905 0.157399 0.028498 29 36 40
0.256508 0.137967 0.042058 43 50 56
-0.228210 -0.260813 -0.044750 119 124 114
0.143045 -0.177849 0.105812 157 174 177
0.117294 -0.172761 0.101469 151 176 171
0.053434 0.127786 -0.023649 35 49 53
-0.302945 0.083654 -0.044767 64 66 55
0.179554 -0.187435 -0.028877 105 106 102
-0.324153 0.341057 -0.047013 139 140 131
-0.090209 0.432336 -0.043489 135 139 132
0.071112 -0.238417 -0.034885 107 102 98
-0.087747 0.448055 0.074489 137 141 134
-0.034250 0.218024 0.065387 158 172 163
-0.282881 0.192135 -0.048033 102 104 93
-0.031880 0.154984 -0.026463 12 19 11
0.011121 -0.224023 -0.036795 124 125 119
-0.314982 -0.305833 -0.049874 102 102 98
0.379046 0.130915 -0.021566 147 152 140
0.314047 0.455160 -0.029550 142 144 131
0.369724 -0.218709 -0.028757 146 147 138
-0.299742 -0.242552 0.122711 7 10 11
0.354361 0.425500 -0.021469 145 147 134
0.395527 0.255346 -0.017471 151 152 139
0.055390 -0.166411 0.058814 56 58 64
0.043895 0.285540 -0.042488 128 130 117
-0.245043 -0.327580 -0.049169 122 124 113
-0.290477 -0.201228 0.284599 93 96 97
-0.267100 -0.176253 -0.048005 118 120 111
-0.188553 0.205526 0.053227 129 134 124
-0.377898 -0.047139 0.342031 55 61 59
0.124872 0.159690 0.072525 30 40 43
-0.036304 0.457923 0.044652 143 148 136
-0.079869 0.447766 0.076705 145 146 137
0.219035 -0.051422 -0.018258 62 69 75
0.133583 0.084783 -0.026154 44 56 60
0.135814 0.081120 -0.026132 45 55 60
0.207881 -0.119144 -0.013561 62 68 79
-0.069711 0.220489 -0.006682 123 128 118
0.250806 -0.221907 -0.025685 133 134 128
-0.375702 -0.008175 -0.058061 121 129 118
0.265437 -0.087357 0.033506 46 53 59
0.185733 0.074180 -0.024404 40 54 58
0.008828 0.302118 0.091587 144 167 161
0.095481 -0.009240 -0.023032 54 66 72
0.167677 -0.166670 -0.037727 82 83 77
-0.249162 0.013338 -0.044900 28 29 18
-0.129524 0.447535 0.072753 133 138 128
-0.267996 0.066864 -0.043711 98 93 89
0.243123 -0.251781 -0.024960 0 2 0
-0.340850 0.326911 0.041660 145 143 135
-0.074727 -0.193827 -0.041544 93 98 88
0.318478 0.439564 -0.022596 133 129 122
0.003693 0.042484 -0.044288 127 134 128
0.258383 0.052306 -0.005531 46 51 58
0.259943 0.313867 -0.028066 130 135 125
0.372186 0.546999 -0.018234 84 85 79
0.339015 -0.131159 -0.027708 133 138 126
0.266429 -0.131104 0.115123 77 87 94
-0.310372 -0.135003 -0.045502 98 99 90
-0.046104 0.214754 0.031928 122 130 117
0.101311 0.107012 -0.025686 45 59 63
0.191534 0.162345 0.119373 147 165 161
0.096674 0.157386 0.032832 28 35 39
-0.059633 0.123062 -0.038461 110 120 106
-0.066053 -0.224646 -0.040265 115 123 112
-0.235881 -0.181998 -0.031683 130 146 137
0.061567 0.149515 0.005073 23 33 36
-0.289783 -0.222123 -0.047731 108 109 100
-0.379006 -0.180516 0.054160 3 3 3
0.149108 -0.098802 -0.021850 55 62 70
0.371463 0.129240 -0.021332 131 131 125
-0.316081 0.442087 0.032446 137 138 127
0.098407 0.345952 -0.032187 126 127 118
-0.360320 -0.116887 0.310524 35 35 31
0.340590 0.074161 -0.021766 90 90 84
-0.241704 -0.100525 -0.039594 120 133 128
-0.188825 0.450141 -0.027038 135 140 130
0.327975 -0.220072 -0.028099 137 138 132
-0.310383 0.331208 -0.060207 124 132 119
-0.327576 0.435902 0.024641 140 138 130
-0.006620 0.229952 -0.038049 94 99 89
-0.333629 -0.238886 -0.051770 84 88 83
-0.209144 -0.324174 -0.049555 107 108 102
-0.006117 0.210532 0.069052 123 132 123
-0.373271 -0.018859 0.336678 81 103 104
-0.224823 0.181527 -0.044691 73 78 66
0.171933 0.116880 -0.020491 44 56 60
0.109657 0.143975 -0.012183 39 49 54
0.212886 0.162986 0.097391 39 49 56
0.147346 -0.226916 -0.032045 123 124 115
0.034912 0.111955 0.026915 33 47 51
0.143209 -0.117417 -0.014856 60 67 75
0.239024 0.177464 0.106078 86 96 99
-0.321064 0.027585 -0.045878 108 109 103
-0.121910 0.121834 -0.036567 110 120 104
-0.059843 -0.230960 -0.042310 126 124 116
0.329015 -0.195343 -0.028188 137 139 128
-0.314246 0.179181 -0.046190 47 48 39
-0.163291 -0.243779 -0.047705 114 107 99
-0.297800 -0.202472 0.224472 8 11 12
-0.229609 0.214238 0.001013 122 130 117
0.230404 0.160992 0.096885 36 43 49
-0.079791 -0.133645 -0.032534 185 199 190
0.120226 -0.040033 -0.022421 54 68 74
-0.015447 0.383215 -0.026444 147 155 144
0.067827 0.094624 -0.027357 42 54 60
0.239885 -0.101383 -0.013419 66 73 81
0.265798 0.110414 0.032810 41 51 56
-0.181023 -0.066076 -0.045454 131 144 139
-0.336873 0.135665 -0.050979 103 108 96
0.152788 -0.162127 -0.040682 64 64 64
-0.059882 0.195723 -0.035941 103 111 98
0.020568 -0.086061 0.099683 65 81 89
-0.123573 0.201624 -0.041351 98 108 92
0.254694 -0.170768 0.096606 69 83 87
-0.214635 0.419103 -0.049560 126 134 123
-0.028554 0.456265 0.051067 145 150 140
0.348561 -0.213457 -0.027878 133 140 134
0.351003 -0.059253 -0.026190 138 139 128
0.098219 0.349248 -0.033172 126 131 119
0.100925 -0.038152 -0.022773 51 64 73
0.225926 0.161961 0.100249 34 44 49
-0.371193 0.202889 -0.060740 113 120 112
