ply
format ascii 1.0
element vertex 1206
property float x
property float y
property float z
property uchar red
property uchar green
property uchar blue
end_header
0.018435 0.649860 -0.184071 101 105 98
0.192055 -0.081375 -0.081317 47 64 69
-0.349610 -0.148558 0.130835 73 65 51
0.026374 -0.076500 0.048479 61 68 76
0.001433 -0.142659 -0.048739 107 115 104
-0.045467 0.520517 -0.173198 163 171 160
-0.005740 0.457665 0.012432 152 161 152
0.383090 -0.028103 -0.042535 25 28 31
-0.131682 0.039443 -0.105053 13 15 6
0.249405 -0.097094 -0.070778 69 79 84
-0.061034 -0.274487 -0.040476 102 107 97
-0.052054 -0.251399 -0.041857 118 119 108
0.078803 -0.042944 -0.093001 56 67 76
-0.177024 -0.204284 -0.030027 135 144 137
-0.311193 -0.019889 -0.114030 109 111 98
-0.323930 -0.069303 -0.098028 106 113 105
0.287774 0.591951 -0.142270 141 146 134
0.133759 0.418364 -0.145943 128 130 117
0.262389 -0.157712 -0.022930 96 97 88
0.154607 0.208669 -0.100418 23 33 36
-0.233030 -0.220430 -0.064694 123 119 110
0.278676 0.029683 0.081869 78 92 96
-0.210166 0.195010 -0.135752 103 116 101
0.377156 0.537225 -0.125346 145 146 133
-0.321195 -0.049229 -0.107069 25 26 20
-0.226084 -0.221016 -0.063799 111 112 101
0.068980 -0.255716 -0.033450 114 121 113
-0.359917 0.053492 -0.136103 26 20 7
-0.318745 0.273136 -0.106886 124 125 114
-0.007911 -0.066705 -0.073276 111 118 110
-0.240781 -0.082300 -0.067409 119 127 124
0.227204 0.197776 -0.108291 49 61 67
-0.049653 0.011534 -0.089440 113 118 108
-0.313770 -0.197947 0.346997 80 111 111
0.094557 -0.035423 -0.094727 56 68 72
-0.122390 0.550399 -0.199523 220 228 213
-0.182355 -0.002408 -0.054886 113 126 123
-0.240171 -0.209537 -0.067220 40 41 30
-0.010534 0.234511 -0.117803 117 122 110
0.020238 -0.272971 -0.035157 128 132 127
-0.266429 0.090379 -0.130781 109 114 102
0.122800 0.490290 -0.151745 41 45 38
-0.349019 -0.203723 0.002159 2 3 0
0.125643 -0.096219 -0.079595 51 70 74
-0.237670 -0.041515 -0.062804 114 126 118
0.312981 -0.227619 -0.015562 131 133 124
0.274288 0.029454 -0.069809 43 53 60
0.203926 -0.168016 0.083393 150 167 170
0.329377 0.582948 -0.134924 140 142 133
0.050799 0.211183 -0.033187 25 37 41
0.128484 0.216406 -0.074827 24 36 38
0.066162 -0.152000 -0.038750 66 70 65
-0.290499 -0.269437 -0.064658 121 117 110
0.133632 0.170728 -0.120455 50 60 65
0.396668 0.531948 -0.120612 145 148 132
-0.099883 -0.295779 -0.043069 126 133 127
-0.376475 0.123246 -0.148172 52 57 47
-0.016680 0.264807 0.010840 166 180 169
-0.155899 0.274159 -0.122717 122 130 117
0.079064 -0.270506 -0.032254 123 127 120
0.128900 -0.028622 -0.095161 54 67 76
-0.266693 -0.192708 -0.072996 118 126 115
0.269176 -0.085401 -0.043201 40 47 53
-0.354208 -0.253116 -0.068388 105 107 98
-0.345481 -0.275632 -0.067407 46 29 29
-0.152416 0.094168 -0.114268 113 121 108
0.272540 -0.085422 0.062256 47 57 62
-0.228989 0.265716 -0.058740 127 132 120
0.374270 -0.135499 -0.023843 136 140 133
-0.277078 0.118832 -0.136439 107 112 102
0.176877 0.102009 -0.109400 46 56 63
-0.018178 -0.261221 -0.038513 124 131 123
0.007277 -0.096325 -0.058711 112 119 111
0.021798 -0.219800 -0.040348 122 123 117
0.346238 -0.056923 -0.042378 124 125 119
-0.141834 -0.308639 -0.045462 117 122 112
0.201909 -0.237233 -0.021539 124 128 121
0.375804 -0.070693 -0.037102 137 139 130
-0.361302 0.559650 -0.082667 138 136 126
0.200816 -0.165613 0.083305 153 171 169
0.127812 -0.182776 -0.034535 94 98 93
-0.228015 -0.072780 -0.070874 118 131 126
-0.339981 -0.133037 0.072013 12 18 16
0.380741 -0.045420 -0.041013 126 128 119
-0.184408 0.270981 -0.097755 122 127 117
0.033458 0.080969 0.000728 38 45 51
-0.166968 -0.023655 -0.066937 123 136 133
0.371633 -0.086011 -0.035063 138 140 129
0.278734 0.108630 -0.079311 37 49 55
-0.107039 0.068006 -0.104951 43 45 32
0.243486 0.363814 -0.131678 138 140 129
0.253569 -0.224269 -0.017608 132 134 125
0.244514 0.540781 -0.141660 140 142 129
0.266644 0.573724 -0.141536 138 146 133
-0.232591 -0.176731 -0.041682 127 134 128
-0.083755 0.262039 0.003756 157 167 155
0.117399 0.170014 -0.121109 47 58 67
0.169670 0.583538 -0.154052 133 134 123
-0.108520 -0.262352 -0.045332 121 122 116
-0.150313 -0.284577 -0.047463 117 119 108
0.189981 0.415553 -0.140157 128 130 117
-0.131737 -0.112683 -0.057024 125 138 135
-0.253807 -0.076423 -0.060157 107 120 117
0.220219 -0.212979 -0.020511 121 126 116
0.274093 -0.051836 0.042978 47 59 63
-0.015731 0.258159 -0.009302 130 135 123
0.021911 0.022735 0.048492 75 87 91
0.113078 -0.179994 -0.037238 92 99 91
0.242219 0.540465 -0.141929 145 146 140
-0.379704 0.315417 -0.175835 78 78 72
-0.144720 0.263403 -0.056940 124 129 119
-0.065148 0.145475 -0.112329 105 113 100
0.007311 0.498441 -0.018022 129 137 122
0.233829 0.215695 0.018692 38 45 49
-0.054764 -0.267405 -0.040212 125 125 119
0.227631 -0.098172 -0.075072 60 72 78
-0.210284 -0.243477 -0.059074 115 120 110
0.375226 -0.168734 -0.017767 19 19 13
-0.186361 0.219085 -0.134246 110 115 105
-0.372388 0.198556 -0.157785 110 112 103
0.254370 0.515528 -0.137616 106 104 94
-0.313522 -0.114363 -0.084467 92 93 84
-0.333662 -0.178174 -0.077300 101 105 98
-0.348167 0.144452 -0.149581 95 100 86
0.064501 0.565669 -0.169611 132 135 119
0.123995 -0.053986 -0.091127 54 64 69
-0.199755 0.162331 -0.130134 105 113 100
-0.097606 0.452696 -0.187486 128 138 126
0.351677 0.043732 -0.057425 34 31 26
-0.267276 -0.237812 -0.065958 118 125 117
-0.287583 0.092477 -0.134463 102 112 98
-0.208411 -0.084744 -0.068978 131 143 135
0.232393 0.621815 -0.151246 104 105 96
-0.214248 0.574806 -0.158262 134 139 129
-0.022484 0.271399 -0.097729 100 110 98
-0.084347 -0.256765 -0.043960 123 124 118
-0.277877 0.142099 -0.140376 107 115 102
-0.045315 0.124839 -0.108790 114 127 112
-0.234092 -0.035031 -0.062619 113 126 121
0.081821 0.223365 0.031273 76 87 96
0.090240 -0.216348 -0.035386 123 125 116
-0.171917 0.133228 -0.122465 105 113 102
-0.092970 0.173888 -0.119080 99 109 93
-0.112442 0.271665 -0.127675 89 97 86
-0.245573 0.577006 -0.121695 136 137 126
-0.289393 -0.177110 -0.076238 113 118 108
0.274064 -0.048298 0.042642 50 60 67
0.371463 -0.146458 -0.020762 131 140 133
0.277966 0.345295 -0.124467 112 119 111
0.003602 0.079262 -0.099301 17 18 14
0.107734 -0.055152 -0.091293 55 65 70
-0.357054 -0.194430 0.018653 4 5 1
0.252300 0.443438 -0.131973 136 138 127
-0.041990 -0.075498 -0.072304 112 120 109
-0.212152 0.259109 -0.005471 141 148 142
-0.319473 -0.100462 0.003117 22 22 22
0.226334 0.212661 -0.068773 31 38 42
-0.267370 0.107342 -0.132918 104 117 102
-0.255734 -0.305975 -0.057763 123 124 115
-0.368294 0.066081 -0.137820 117 115 107
0.132442 0.218167 -0.064661 24 34 39
-0.252624 -0.040902 -0.053210 120 133 128
-0.067838 -0.278841 -0.039490 126 127 121
-0.065038 0.454364 -0.180083 123 135 127
0.260903 -0.001873 -0.082275 61 71 78
-0.003929 -0.237147 -0.039151 130 132 121
0.109704 -0.268491 -0.029578 116 117 111
0.070815 0.204958 -0.100240 23 35 37
0.356524 0.056174 -0.061145 133 138 124
-0.026023 0.536590 -0.023102 146 153 145
-0.372793 -0.090221 -0.089159 0 1 0
0.276921 0.031024 0.082102 90 104 106
0.200359 -0.174078 0.075614 132 150 148
-0.114430 0.268964 -0.105468 117 127 115
0.239327 -0.086862 -0.075637 59 72 81
-0.131717 -0.187618 -0.036617 147 158 156
-0.095099 -0.186312 -0.053453 57 64 58
0.177650 -0.224333 -0.024920 120 124 117
0.273250 -0.065391 0.047352 46 58 62
0.396554 0.267678 -0.088484 136 141 131
0.349495 0.038880 -0.056255 113 118 108
0.303431 -0.189073 -0.019511 120 121 112
0.345944 0.233184 -0.084674 132 142 130
0.185323 0.209905 -0.091224 29 34 39
0.161063 -0.168661 0.083800 157 174 175
-0.257357 -0.227853 -0.065986 119 120 109
0.037200 0.507704 -0.164182 117 127 113
-0.222410 -0.242081 -0.060878 121 123 110
-0.337788 -0.278957 -0.067392 102 107 97
-0.179269 -0.289246 -0.050114 117 122 112
0.232198 0.380058 -0.135326 138 142 135
-0.219299 -0.144058 -0.055688 125 136 132
-0.276252 0.012823 -0.119973 112 117 107
-0.202716 -0.017255 -0.061877 115 128 123
0.007699 0.335419 0.046192 149 167 163
-0.336305 -0.133964 0.055918 14 17 16
-0.057491 0.267866 -0.063734 120 128 117
0.385614 0.134292 -0.069430 139 141 132
0.037223 0.488359 -0.162855 122 130 117
0.109799 0.218600 -0.050454 23 35 37
-0.158331 0.578705 -0.091929 135 139 132
-0.136037 -0.088822 -0.060042 136 149 146
-0.022322 0.242661 -0.119031 108 116 105
-0.288689 -0.261077 -0.065332 118 113 111
0.170944 0.645227 -0.160841 142 140 130
-0.234951 -0.169896 -0.043379 126 132 130
-0.088810 0.027873 -0.097591 109 121 111
-0.189859 0.233927 -0.135034 35 39 34
0.079984 0.381156 -0.153972 34 32 22
0.118622 -0.152438 -0.031858 61 61 57
0.200843 0.530560 -0.145394 99 97 85
-0.347945 0.563715 -0.077188 140 138 130
-0.211453 -0.034171 -0.067717 116 128 120
0.201533 0.668595 -0.159974 136 138 127
-0.089579 0.230940 -0.123642 118 126 115
0.257762 0.484686 -0.135146 134 139 127
0.227152 0.209119 -0.094924 32 39 45
0.361367 0.421971 -0.114903 137 142 130
-0.212467 0.268560 -0.081761 120 128 117
-0.154364 0.254783 -0.004801 133 137 130
-0.122862 -0.280181 -0.044771 123 124 115
0.060279 -0.199142 -0.037698 112 114 105
0.083688 0.208239 -0.093086 27 34 38
0.210618 -0.170599 0.075153 61 66 75
0.100694 0.694996 -0.174285 138 146 135
-0.120062 0.082669 -0.109064 125 135 123
-0.377851 0.076156 -0.139232 109 114 100
0.371559 -0.035035 -0.044865 134 141 133
0.212512 -0.161820 0.077048 75 82 88
0.185639 -0.161011 0.083336 87 101 105
-0.261026 -0.179294 -0.074245 105 113 102
-0.188822 -0.176557 -0.048760 136 149 146
0.162398 -0.014825 -0.093796 57 62 71
-0.248773 0.579927 -0.041629 140 148 135
0.132849 -0.168560 -0.035918 77 84 76
-0.331581 -0.006874 -0.119810 110 120 108
0.214645 -0.034040 -0.087478 54 66 70
0.088020 -0.211983 -0.035701 115 122 114
0.304110 0.518748 -0.130969 141 146 134
0.087991 -0.200995 -0.035406 117 122 112
-0.177643 0.269850 -0.090414 120 124 117
-0.350669 -0.181205 0.066995 11 18 12
-0.154222 0.236683 -0.131147 110 118 107
0.043352 -0.233825 -0.036595 114 119 109
0.109993 -0.079227 -0.085025 56 68 74
0.210334 -0.153501 -0.019275 59 62 61
-0.251495 0.040425 -0.122388 115 116 105
0.098830 0.662583 -0.173106 137 139 128
-0.266845 0.269526 -0.082431 122 130 117
0.040082 -0.174404 -0.041354 111 108 105
0.350426 -0.046364 -0.044780 116 121 111
-0.138488 -0.139822 -0.053769 127 140 137
0.144707 -0.021891 -0.094545 53 65 69
0.085194 0.220010 -0.010193 30 40 45
0.027339 0.032000 0.047301 60 77 82
-0.356710 0.061429 -0.137210 101 106 92
0.023097 -0.151058 -0.046885 117 125 112
0.200833 -0.048695 -0.085586 50 60 67
0.352076 -0.157856 -0.021444 137 139 128
0.256917 0.212117 0.042496 63 75 79
-0.143827 -0.112967 -0.057723 119 134 131
0.393612 -0.068295 -0.033874 142 144 133
-0.336300 -0.167413 -0.079680 98 100 91
-0.166474 0.272520 -0.135135 93 95 84
0.358921 0.172649 -0.078209 37 37 33
-0.049370 -0.277210 -0.038687 122 126 119
-0.245805 -0.157537 -0.045692 121 132 128
-0.223108 0.081207 -0.121875 113 118 108
-0.016299 0.192756 -0.115206 110 123 110
-0.316017 -0.214117 0.313876 32 45 42
-0.223826 0.580150 -0.044759 142 147 135
-0.025435 -0.078450 -0.070676 105 118 105
-0.315786 -0.218519 0.321341 72 95 91
0.067046 -0.189639 -0.038783 103 104 93
0.172117 0.510706 -0.147896 131 133 120
-0.091383 0.251232 -0.124561 103 104 93
0.241230 -0.250148 -0.017954 12 8 9
0.356505 0.380516 -0.111574 137 142 130
-0.260146 0.570085 -0.175517 131 136 126
0.124029 0.211545 -0.092110 24 34 37
-0.071219 -0.096236 -0.050089 124 133 126
-0.361366 -0.282261 -0.064406 107 114 108
0.231878 -0.150763 -0.020986 59 62 61
-0.148700 0.256107 0.004749 147 161 152
0.347828 0.048876 -0.057279 139 140 134
-0.087818 0.200206 -0.121069 107 115 100
0.198096 0.215650 -0.052604 30 35 42
-0.354750 -0.131423 0.135489 89 94 84
-0.139868 -0.013747 -0.059133 121 136 133
0.268324 -0.188903 -0.020634 116 117 106
0.356966 0.678060 -0.143795 151 156 144
0.274090 -0.023086 0.044828 54 61 67
0.137516 0.189604 -0.119181 49 63 67
-0.077005 -0.170834 -0.054994 71 72 68
-0.071036 0.053179 -0.099014 15 24 15
0.279499 0.106309 0.045997 47 57 62
0.348715 0.625016 -0.137952 137 142 128
0.125792 -0.207334 -0.032892 114 116 107
0.282563 0.176424 0.046426 50 57 63
0.269181 0.417772 -0.130168 34 34 34
0.113095 -0.166737 -0.038092 84 88 83
0.346421 0.464579 -0.120184 135 136 132
0.000008 0.327296 0.038825 157 170 165
-0.097670 0.069766 -0.104620 110 123 110
-0.207209 -0.112486 -0.037759 59 60 54
-0.353366 -0.183706 0.054852 3 6 5
-0.185487 0.242614 -0.135201 89 99 85
0.256214 -0.213109 -0.018183 119 124 112
-0.098233 -0.283647 -0.042858 17 21 16
0.118792 0.078692 -0.112537 54 66 70
-0.321993 -0.329586 -0.066975 117 110 104
0.014037 -0.281358 -0.035749 124 126 115
-0.378577 0.440341 -0.068937 144 145 136
0.273432 -0.149226 -0.022869 24 24 18
0.071871 0.227871 0.031413 79 91 95
-0.226069 0.257615 -0.014062 128 136 125
-0.167521 -0.264207 -0.050563 77 81 74
-0.087774 0.005215 -0.092457 111 119 108
0.270851 -0.079528 -0.044096 37 49 53
0.329203 0.519737 -0.128646 137 142 128
-0.282781 0.261747 -0.036432 131 133 124
0.056824 -0.207574 -0.038398 117 118 107
-0.197497 0.275397 -0.137969 88 93 79
-0.361484 -0.078403 0.042740 0 2 1
-0.275038 0.256353 -0.014256 131 139 128
-0.121102 0.555427 -0.193882 135 140 130
0.397249 0.119335 -0.064351 141 146 134
0.380952 -0.216206 -0.012299 143 138 134
0.054957 0.074989 -0.099972 42 49 53
-0.014621 0.525015 0.006028 154 161 153
-0.335366 0.131100 -0.146631 40 41 28
0.147962 -0.017232 -0.094876 50 64 70
0.264983 -0.041769 -0.075137 53 63 70
-0.043448 0.194848 -0.116396 112 117 105
0.353071 -0.208850 -0.013852 136 140 133
0.136153 -0.176540 0.079375 157 172 169
-0.351778 -0.157889 0.198397 46 50 45
0.013487 -0.143974 -0.048221 114 122 111
0.050254 0.074756 -0.092432 29 34 39
0.083934 0.076999 -0.114815 56 68 74
-0.328720 0.564470 -0.156479 132 133 122
-0.372250 0.380340 -0.116737 143 144 135
-0.350837 -0.135860 0.118945 151 151 147
-0.104516 0.056401 -0.102183 114 124 110
-0.291386 0.270100 -0.076889 126 134 123
0.055431 -0.188342 -0.039570 97 107 95
0.320783 -0.186133 -0.018672 134 139 129
-0.070995 -0.182300 -0.051757 93 97 90
0.275811 0.578238 -0.140617 123 125 114
-0.163932 -0.313687 -0.047352 58 56 46
-0.118505 0.266790 -0.085287 122 130 117
0.114967 0.077980 -0.112668 54 64 69
0.036346 -0.171625 -0.042026 55 62 54
-0.035686 0.254895 0.002202 137 150 137
-0.190924 -0.083553 -0.068049 141 148 140
-0.243953 0.148388 -0.134654 104 112 101
-0.232903 -0.153249 -0.051447 123 136 131
0.128448 -0.258018 -0.028285 122 126 119
0.281086 0.136274 0.020997 42 54 60
0.275842 0.198854 -0.011724 40 52 56
0.269716 0.206728 0.013497 40 50 55
-0.051426 0.082186 -0.101734 51 49 39
-0.280795 0.257183 -0.010695 137 147 135
0.111013 0.135563 -0.119278 48 58 63
0.243481 0.648497 -0.152446 75 80 70
-0.068588 0.259685 -0.017875 124 132 121
0.192646 -0.107145 -0.072682 57 66 78
-0.186557 0.262170 -0.037590 127 132 120
0.117521 -0.063639 -0.088506 50 64 70
0.337841 -0.202078 -0.015977 141 141 135
0.399742 0.257226 -0.085918 61 53 50
-0.300112 -0.193820 -0.073043 99 104 94
-0.356859 0.056346 -0.136088 111 113 102
-0.091571 0.572049 -0.026056 165 173 162
-0.142167 0.163619 -0.123539 109 111 102
-0.125825 0.081971 -0.110037 107 115 104
0.343713 0.045532 -0.055941 136 138 129
-0.213058 -0.255250 -0.058223 122 130 119
-0.218563 0.035967 -0.117056 69 76 68
-0.087919 -0.076291 -0.058683 147 160 155
-0.076788 -0.300729 -0.041888 127 127 121
-0.359885 -0.279875 -0.067059 101 105 98
0.180164 0.458294 -0.142959 131 132 119
-0.123662 0.578287 -0.079719 133 143 131
0.171964 -0.172597 0.054763 52 51 51
0.342645 -0.096572 -0.035091 138 142 135
-0.226944 0.261727 -0.142818 97 105 92
-0.194807 0.261342 -0.000034 147 157 145
-0.243252 0.257095 -0.145156 100 105 93
0.016462 0.045667 0.049750 92 106 108
-0.246502 -0.299986 -0.056863 118 119 113
0.283697 0.117071 -0.020615 46 56 61
0.193375 -0.207922 -0.023782 19 25 23
0.103275 0.217149 -0.057947 25 32 36
0.055415 0.011978 -0.088934 40 54 58
-0.073589 0.267251 -0.067995 120 130 116
-0.090454 -0.289717 -0.042877 117 122 112
0.248158 0.187649 -0.107334 63 75 81
-0.313207 0.273541 -0.112873 126 128 117
0.273503 -0.029763 0.052765 50 60 65
-0.359706 -0.270719 -0.065567 111 112 103
0.278027 -0.209388 -0.017345 35 26 29
-0.164166 0.266672 -0.078124 125 132 124
-0.082855 -0.177802 -0.027222 34 33 33
-0.293894 -0.159701 -0.078629 112 114 103
-0.358653 -0.182784 0.100904 10 10 10
0.141896 -0.074899 -0.085410 54 64 71
-0.197016 0.582705 -0.040732 141 149 138
0.166490 0.200037 -0.114194 41 55 59
-0.356098 -0.073322 0.045604 2 5 8
-0.067153 -0.302006 -0.041650 120 124 119
-0.212942 -0.240561 -0.059989 116 121 111
-0.379109 0.381083 -0.042172 139 137 129
0.134543 -0.201303 -0.031623 105 114 105
-0.266703 -0.319829 -0.057720 23 22 26
0.078272 0.545636 -0.164579 132 134 121
0.089825 0.215678 -0.060273 23 33 36
0.265494 -0.133453 0.024124 45 52 58
-0.374201 0.005794 -0.129296 56 49 39
-0.324483 -0.091209 -0.091706 103 107 100
0.296345 0.656510 -0.147197 142 140 128
0.094049 0.225997 0.034686 86 97 97
0.174280 0.445172 -0.142694 126 128 119
0.098856 -0.147934 -0.025089 43 49 49
0.302143 -0.179501 -0.021642 115 113 105
0.125393 0.171543 -0.120843 49 61 67
0.263103 -0.160708 0.091721 81 93 97
-0.060741 0.566297 -0.033909 144 146 135
0.356296 0.051786 -0.060323 140 142 131
0.036078 -0.169974 -0.042216 76 83 75
0.265156 -0.088431 -0.065838 52 59 67
-0.320886 -0.218249 0.344708 75 99 101
-0.110654 -0.030730 -0.060639 127 140 135
-0.269017 -0.162041 -0.078660 108 113 103
-0.326312 0.262506 -0.157058 103 104 91
-0.137168 0.159601 -0.122942 112 120 107
0.399478 -0.208660 -0.011046 136 143 137
0.260374 0.023038 -0.085830 67 79 83
-0.241378 0.169428 -0.136852 110 118 103
-0.116035 -0.013940 -0.052272 120 133 128
-0.271664 -0.159053 -0.078533 112 114 105
-0.208096 -0.284643 -0.053730 113 117 112
-0.202865 -0.215305 -0.063016 29 31 20
0.269674 -0.233501 -0.017005 124 124 118
-0.022037 -0.202502 -0.046374 115 116 107
-0.325243 0.275257 -0.137237 119 124 112
0.369239 0.335075 -0.102142 92 96 89
0.188379 -0.222632 -0.023776 123 125 116
0.259643 0.430233 -0.131003 134 135 126
0.050192 0.382887 -0.154087 93 98 88
0.361487 0.433759 -0.115835 139 141 132
-0.135076 -0.164969 -0.048171 139 154 151
-0.176269 0.577601 -0.127832 136 138 129
-0.100953 0.573463 -0.023756 149 154 144
0.131293 -0.077019 -0.085064 56 68 72
0.206045 0.477007 -0.140585 131 139 126
-0.228653 -0.013066 -0.056416 144 153 146
0.245385 0.518304 -0.139911 66 67 61
-0.338191 -0.103512 0.010033 13 19 17
-0.363028 0.461865 -0.192724 128 133 123
0.145727 0.655711 -0.164371 143 144 131
0.175579 0.527061 -0.148331 135 140 130
-0.342025 0.286438 -0.158145 104 106 93
0.393768 0.512056 -0.118795 140 148 137
0.094592 -0.270963 -0.030729 119 123 116
-0.018780 -0.281072 -0.036609 120 127 119
-0.157305 0.562606 -0.189890 135 139 132
-0.039132 0.067902 -0.098325 121 134 121
0.081364 0.588442 -0.169036 101 105 98
-0.201094 -0.085379 -0.068469 114 118 113
-0.350601 0.067249 -0.137322 102 107 95
0.043381 -0.047655 -0.042008 24 36 40
0.126943 0.646344 -0.166416 135 137 126
0.071995 -0.063239 -0.087651 49 63 69
-0.326426 0.176379 -0.150308 103 105 96
0.269979 -0.088146 -0.033376 39 46 52
0.370583 0.118925 -0.070559 137 142 130
-0.251441 -0.085983 -0.063291 116 124 123
-0.368593 -0.012751 -0.123320 103 113 101
-0.209169 -0.012190 -0.058405 114 127 122
0.395167 0.210263 -0.079276 103 104 93
-0.349011 0.097734 -0.142481 109 119 107
0.328348 -0.209887 -0.015671 72 66 68
0.065652 0.107501 -0.113192 48 62 66
0.073670 -0.224067 -0.034999 77 78 69
-0.103102 -0.258425 -0.044764 117 127 115
0.281660 0.100168 0.000053 41 55 59
-0.130454 0.563321 -0.183505 132 140 129
-0.060531 0.256196 -0.121795 100 110 98
0.095180 0.569315 -0.165398 129 134 122
-0.198020 0.272787 -0.111939 121 129 118
-0.306281 0.232036 -0.151697 112 114 105
0.344767 -0.042268 -0.043915 146 144 136
0.033993 -0.061207 0.008027 39 51 53
-0.231758 0.104725 -0.127025 103 110 102
-0.074491 0.569332 -0.123177 135 142 134
-0.343165 -0.234923 -0.012479 83 84 80
-0.230266 0.267463 -0.071805 124 132 121
0.373480 -0.167537 -0.017440 64 60 61
0.129820 0.061814 -0.108009 56 67 76
-0.339397 -0.142498 0.083467 67 0 0
0.165895 0.221824 0.041080 154 174 171
0.281846 0.151987 0.034098 48 55 61
-0.341070 -0.200974 -0.034373 44 44 40
-0.213177 0.066626 -0.119706 108 116 105
-0.164139 -0.280794 -0.048568 30 21 24
-0.089890 0.263734 0.002854 155 162 156
0.230809 -0.172962 -0.023478 95 97 86
0.216269 0.043109 -0.097015 53 63 68
-0.193025 -0.044012 -0.072699 128 142 133
0.274755 -0.206896 -0.017458 59 63 56
-0.154026 -0.133233 -0.056174 130 143 140
-0.367762 -0.194668 0.139774 45 49 42
0.096652 -0.090256 -0.081340 51 65 71
-0.141890 0.461005 -0.199395 124 133 124
0.281218 0.067770 -0.012115 47 55 56
0.056801 -0.277243 -0.032914 117 119 108
-0.210771 0.125193 -0.126920 103 111 98
0.222315 0.217335 -0.016629 32 39 45
-0.326000 -0.200934 -0.065047 100 104 97
0.029879 0.133553 0.027418 51 61 66
0.224946 0.102584 -0.103685 51 63 67
-0.296203 -0.124013 -0.084271 107 109 98
0.378455 -0.196790 -0.013798 138 143 133
0.359025 0.301054 -0.096006 147 152 140
0.348210 -0.065400 -0.042636 33 28 26
-0.230068 0.231406 -0.140809 108 116 103
-0.232759 -0.297778 -0.055557 117 118 109
-0.161327 -0.274140 -0.048988 119 121 112
0.113468 0.014841 -0.102563 54 66 72
-0.061150 0.003371 -0.089963 119 124 114
0.233387 0.085951 -0.101151 59 66 72
-0.121470 0.192114 -0.123673 110 115 105
-0.342244 -0.166149 0.069028 11 12 8
0.055191 -0.017325 -0.080381 41 55 59
-0.028252 -0.107740 -0.018208 40 41 35
-0.364301 -0.348279 -0.070362 119 120 116
0.244111 0.144302 -0.104467 62 69 77
-0.223234 -0.167589 -0.049293 126 137 133
0.306244 0.689135 -0.150979 144 146 130
0.289512 -0.036764 0.083446 128 134 134
0.190422 0.513418 -0.145976 129 134 120
0.293149 -0.153923 -0.022085 89 89 83
-0.107060 -0.191859 -0.053366 60 58 50
-0.053613 0.264836 -0.121034 96 101 91
0.193167 0.088601 -0.106030 52 58 69
-0.365381 -0.119766 -0.087049 111 112 106
0.263305 0.196364 -0.104667 50 62 68
0.052032 0.662485 -0.181514 62 67 57
-0.348734 0.276045 -0.088466 125 127 116
0.073349 0.113290 -0.117220 43 57 63
-0.345957 -0.072173 0.036157 13 14 10
0.233712 -0.201345 -0.020481 116 118 109
-0.116834 0.179897 -0.121733 62 72 60
-0.018070 -0.008184 -0.085069 119 127 114
0.110793 -0.228898 -0.031564 118 126 113
-0.305598 -0.242621 -0.068375 96 100 93
-0.349598 -0.236907 -0.071378 101 109 98
0.311405 0.457088 -0.124626 143 145 134
0.116507 -0.071851 -0.086830 51 65 71
-0.018219 -0.180258 -0.047623 117 125 114
-0.084728 -0.173825 -0.055467 59 59 55
0.281498 0.117900 -0.057300 40 52 56
-0.164636 -0.310969 -0.046762 7 3 4
0.274889 -0.020946 -0.037864 47 54 60
0.273544 -0.111132 0.046869 45 57 63
-0.057344 -0.160733 -0.053802 102 104 93
0.212959 0.474932 -0.139641 142 147 135
-0.376278 0.320185 -0.173703 110 108 100
-0.289868 0.205195 -0.147878 109 111 100
-0.063480 0.158259 -0.113785 105 115 103
0.377892 -0.039957 -0.042819 131 135 128
0.198683 -0.013013 -0.090179 52 64 68
-0.322239 0.233518 -0.155350 112 114 103
0.371299 0.407455 -0.110649 76 77 73
0.273067 -0.241881 -0.016378 92 96 91
0.158644 0.087697 -0.109897 52 62 67
-0.373887 0.121500 -0.148303 51 55 48
-0.202358 0.070734 -0.119054 114 122 109
-0.351818 -0.193092 0.233997 35 42 36
-0.077664 -0.016044 -0.089818 115 120 108
0.289114 -0.175459 -0.022002 112 114 103
-0.351567 -0.232144 -0.072128 52 47 45
-0.254513 -0.217060 -0.067609 115 122 114
-0.332910 0.569047 -0.103443 136 137 131
0.273622 0.001003 -0.062315 44 49 58
-0.005942 -0.110040 -0.057297 36 31 27
0.038356 0.497907 -0.163084 124 126 113
0.374963 0.027684 -0.054948 139 140 129
-0.153862 -0.164406 -0.050524 137 150 147
-0.113778 0.185033 -0.121190 107 120 107
-0.005080 -0.051449 -0.077393 110 118 105
-0.334562 -0.129840 -0.083510 98 100 89
0.352431 -0.045757 -0.045490 138 143 133
-0.335193 0.275114 -0.114667 124 129 119
0.391643 0.381120 -0.104957 138 140 129
0.144671 -0.205923 -0.030847 31 33 24
-0.015207 -0.055462 -0.076998 109 114 104
-0.175542 -0.148171 -0.055090 122 133 129
0.107558 -0.252412 -0.030415 27 27 27
0.192184 0.188736 -0.113792 51 63 65
0.209904 0.446639 -0.137682 131 133 122
0.035634 0.115585 -0.016181 36 46 49
-0.348477 -0.136343 0.106508 0 7 0
-0.364188 -0.193933 0.154836 58 62 57
-0.251183 0.026438 -0.119999 123 124 113
0.396506 -0.206117 -0.011428 138 139 133
-0.038733 -0.185358 -0.048916 112 117 107
-0.235970 -0.175973 -0.040708 127 131 126
0.100834 -0.148817 -0.026614 43 51 48
-0.013268 -0.108062 -0.056696 93 98 86
0.267987 -0.230801 -0.017110 126 127 121
0.272563 -0.173854 -0.021222 78 78 72
0.386244 0.186595 -0.076835 144 146 133
-0.300268 -0.282293 -0.063810 101 102 96
0.274515 -0.093196 0.014897 47 54 60
0.007922 0.153884 -0.108063 110 120 108
-0.288945 -0.029112 -0.110809 46 54 43
0.289058 -0.201159 -0.018180 117 121 114
-0.040192 -0.217358 -0.044919 110 114 107
0.056868 -0.248551 -0.034939 110 112 101
-0.321447 -0.179075 0.356325 98 121 126
-0.168163 -0.081827 -0.065801 132 143 141
0.232149 -0.164411 -0.024758 59 63 58
-0.249324 -0.198491 -0.071036 109 111 100
-0.054516 0.017306 -0.090855 113 121 110
-0.077313 0.561616 -0.163870 136 141 131
0.392327 -0.042022 -0.039096 139 139 133
-0.317436 -0.220041 0.326773 75 104 112
-0.213153 0.276776 -0.141221 84 86 77
-0.103102 -0.056559 -0.064207 136 151 148
-0.307744 0.568921 -0.045480 136 141 131
0.105255 0.116106 -0.118702 44 58 62
-0.194922 0.258446 -0.018695 128 133 123
-0.153300 -0.129487 -0.056406 133 148 145
-0.329905 -0.011320 -0.118467 117 122 110
-0.014398 0.143215 -0.109745 108 116 105
-0.131145 -0.232458 -0.051203 65 66 60
-0.345002 -0.324369 -0.068975 115 117 108
0.000754 -0.285171 -0.035601 82 82 82
-0.263132 -0.235429 -0.065976 44 51 45
-0.062887 0.101538 -0.105533 107 115 104
-0.342926 -0.155329 0.085873 9 12 11
0.134100 -0.025701 -0.095079 56 68 74
-0.234547 -0.128420 -0.058221 117 128 126
0.017109 0.659990 -0.184328 133 137 130
0.225265 0.197600 -0.108715 49 61 67
-0.131200 0.062474 -0.108190 117 122 110
0.281564 0.104587 -0.042786 41 51 56
-0.038502 -0.037170 -0.081595 110 115 105
-0.068579 -0.067746 -0.051577 135 146 144
-0.168789 -0.181869 -0.046443 138 149 147
0.161945 -0.254095 -0.025229 119 129 117
0.053091 -0.214655 -0.037981 113 118 108
-0.169398 0.256591 -0.135494 93 101 88
0.158140 -0.179401 -0.032200 91 98 90
0.159223 0.212276 -0.084589 22 32 35
-0.134626 -0.236825 -0.048603 107 108 102
-0.322123 -0.175129 0.307328 91 116 111
0.005313 0.271409 0.030974 154 163 156
0.270179 -0.072680 -0.055398 37 47 52
-0.334590 0.128697 -0.146296 80 81 68
0.281330 -0.037200 0.089076 83 95 101
-0.014459 0.070983 -0.098718 115 128 115
0.009776 0.062609 -0.093159 117 127 115
-0.357922 -0.184101 0.092471 4 8 3
0.157269 -0.239945 -0.025545 122 123 114
-0.091152 -0.053765 -0.060485 161 172 170
-0.197171 0.574863 -0.157342 135 140 130
0.227407 -0.037844 -0.085881 61 68 74
0.142599 0.024174 -0.101362 56 68 74
-0.229452 -0.188354 -0.034206 140 149 142
0.199984 0.403627 -0.139891 127 135 124
0.093615 0.178743 -0.120508 52 63 72
0.017172 -0.289615 -0.035683 115 122 116
-0.035900 -0.069994 -0.073969 114 122 109
-0.060417 0.220784 -0.121050 112 122 110
-0.372584 0.077830 -0.140298 9 14 4
0.281548 0.515754 -0.133770 73 73 67
-0.191277 0.213028 -0.134254 110 115 105
-0.061186 -0.266978 -0.040521 95 96 90
-0.347250 -0.198830 -0.007406 6 15 8
-0.182504 -0.237296 -0.057028 15 16 12
0.197906 0.427922 -0.139181 132 140 129
-0.326641 -0.343435 -0.068571 112 110 102
-0.308683 -0.285411 -0.063497 100 102 93
-0.351068 -0.166181 0.232125 49 49 45
-0.133923 -0.111036 -0.057815 122 137 134
0.115286 0.034964 -0.105811 54 68 72
0.201453 -0.167963 0.081413 147 166 166
0.025731 0.182765 0.016466 70 84 88
-0.055700 0.258659 0.000691 143 150 142
0.351778 -0.213488 -0.014539 144 149 139
-0.037807 0.082238 -0.100582 76 84 73
-0.295671 -0.110306 -0.086114 112 116 109
-0.354513 -0.136931 0.174247 48 55 47
0.280103 0.079331 0.013371 48 55 59
0.391694 0.515117 -0.119548 138 143 131
-0.223857 0.120609 -0.127804 108 116 105
-0.239900 -0.101821 -0.064516 113 126 121
-0.231032 0.178159 -0.135568 105 113 102
0.188148 -0.219564 -0.024082 123 124 115
0.057793 0.040680 -0.097522 48 58 63
-0.283641 -0.220382 -0.069145 118 119 110
-0.314828 -0.291013 -0.064158 100 102 91
0.014598 -0.267990 -0.035285 132 133 122
-0.245412 0.153521 -0.135815 105 110 98
0.231084 0.173246 -0.108671 57 67 72
-0.128861 0.572576 -0.147509 136 140 133
0.318440 0.428609 -0.122109 138 143 133
-0.290321 0.256547 -0.009544 143 147 140
0.014197 0.662919 -0.184565 49 54 44
0.355825 -0.011769 -0.051360 137 141 134
-0.034798 -0.130343 -0.054920 110 118 107
-0.039685 -0.114408 -0.058120 88 101 88
0.370619 -0.099005 -0.032214 140 145 133
0.220477 -0.011301 -0.088630 54 67 76
0.067705 0.092017 -0.112168 50 62 64
-0.201851 -0.243822 -0.057794 10 11 2
-0.192314 -0.237380 -0.057471 16 16 10
0.006183 0.139259 -0.107137 115 123 112
-0.020380 0.048776 -0.094740 123 128 116
0.340704 -0.161488 -0.021537 137 142 132
0.306080 0.386460 -0.120850 138 140 131
-0.361107 -0.108590 -0.089724 111 111 105
-0.073121 0.083424 -0.104414 0 2 0
0.047784 -0.181430 -0.040347 94 102 91
0.382678 0.075537 -0.061166 133 137 130
-0.137247 0.266295 0.001201 145 158 145
-0.076468 0.130983 -0.111191 21 21 17
-0.311948 -0.113952 -0.084760 104 105 96
-0.052714 0.259662 -0.120595 104 106 97
-0.081848 0.571885 -0.094724 135 143 130
-0.374739 0.107279 -0.144308 35 39 32
-0.343749 -0.163407 0.077748 8 11 10
-0.260582 0.200744 -0.142626 18 23 13
-0.108016 -0.182104 -0.028596 144 155 151
0.117516 0.552316 -0.157856 132 134 121
0.370187 0.067711 -0.062968 131 136 124
-0.022987 0.481469 -0.121315 144 156 148
0.262455 0.019441 -0.085784 61 75 81
0.169203 0.590196 -0.154498 137 139 130
0.197909 -0.245408 -0.021409 120 127 119
-0.348379 -0.152807 0.134177 52 54 45
0.085772 -0.196485 -0.036033 104 111 103
0.033624 0.388200 -0.154987 102 107 95
-0.333266 -0.123818 -0.084237 99 103 96
0.351487 0.188106 -0.080558 137 142 128
-0.270893 -0.326340 -0.058540 87 89 80
-0.073827 0.570537 -0.075323 136 144 133
-0.083803 0.244842 -0.123827 100 105 93
-0.019441 -0.041722 -0.080161 105 110 100
-0.169755 0.059467 -0.113755 115 117 106
0.002431 0.274404 -0.120725 1 5 0
-0.244018 0.251617 -0.144979 103 106 90
-0.370595 0.550321 -0.043240 137 133 124
-0.368156 0.388457 -0.135557 143 144 135
-0.133116 -0.172005 -0.045920 142 156 147
0.389995 -0.154966 -0.017858 143 144 135
-0.003979 -0.277036 -0.036346 114 121 113
-0.250292 -0.243305 -0.063702 125 126 115
0.209838 0.590207 -0.150699 133 141 128
0.033523 0.347396 -0.144352 107 115 104
-0.053495 -0.186151 -0.050001 113 118 108
0.006926 0.200705 -0.112133 119 127 114
-0.031492 0.545726 -0.067824 145 150 140
0.007205 0.326612 0.044672 156 171 166
-0.301437 0.171802 -0.146058 109 114 104
-0.345797 0.088315 -0.140866 108 110 97
-0.365201 -0.318599 -0.070814 62 63 59
0.197543 -0.257200 -0.021927 126 127 121
0.384715 0.016698 -0.051553 64 61 58
-0.349087 0.110220 -0.144054 105 110 96
0.055571 0.535626 -0.166485 69 67 57
-0.320034 -0.208155 -0.071429 102 107 95
-0.019629 -0.110976 -0.056936 0 1 0
0.143789 0.080734 -0.110657 51 64 73
-0.061318 -0.005127 -0.089024 113 118 106
-0.144732 -0.253949 -0.050426 115 120 110
-0.354476 -0.171145 0.008882 2 1 1
0.118845 0.567237 -0.160179 128 130 121
0.281930 0.166896 -0.015055 40 47 51
-0.209171 -0.051117 -0.072633 119 126 120
-0.107412 -0.068861 -0.063818 135 150 147
-0.001160 -0.097726 -0.059344 113 121 110
0.304813 -0.141601 -0.023961 80 87 79
0.031501 0.154079 0.018840 34 44 47
0.022658 0.342383 -0.140680 87 95 80
0.253966 0.215336 -0.032101 33 38 43
0.209253 0.213842 -0.065089 27 37 40
-0.268878 0.112288 -0.134090 105 113 100
-0.175768 0.576118 -0.139547 137 139 130
-0.191692 -0.295742 -0.051330 125 126 120
-0.169634 -0.112636 -0.036944 109 118 111
0.119800 -0.238257 -0.030024 119 121 112
-0.111002 -0.029120 -0.060015 127 140 137
-0.278933 -0.295881 -0.061222 122 123 114
-0.106611 0.531946 -0.199800 147 155 142
-0.292552 -0.129191 -0.083160 112 114 105
0.345883 -0.191342 -0.016584 132 139 131
0.366768 -0.145546 -0.021426 137 139 130
0.282540 0.033223 0.079824 83 95 101
-0.011521 -0.189191 -0.046418 119 124 114
-0.198605 -0.223195 -0.060982 106 114 103
0.163364 0.047415 -0.102821 50 62 68
-0.342312 -0.238827 -0.071455 101 101 97
0.290437 -0.188339 -0.019225 117 117 111
0.361457 0.430801 -0.115600 137 139 130
-0.039454 -0.205471 -0.047262 111 118 110
0.377412 -0.181360 -0.015106 136 133 130
0.030023 -0.156331 0.070994 136 147 147
-0.298647 0.269800 -0.068450 129 134 124
-0.289137 0.272504 -0.151890 95 97 86
-0.361660 0.381446 -0.153273 140 142 133
0.006908 -0.235169 -0.039349 119 117 107
-0.272024 -0.233693 -0.066442 50 45 43
-0.238786 0.265409 -0.144421 96 98 85
-0.308076 -0.266098 -0.065644 55 60 50
0.143994 0.428283 -0.144675 75 76 67
-0.352105 -0.116460 0.077796 17 18 14
-0.323551 -0.202294 -0.070579 101 105 100
0.031044 0.500026 -0.164040 111 113 100
-0.235489 -0.130643 -0.057468 118 131 128
0.016768 -0.191181 -0.043727 116 120 113
-0.269255 0.574850 -0.128737 137 139 130
0.273879 -0.013355 -0.054281 33 50 55
0.276660 0.196750 -0.007872 40 52 56
-0.190996 -0.189009 -0.041648 135 143 142
-0.077448 -0.211749 -0.050048 109 109 103
-0.350919 -0.179422 0.227915 48 45 40
-0.241055 0.032293 -0.118969 114 119 109
-0.347896 -0.159204 0.127765 82 85 84
0.152666 -0.050746 -0.090070 51 62 71
0.387996 0.113700 -0.065360 139 141 132
0.248452 0.213158 -0.061531 32 39 43
0.363454 0.044801 -0.059257 137 139 130
-0.293552 -0.131323 -0.082822 110 111 105
0.263293 -0.178527 -0.022011 111 113 104
-0.310523 0.253853 -0.154665 103 104 91
-0.367613 0.468006 -0.176038 139 137 127
-0.252765 -0.296312 -0.058306 119 120 114
-0.324009 0.148249 -0.147260 79 80 74
-0.215245 -0.033267 -0.067025 113 127 118
-0.221841 0.264247 -0.047813 124 132 121
0.132218 0.212260 0.037589 68 78 85
-0.022788 -0.238851 -0.039785 119 121 112
-0.333291 -0.106199 0.006093 21 27 25
0.192990 0.179624 -0.113890 51 61 66
0.031151 -0.160788 0.066074 65 70 79
-0.023370 -0.179329 -0.048501 113 121 110
0.156799 -0.200851 -0.029641 110 115 105
0.018386 -0.057639 0.048948 72 85 94
-0.158625 0.163508 -0.125293 105 115 103
0.229211 -0.164566 0.076559 68 80 86
-0.137821 -0.167252 -0.047917 140 156 147
-0.353140 -0.023230 -0.120848 105 107 98
0.275756 0.047444 0.058290 49 61 65
0.005545 -0.126993 -0.052391 127 132 122
0.274741 -0.064185 -0.001167 44 54 57
0.244532 0.616603 -0.149392 105 109 104
-0.144821 0.272329 -0.131611 0 8 0
0.178821 -0.159774 -0.030664 62 69 63
-0.045135 -0.186448 -0.049267 112 117 107
0.116636 0.410150 -0.147750 108 113 101
0.276754 0.039351 0.039868 50 60 65
0.356951 0.249083 -0.087595 135 140 128
-0.021263 -0.246217 -0.040198 117 122 110
0.184311 -0.159429 0.082087 73 83 90
-0.051080 0.270833 -0.110067 120 128 115
-0.350897 -0.223224 0.007939 9 12 11
0.281347 0.210882 0.052697 92 95 98
0.347682 -0.021905 -0.048180 108 108 104
-0.025098 0.220722 -0.116533 91 99 88
-0.226678 0.270407 -0.103070 119 127 116
0.185934 -0.191561 -0.026365 105 106 100
0.261488 -0.156818 0.086898 72 81 91
-0.133995 0.260588 -0.036044 125 132 124
0.381736 0.334414 -0.100861 139 147 134
0.223061 0.497984 -0.139717 129 134 120
0.329582 0.533799 -0.131090 141 142 129
-0.006033 -0.226134 -0.041547 123 127 122
0.177305 0.036596 -0.099946 49 62 73
0.151544 -0.175207 -0.034636 86 90 83
-0.296207 0.570479 -0.157758 129 133 126
0.065429 0.218650 0.019580 34 44 49
0.355590 0.092505 -0.065343 105 107 98
-0.015078 -0.229275 -0.041813 119 126 118
0.013010 -0.188444 -0.044436 117 122 110
0.083176 -0.235030 -0.033289 111 118 110
-0.161478 0.090411 -0.114958 108 113 103
-0.120491 0.448711 -0.192937 128 136 125
0.052697 -0.075699 -0.056426 38 52 56
0.214922 -0.206217 -0.020632 124 124 118
-0.161989 -0.021342 -0.065429 124 137 134
-0.006162 0.304435 0.019369 152 166 155
0.084040 -0.272646 -0.031830 119 120 114
0.392795 0.474531 -0.115558 143 145 132
0.374262 0.087449 -0.064164 137 142 132
-0.123845 -0.217542 -0.054575 97 97 91
0.066580 0.544374 -0.166345 130 135 121
0.122061 -0.244007 -0.029432 113 122 115
0.274315 -0.013855 0.048332 50 62 66
-0.233504 0.236354 -0.141736 103 108 96
-0.103269 -0.136538 -0.048514 125 140 135
-0.348516 -0.180994 0.054279 11 15 8
-0.165162 -0.217828 -0.057845 102 102 98
0.050533 -0.238872 -0.035667 111 118 110
-0.181370 0.570146 -0.172496 135 140 128
0.002782 0.035496 -0.091984 114 116 107
-0.185107 -0.300898 -0.049213 122 123 117
0.272358 -0.061636 0.060101 47 59 63
-0.123489 -0.212557 -0.054812 91 96 86
-0.289709 -0.142079 -0.080978 115 120 110
0.382969 0.283642 -0.091516 146 148 137
0.362896 0.627196 -0.136573 150 148 138
-0.072629 0.517486 -0.191932 135 142 134
-0.145600 0.575389 -0.039336 138 142 135
0.180373 -0.012001 -0.091978 53 63 70
0.250200 -0.174437 -0.022537 106 110 103
0.206240 0.673078 -0.159934 115 117 106
-0.315687 -0.018252 -0.115112 107 112 98
-0.342354 -0.156524 0.081131 10 11 7
-0.204576 0.086709 -0.120753 110 118 105
-0.095058 -0.252316 -0.045017 116 117 113
0.354644 -0.077130 -0.040699 94 96 87
-0.151248 0.072761 -0.110887 112 120 109
-0.115628 0.255749 0.005654 160 172 164
0.261429 -0.162976 0.087879 76 86 91
-0.306593 -0.239610 -0.068151 91 88 85
-0.129459 -0.189404 -0.034514 144 155 153
-0.219877 -0.019850 -0.059384 114 122 119
-0.104670 0.112294 -0.112747 103 111 100
-0.144632 -0.017259 -0.062298 125 140 135
-0.268536 -0.182423 -0.074250 117 119 110
0.159209 -0.244210 -0.024887 121 128 120
0.057491 0.212753 -0.040659 27 35 36
0.215303 0.215296 -0.049716 30 40 43
-0.208120 -0.328175 -0.050834 124 125 119
-0.310421 0.051137 -0.128776 67 61 48
-0.259624 -0.076699 -0.052948 111 119 118
0.162738 0.449846 -0.144717 127 132 122
-0.069889 -0.283562 -0.040160 45 37 36
0.008189 -0.170805 -0.046104 119 121 112
0.266556 -0.097983 -0.037599 34 48 50
0.231826 -0.110267 -0.066853 64 73 85
-0.224515 -0.288796 -0.055308 123 125 116
0.255051 -0.180190 -0.021160 111 113 104
0.163190 0.443840 -0.144277 129 131 120
0.365154 -0.088668 -0.036074 138 140 131
-0.022082 0.014588 -0.088460 115 123 112
0.276110 -0.018002 0.004655 47 59 65
0.279966 0.187794 0.047791 51 61 66
0.318115 0.489742 -0.127552 139 142 126
0.283346 0.172363 0.049945 58 72 78
0.283161 0.140262 0.058756 80 94 100
-0.377101 0.068685 -0.137681 112 113 100
0.070870 -0.277808 -0.032329 122 125 124
-0.040209 0.545707 -0.143376 139 149 137
0.002166 0.248245 -0.119431 23 27 20
-0.353766 -0.325952 -0.068732 119 120 114
-0.350802 -0.141253 0.145313 91 92 86
0.073007 -0.230500 -0.034343 16 13 8
0.181885 0.537864 -0.148479 136 137 126
0.284851 0.053715 0.076252 84 94 101
0.087272 0.082421 -0.115719 51 65 71
-0.351757 -0.235631 -0.071504 103 111 98
0.251269 -0.209374 -0.018380 53 50 45
-0.218800 -0.262626 -0.057899 123 124 115
-0.179291 -0.147028 -0.055449 122 133 129
0.209501 -0.192768 -0.022808 114 116 107
-0.261421 0.277118 -0.145831 89 94 84
0.276855 0.001018 -0.006214 47 59 65
-0.154081 -0.061088 -0.068506 134 147 144
-0.280816 -0.277480 -0.062659 31 22 25
-0.301853 -0.024811 -0.112573 108 113 99
0.032718 0.449030 -0.159702 96 101 89
0.213197 0.066654 -0.100143 53 65 71
0.278917 0.063201 0.030308 47 59 63
-0.359109 -0.184449 0.136616 65 66 60
-0.354467 -0.079644 0.036998 12 13 9
-0.371272 0.317206 -0.073580 139 139 133
-0.205205 0.058950 -0.118624 117 119 110
0.278445 0.216481 0.049814 87 98 94
-0.084036 0.551823 -0.183401 132 139 133
0.104276 0.223465 0.041631 157 182 177
0.255999 -0.160481 -0.022966 95 96 85
0.132749 0.389384 -0.148885 125 127 116
-0.348000 0.060098 -0.135472 107 109 100
-0.164355 0.272733 -0.134758 91 96 84
-0.279387 0.575267 -0.138297 136 137 131
-0.226049 -0.231115 -0.062432 119 120 109
0.020942 -0.083712 0.051271 60 82 83
-0.232070 -0.213392 -0.065770 115 116 105
0.003725 0.091136 -0.101325 112 121 112
-0.232414 0.043065 -0.119781 118 128 112
0.184281 -0.247600 -0.022702 114 115 109
0.083985 -0.217408 -0.035702 122 123 119
-0.349921 -0.149616 0.164497 45 49 44
0.250261 0.574734 -0.143602 141 149 136
0.274215 0.029430 0.080463 74 86 88
0.275067 -0.054527 -0.003695 45 57 61
0.163507 0.467713 -0.145002 127 135 122
0.228963 0.650129 -0.154459 144 145 132
0.266765 -0.131844 0.024961 47 52 61
0.013282 0.199005 -0.111013 100 112 104
-0.197750 -0.316266 -0.050103 91 91 87
-0.360611 -0.114452 -0.088834 114 118 111
-0.140318 -0.205418 -0.056552 58 55 50
0.111925 -0.238018 -0.030688 117 121 114
-0.029412 0.273791 -0.122663 98 105 97
0.065202 -0.055878 -0.085391 52 64 70
-0.323927 -0.187675 0.362497 100 123 130
0.031600 -0.099866 0.012593 37 47 54
0.124915 0.117076 -0.117002 45 57 61
-0.061717 -0.057440 -0.080672 47 47 43
-0.293220 0.053816 -0.127052 3 3 0
-0.060149 -0.123348 -0.020816 143 155 147
-0.229656 -0.079103 -0.070036 115 126 124
0.220372 0.422028 -0.135772 83 84 78
-0.136795 -0.206344 -0.056829 78 76 68
0.210808 0.217451 -0.017156 31 38 42
-0.052254 0.086615 -0.102202 118 126 113
-0.270793 0.264879 -0.008112 144 157 144
0.246186 0.557372 -0.142629 135 140 126
0.179167 0.544090 -0.149313 132 134 121
-0.140127 0.261454 0.003488 143 157 146
0.189210 -0.103688 -0.074630 57 69 75
-0.355619 -0.178340 0.106832 2 5 4
0.365498 -0.140667 -0.022500 137 139 130
0.280611 0.127633 0.040392 45 55 60
0.144602 0.197011 -0.117049 44 56 60
-0.333249 0.554381 -0.184824 130 132 121
0.000135 0.114540 -0.105416 11 16 6
0.163997 -0.229734 -0.025278 116 120 113
-0.328714 0.273896 -0.100372 129 127 119
-0.210919 -0.127200 -0.058983 119 130 126
-0.377927 0.276490 -0.166853 60 58 48
-0.370893 -0.091315 -0.090288 69 70 66
0.346793 0.247160 -0.088009 137 142 132
-0.341971 -0.129672 0.074797 13 20 14
-0.018272 0.204725 -0.115821 121 126 114
0.131260 0.219126 -0.058961 28 33 40
-0.075256 -0.234558 -0.045902 116 118 107
0.276395 -0.014095 0.008837 47 59 65
-0.322104 0.169283 -0.149241 98 106 93
-0.047041 0.007656 -0.088661 115 117 106
0.268589 0.606217 -0.145661 144 145 132
0.107490 0.018094 -0.103474 57 67 74
-0.350113 -0.148497 0.165266 48 52 47
0.204964 0.009138 -0.093452 53 63 68
-0.013956 -0.281759 -0.036248 123 127 122
-0.232587 -0.055588 -0.068343 120 126 124
0.352829 0.125705 -0.069932 130 135 125
-0.108110 0.486375 -0.198260 127 135 124
0.113982 -0.064306 -0.088533 54 66 72
0.100317 -0.208407 -0.034685 113 121 110
-0.305429 0.163705 -0.146197 105 111 94
0.188452 0.066847 -0.102304 52 64 70
-0.355943 -0.127074 0.132321 90 91 85
-0.251190 -0.055146 -0.059793 112 120 117
0.268912 0.094511 -0.090039 50 62 66
0.051096 0.214690 -0.009998 28 40 44
-0.315380 0.239994 -0.155031 110 112 103
0.283652 0.158168 -0.038266 41 46 55
0.364930 0.117967 -0.070965 141 146 132
-0.366790 0.406254 -0.156530 140 142 131
0.275043 0.197718 0.050811 60 65 74
-0.223157 0.088562 -0.123103 109 121 111
-0.132119 0.435148 -0.194353 126 139 126
0.018663 -0.059392 0.049130 73 87 93
0.248769 0.551274 -0.141995 142 144 131
0.186048 -0.015172 -0.090980 52 64 68
-0.014229 -0.272819 -0.036802 117 118 112
0.394962 -0.152455 -0.017944 144 145 136
-0.113450 -0.286048 -0.044579 112 117 105
-0.178031 0.038714 -0.109970 92 101 94
0.006622 -0.233651 -0.039442 103 101 93
0.282530 0.029452 0.080154 84 94 101
-0.021314 0.269361 -0.057861 122 130 115
0.286027 -0.138712 0.091912 112 123 123
0.013492 -0.278461 -0.036035 129 133 126
0.230510 0.105630 -0.103146 54 61 67
-0.173378 0.264339 -0.053379 127 132 122
-0.232987 -0.171101 -0.043783 127 136 129
-0.056469 0.088269 -0.102865 107 116 107
-0.012022 0.286149 -0.123878 98 103 89
0.210954 0.033204 -0.095345 55 65 72
0.168292 0.648375 -0.161348 38 40 31
-0.075880 0.571237 -0.051589 138 143 133
0.282020 0.150443 -0.057446 46 48 56
-0.008337 0.271172 0.014500 164 171 165
-0.252871 0.268991 -0.146567 95 97 84
-0.327469 0.113875 -0.142427 108 109 98
0.173496 -0.212566 -0.026162 0 1 0
0.012904 0.173703 -0.108359 56 60 55
-0.004050 0.436089 0.024019 151 166 161
-0.119424 0.255375 0.005000 144 156 148
-0.314448 0.274305 -0.121536 119 127 114
-0.253466 -0.316281 -0.056072 118 119 110
0.361233 -0.198167 -0.014642 140 142 133
-0.210727 -0.226929 -0.061436 106 111 99
0.022425 0.063680 0.047380 70 87 92
-0.346260 -0.350248 -0.065079 113 113 107
-0.314696 0.276780 -0.154776 103 101 89
-0.172597 -0.300350 -0.048168 120 125 115
-0.082015 0.269409 -0.125800 91 96 82
0.240316 -0.053643 -0.081816 62 69 77
-0.205169 -0.323199 -0.051553 68 68 64
-0.357270 0.103791 -0.143990 78 69 60
-0.287781 0.001029 -0.117730 25 23 13
0.215207 0.175930 -0.111296 48 58 63
-0.375738 -0.009419 -0.124594 99 103 96
-0.354702 -0.132219 0.157549 16 16 16
0.029255 -0.253143 -0.036658 119 121 112
-0.336822 0.074492 -0.137058 110 115 105
0.274292 -0.091739 0.009958 47 54 60
-0.048178 -0.052738 -0.081087 107 120 107
0.019862 -0.236163 -0.038240 122 129 121
-0.231650 -0.120708 -0.058167 107 118 116
0.014131 -0.032624 0.050113 83 102 104
0.372674 0.539813 -0.126117 143 144 133
-0.058397 -0.171354 -0.052741 98 103 89
0.254793 0.593991 -0.146377 136 144 131
-0.049867 -0.281878 -0.037944 123 127 120
-0.051382 0.257686 -0.003192 133 145 135
-0.000971 0.212838 -0.115074 83 90 82
0.322860 -0.177537 -0.020737 138 140 131
0.133786 -0.207619 -0.032135 112 122 108
0.216565 0.382852 -0.136506 130 135 125
-0.105738 0.146292 -0.116683 109 114 102
-0.223884 -0.261931 -0.058120 119 121 112
-0.279176 -0.321639 -0.060168 96 104 93
-0.340137 -0.118944 0.050100 9 13 8
0.141161 0.219630 -0.019169 31 38 42
0.147756 -0.012737 -0.096531 54 66 72
0.023454 -0.264930 -0.035322 123 128 118
0.031983 -0.222890 -0.039313 108 113 103
0.124941 0.203922 -0.115592 37 51 57
0.214857 0.071373 -0.100557 54 61 69
0.272529 0.205763 -0.020799 43 49 60
-0.064655 -0.078022 -0.051674 136 149 144
0.167770 0.063429 -0.103967 52 66 72
0.376621 0.055599 -0.059822 134 132 122
0.193214 -0.206423 -0.023677 80 80 76
0.007845 -0.273557 -0.035831 122 124 115
-0.365805 0.535738 -0.166584 137 138 127
0.077890 -0.161616 0.067487 71 88 91
-0.001710 -0.161880 -0.048862 119 124 112
0.060807 0.695338 -0.181201 85 90 80
-0.289087 0.194929 -0.147196 62 66 59
-0.037630 0.070129 -0.097852 90 100 88
0.064126 -0.062630 -0.082828 55 62 68
-0.088745 -0.308715 -0.041347 125 123 115
0.259776 0.427379 -0.130906 132 133 122
-0.335969 -0.016463 -0.118989 107 117 105
0.011470 0.051635 -0.091509 108 115 107
0.046883 0.104887 -0.084867 24 31 35
-0.266323 -0.061804 -0.055641 136 148 140
0.254840 0.215046 -0.035118 32 39 43
-0.084618 -0.135489 -0.040564 139 153 144
-0.036817 -0.154092 -0.051696 0 2 1
-0.353859 -0.141242 0.183714 53 55 46
-0.089620 -0.222281 -0.048760 100 105 95
-0.223637 -0.087506 -0.069533 128 142 133
-0.017328 -0.053426 -0.078488 114 116 107
-0.176957 -0.019153 -0.063761 123 134 132
-0.150431 -0.205357 -0.025582 139 150 146
0.026238 -0.095076 0.048507 54 64 71
0.289927 0.606147 -0.143402 141 143 127
0.370720 0.082886 -0.064780 141 142 133
-0.285613 -0.273487 -0.063553 117 118 112
0.094775 -0.053840 -0.091302 56 68 72
-0.020823 0.360222 -0.086500 142 151 144
0.120137 -0.265257 -0.029158 118 125 117
-0.349946 -0.168259 0.221992 46 46 42
-0.286843 0.267939 -0.059037 129 134 124
0.200399 -0.166056 -0.028704 66 70 65
-0.273329 0.106571 -0.133796 106 114 101
0.225126 0.217874 -0.005562 38 45 49
-0.135935 -0.190169 -0.036144 146 157 155
0.281433 -0.043947 0.089299 83 93 100
0.088347 0.108837 -0.120029 44 63 67
-0.029409 0.376915 -0.118073 147 156 149
0.090506 0.445589 -0.153200 124 132 117
0.019094 -0.021674 0.047840 77 91 97
0.241082 -0.188978 -0.021234 65 65 61
-0.167307 -0.051713 -0.069782 134 148 139
0.023125 -0.254149 -0.037120 128 130 119
-0.025593 0.249723 -0.119452 106 114 101
-0.362031 0.442759 -0.188043 131 133 124
-0.284387 -0.190700 -0.073680 47 48 44
0.281299 0.100584 -0.047631 43 55 61
-0.340106 -0.227585 -0.014190 12 18 16
-0.275682 -0.304580 -0.060186 115 119 112
-0.336636 -0.138826 0.059643 13 16 15
-0.142339 -0.010775 -0.058046 124 137 132
0.393571 0.559320 -0.125478 80 76 65
0.294831 0.564747 -0.137752 100 105 95
0.067133 0.587585 -0.171912 91 93 84
0.282738 0.141004 -0.014446 45 52 60
0.043628 0.130896 -0.072818 26 33 39
-0.290284 -0.291558 -0.062483 119 117 109
-0.215384 -0.054503 -0.072083 224 233 224
0.181938 -0.167389 0.082406 159 178 178
0.128119 -0.059215 -0.090077 57 64 72
0.111746 -0.078898 -0.085012 52 64 68
