ply
format ascii 1.0
element vertex 1225
property float x
property float y
property float z
property uchar red
property uchar green
property uchar blue
end_header
-0.367197 -0.088116 0.017048 119 130 126
-0.107060 -0.055433 0.000920 120 134 136
-0.394005 -0.084202 0.016175 124 136 128
-0.326721 -0.279758 0.010581 155 153 143
-0.245576 -0.270155 0.008903 146 152 150
0.213593 0.303013 0.004139 106 116 104
0.393780 0.526475 0.016790 152 153 144
0.086634 -0.276760 0.015189 130 134 129
-0.457542 -0.061970 0.447659 127 127 123
-0.131752 -0.185759 0.031911 98 113 108
-0.212556 -0.107710 0.004547 119 131 123
0.252176 -0.142259 0.012978 100 107 99
-0.236091 -0.098528 0.281759 34 40 38
-0.059121 0.429454 0.048164 156 164 161
-0.431440 -0.040456 0.019543 135 142 136
0.272210 0.426345 0.010664 97 106 99
-0.389025 -0.026927 0.326780 77 83 81
0.033992 0.192305 0.001113 111 127 118
0.172653 -0.129264 0.011461 84 95 91
-0.099376 -0.158626 0.033103 65 79 85
0.223879 0.005810 0.009237 31 43 45
-0.394591 -0.030923 0.333787 79 83 78
-0.245074 -0.114889 0.278457 22 30 31
0.253187 0.481619 0.010053 142 139 134
-0.295079 0.437785 0.001950 153 153 147
-0.322831 -0.116761 0.393898 127 166 171
-0.247036 -0.099434 0.293855 26 48 49
-0.089443 -0.177127 0.031427 133 152 152
-0.355842 -0.028932 0.020279 34 37 40
-0.145306 -0.213794 0.052928 150 161 159
-0.038535 -0.026364 0.001965 27 36 27
-0.478278 -0.068148 0.022702 87 94 88
0.067878 0.334006 0.098197 166 177 175
0.031648 -0.260194 0.013274 85 88 87
-0.294130 0.508655 0.003359 153 154 145
0.182649 -0.247556 0.014155 135 136 130
-0.031159 0.166305 0.001422 108 124 113
0.032073 0.136012 0.004446 107 116 109
0.231022 0.181750 0.118243 53 69 77
-0.175641 0.184084 -0.000134 89 101 93
-0.012015 -0.129180 0.028801 127 149 150
-0.072414 -0.288428 0.010682 128 135 129
-0.049870 -0.037632 0.000522 73 89 80
0.037011 0.372618 0.026863 157 172 169
0.305116 -0.241636 0.016823 136 136 130
-0.464055 -0.065290 0.446514 117 118 112
-0.036412 -0.103879 0.022728 125 147 146
-0.271767 -0.072056 0.014316 114 123 114
-0.363428 0.179636 -0.003434 118 127 120
-0.016888 -0.180925 0.033021 141 160 160
0.294616 -0.243260 0.016741 131 132 126
0.388209 0.080198 0.016727 93 99 99
0.261437 -0.222712 0.014357 130 131 122
-0.057116 -0.168960 0.033086 120 142 143
-0.346238 -0.023960 0.296807 77 85 82
-0.263958 -0.063673 0.293901 125 134 125
0.111469 -0.263825 0.014548 124 129 119
-0.032723 0.361184 0.030279 129 142 139
0.211713 0.426592 0.009167 79 86 80
0.314331 -0.167694 0.014975 120 125 115
-0.175794 -0.194976 0.005543 130 142 134
-0.006780 0.228733 0.056304 131 145 136
0.332687 -0.243771 0.019208 136 132 125
0.174020 -0.093613 0.009439 26 38 40
-0.183432 -0.046380 0.007096 104 114 102
-0.296987 -0.128210 0.317115 59 68 61
0.146414 -0.127231 0.010598 84 96 88
-0.156715 0.024661 0.003252 56 74 68
-0.226289 0.156317 -0.000009 120 134 123
-0.447973 -0.038872 0.457523 252 254 243
0.023904 0.221631 -0.001143 112 122 110
-0.429347 -0.098139 0.253885 81 84 83
0.238268 -0.155685 0.120085 103 115 121
-0.235071 0.454767 0.120929 173 175 166
-0.341537 -0.147588 0.378806 88 121 123
-0.015326 -0.167448 0.066407 54 64 69
0.219109 -0.053836 0.010198 30 40 43
-0.313888 -0.210992 0.009342 148 153 143
0.124813 -0.023196 0.010760 25 37 39
-0.407832 -0.016505 0.363081 177 180 183
0.257543 -0.028743 0.011235 43 55 59
-0.093192 -0.134246 0.021289 126 145 147
-0.169607 0.444421 0.088587 165 169 164
0.304900 0.011452 0.079213 62 75 84
0.233661 0.181802 0.121501 61 77 85
-0.231920 0.203790 -0.003147 55 63 60
0.211320 -0.132884 0.011598 45 53 52
-0.175375 -0.223677 0.004940 132 141 134
0.385476 -0.277384 0.024936 138 134 135
0.329782 0.057340 0.121505 92 104 108
-0.336521 -0.124061 0.015871 135 143 132
-0.068437 0.224603 0.075053 136 150 141
-0.216729 -0.042354 0.254134 26 37 35
-0.325278 0.438294 0.000739 94 94 88
-0.009623 0.544450 0.041139 163 168 158
0.218499 0.067312 0.010268 29 41 43
0.070684 0.248858 -0.001864 100 109 100
-0.139837 -0.232603 0.007693 126 138 130
-0.215919 -0.083746 0.265498 30 34 27
0.162219 -0.165696 0.013842 108 115 109
0.314452 0.120270 0.113108 67 83 93
-0.149412 0.070499 0.002919 105 117 107
0.017671 0.154807 0.002558 106 120 111
-0.212460 0.224800 -0.002700 90 99 92
0.113711 0.358009 0.003614 113 122 115
-0.322009 -0.298626 0.010442 126 134 131
0.291356 -0.061971 0.048903 52 63 72
0.087956 0.121304 0.024429 87 110 106
-0.461499 -0.066194 0.432742 67 67 61
0.390067 -0.272535 0.024653 141 136 134
0.230980 -0.270816 0.016024 135 133 125
-0.362431 0.058795 0.265902 132 162 167
0.361326 0.330720 0.020879 139 139 133
0.223079 -0.237737 0.014401 116 120 113
0.132537 0.099070 0.013852 22 34 36
-0.245500 -0.155878 0.009175 130 139 130
0.203355 0.054502 0.010473 27 37 40
0.159574 -0.229217 0.013933 51 51 51
-0.403866 -0.128353 0.005652 47 47 49
0.387545 0.454398 0.018562 147 148 139
-0.003994 0.045039 0.005640 106 120 111
-0.184049 0.100569 0.006246 93 109 100
-0.005724 -0.206188 0.040296 160 177 178
0.270160 0.412363 0.011257 145 146 140
-0.308656 -0.299000 0.013092 115 122 116
-0.192477 -0.287503 0.006492 149 155 153
-0.269070 0.340671 0.124632 175 182 176
-0.473260 -0.046132 0.490797 232 218 214
-0.024949 0.171269 0.000790 114 128 117
-0.323476 -0.130444 0.384081 115 156 162
0.276635 -0.079100 0.022991 61 73 79
0.221667 0.365382 0.009637 102 106 101
-0.309009 -0.117411 0.017837 131 140 131
0.228218 -0.288454 0.016025 140 136 139
-0.453235 -0.052784 0.421856 119 118 122
0.035527 0.315862 0.028183 153 164 162
-0.380835 0.113019 0.020624 121 134 129
0.128107 -0.265455 0.014359 84 85 81
0.391736 -0.029728 0.015191 92 97 102
0.153543 -0.127218 0.010588 78 86 85
-0.244999 -0.088718 0.293040 29 42 53
-0.145404 -0.006849 0.001581 98 114 105
0.052286 0.229600 0.099700 144 159 158
0.371771 0.269245 0.020269 126 130 123
-0.430092 0.050232 0.289117 173 142 144
0.303831 -0.008906 0.077283 61 74 83
-0.217867 -0.160408 0.006338 128 140 132
-0.289010 0.543952 0.005585 141 139 131
-0.179830 -0.155328 0.007239 119 130 126
-0.162493 0.045908 0.006184 76 82 80
0.210862 -0.169163 0.013691 114 121 115
0.274902 -0.056410 0.017843 50 64 70
-0.019508 0.161615 0.001893 110 124 113
-0.198664 0.240850 -0.001582 62 73 69
0.266948 0.160003 0.021237 33 47 53
-0.015662 -0.226768 0.044382 156 173 176
-0.042468 0.125929 0.001482 106 115 106
0.170031 0.419102 0.007603 113 118 108
0.068470 -0.208150 0.010374 114 126 116
0.029102 0.233713 0.038871 130 142 134
0.082846 0.179911 0.003411 111 123 115
0.207873 -0.070846 0.009381 28 40 42
0.286193 -0.105300 0.052015 54 67 78
-0.305208 0.133738 -0.000666 139 147 134
0.299127 -0.107365 0.095851 59 72 83
-0.254090 -0.115276 0.011108 122 134 126
0.118436 0.310745 0.002083 113 117 110
0.318246 0.110594 0.126225 81 94 103
0.024486 0.235064 0.000155 77 88 84
-0.115470 0.217729 0.110537 141 156 151
0.050817 -0.233596 0.011459 109 120 116
0.336662 -0.142764 0.015103 115 116 112
-0.174411 0.240797 -0.004807 112 121 112
-0.250159 -0.276633 0.009520 151 152 146
-0.408786 -0.044114 0.318913 55 62 56
0.163059 0.114174 0.014421 19 31 33
-0.031375 -0.089973 0.030739 135 157 156
0.094917 0.184568 0.111533 45 58 67
-0.004357 0.036921 0.005289 104 118 109
-0.342028 0.103932 -0.002676 172 180 165
0.144686 -0.196913 0.013487 119 126 118
-0.388231 0.019297 0.315264 90 96 94
-0.042883 0.417964 0.024339 146 157 153
0.319988 0.332892 0.013687 129 136 128
-0.001913 0.431600 0.062118 156 164 161
0.198822 -0.057287 0.008881 26 38 40
-0.405635 -0.126742 0.006295 96 99 102
-0.430447 -0.080425 0.258731 69 75 73
0.169421 0.182160 0.064956 34 48 54
-0.356244 -0.031369 0.016630 30 32 38
-0.078810 0.418947 0.022440 144 155 151
0.251491 0.038961 0.008655 47 61 65
0.063707 0.519104 0.065966 158 162 155
0.142444 -0.270441 0.014999 135 137 128
-0.036464 -0.107263 0.021875 123 145 144
-0.108167 0.011152 0.002196 91 107 96
-0.136507 -0.278220 0.007340 126 133 127
-0.481477 -0.122482 0.009792 83 90 84
-0.231592 -0.250551 0.007600 143 150 142
0.166173 0.009770 0.008756 28 40 44
0.355533 -0.296125 0.023094 140 138 128
-0.249067 0.360417 0.095614 170 176 174
-0.316404 -0.109035 0.388934 128 169 175
0.388808 0.263715 0.021582 73 72 72
0.313260 0.128069 0.110427 63 79 89
0.312672 0.090436 0.104174 64 80 88
0.308567 0.367063 0.012506 142 144 135
0.085326 -0.132902 0.098957 67 88 94
-0.321688 -0.140454 0.359094 80 110 115
-0.402484 -0.039292 0.329665 89 92 93
-0.289075 -0.117805 0.331973 79 91 83
0.088548 0.061887 0.015450 81 93 99
-0.051921 -0.043556 0.000700 77 95 91
-0.202992 -0.132590 0.215935 9 15 13
0.222591 0.009904 0.009113 30 42 44
0.279755 0.105045 0.017018 46 64 71
-0.130301 0.092183 0.002364 102 118 109
-0.320135 -0.139334 0.330565 53 62 55
0.187079 0.335816 0.007203 75 84 75
0.240957 -0.242792 0.014655 126 127 121
-0.475547 -0.061225 0.480757 183 179 170
0.285340 0.171642 0.080353 36 49 58
0.272802 -0.197073 0.013930 134 131 126
0.268264 0.114736 0.014941 41 54 63
0.389465 0.382762 0.020782 90 87 82
0.002685 0.305886 0.024240 137 150 145
-0.306381 0.489633 0.002319 148 149 140
0.150743 -0.258984 0.014250 130 131 125
-0.338323 -0.103754 0.014560 131 132 126
-0.007802 0.236260 0.016276 127 141 132
0.390463 0.145432 0.013210 91 99 98
-0.033117 -0.086687 0.031899 135 157 156
-0.220506 -0.186391 0.005684 131 139 136
0.374043 -0.207119 0.020368 130 130 124
-0.454649 -0.060015 0.444559 106 112 110
0.304505 0.182793 0.124527 73 87 93
-0.466334 -0.034459 0.479911 172 165 159
-0.309109 0.500497 0.002690 147 148 137
0.309194 -0.107923 0.122792 88 99 110
0.001478 0.332919 0.028124 136 147 145
-0.257899 -0.121783 0.280923 14 21 25
-0.038620 0.410114 0.021052 138 146 143
0.051763 0.216301 0.000324 110 122 112
-0.226091 0.208674 -0.003420 134 141 135
0.216534 0.503334 0.007097 125 126 117
-0.062825 0.302865 0.023794 136 149 144
-0.210355 -0.129042 0.239259 18 26 25
0.128670 0.159480 0.031569 15 27 29
-0.206447 -0.128560 0.233955 10 18 17
-0.020979 -0.214198 0.039104 152 169 172
0.205977 -0.190211 0.014213 117 121 114
-0.033817 -0.269600 0.012350 124 130 128
-0.285208 -0.055641 0.061022 100 106 104
0.264835 -0.131221 0.012367 51 50 54
-0.110157 0.439154 0.075257 163 170 164
0.070929 0.202164 0.000779 118 130 120
0.108771 -0.242454 0.014033 126 133 127
-0.215706 -0.093467 0.263320 28 32 27
-0.223742 0.450551 0.106330 174 175 169
-0.117512 0.358537 0.025467 107 116 109
-0.207393 -0.147113 0.231559 24 32 33
-0.052401 0.435313 0.071868 161 168 162
-0.127928 -0.088442 0.030900 126 144 140
0.296363 0.190015 0.120014 75 91 99
0.291409 0.037850 0.029807 58 71 82
-0.200914 0.017177 0.015269 83 98 84
0.134942 -0.034588 0.009864 27 37 40
0.175695 0.517399 0.006497 139 141 132
0.301149 -0.156603 0.013191 123 124 120
-0.311610 0.389270 0.002237 151 152 146
-0.249540 -0.097276 0.012091 55 63 60
0.091554 -0.148362 0.008518 103 111 108
-0.216670 0.230105 -0.003690 136 148 138
0.332099 0.097274 0.121351 99 105 105
-0.119744 -0.045894 0.001128 95 109 98
-0.313698 0.352805 0.002397 152 153 144
-0.184794 -0.169256 0.006665 118 128 116
-0.328976 -0.193613 0.007396 150 154 149
0.118054 -0.088786 0.011460 23 35 39
-0.217188 -0.116356 0.249158 28 36 33
-0.408375 -0.012145 0.363331 251 255 250
0.314055 -0.136542 0.012143 109 113 106
0.155098 0.328917 0.005596 56 56 50
-0.466011 -0.066826 0.438147 93 95 86
-0.325250 0.401297 0.000104 81 83 74
0.268968 0.467602 0.010446 84 88 83
-0.091455 0.455395 0.117811 167 171 166
-0.413289 -0.006724 0.366687 180 179 179
-0.387972 -0.116879 0.281663 66 70 63
-0.305711 0.324119 0.003595 148 153 143
-0.332698 -0.106386 0.401981 129 170 176
-0.211466 -0.258436 0.005776 143 147 140
0.043808 0.108981 0.005880 103 116 111
-0.258274 -0.247383 0.008479 150 154 149
0.130497 -0.022990 0.010292 26 36 39
-0.009345 0.127545 0.003095 61 75 64
-0.153415 0.450789 0.101938 166 170 165
0.305574 -0.151289 0.013360 121 125 118
0.165048 -0.239269 0.014205 130 130 124
0.071775 0.073681 0.008181 99 115 106
-0.201932 -0.106161 0.005551 117 129 121
-0.136064 0.087873 0.002334 32 53 42
0.087702 0.060547 0.009417 43 50 54
-0.353139 0.027200 0.267037 124 157 161
-0.362811 -0.078762 0.016781 114 125 121
0.262791 -0.298239 0.017276 137 130 124
0.163591 0.353620 0.006963 113 120 112
-0.219817 -0.115909 0.251804 19 25 23
-0.159729 0.179257 0.000556 116 129 114
-0.447176 -0.046666 0.378616 103 104 98
0.335909 0.346320 0.016545 91 91 91
0.162165 -0.086220 0.009692 26 38 40
-0.257307 0.334772 0.126193 168 183 180
-0.100360 0.392352 0.022253 135 143 140
-0.355974 -0.004418 0.293057 84 92 89
0.327028 -0.190716 0.016246 133 133 127
-0.328731 -0.274989 0.010595 156 154 142
-0.336095 -0.236684 0.004551 149 153 146
0.180352 0.087956 0.011028 25 37 39
0.066457 -0.263580 0.013656 127 130 129
-0.160019 0.234180 0.048850 137 151 142
0.200116 0.138878 0.018065 23 33 36
-0.314778 -0.123655 0.377926 118 159 165
-0.073925 -0.128844 0.021255 122 144 145
0.190947 0.181756 0.090564 38 52 58
0.145345 -0.090122 0.010017 26 36 41
-0.427803 -0.057424 0.019347 126 133 127
0.309577 -0.093177 0.124761 96 107 118
0.081660 0.069997 0.108693 60 79 83
0.059622 0.266107 -0.002475 48 54 52
0.128910 0.539453 0.003525 69 78 71
-0.299798 0.246285 -0.000675 144 153 144
-0.356437 -0.130647 0.301843 57 64 58
-0.077646 0.039892 0.002321 92 106 95
0.192461 -0.002747 0.010090 28 40 42
-0.463521 -0.055028 0.471572 177 174 171
0.315821 0.011124 0.121410 98 110 124
0.283486 -0.174565 0.014285 112 120 109
0.165964 -0.177955 0.013802 108 116 105
0.302357 0.006054 0.069537 57 71 77
0.019504 -0.043976 0.002530 72 86 77
-0.266162 0.125862 -0.001808 70 82 74
-0.283398 -0.083688 0.015509 118 130 120
0.321597 0.069036 0.125286 81 94 103
0.305252 -0.007684 0.091995 62 75 84
0.262791 -0.005138 0.011843 37 51 55
-0.073017 0.235390 0.030943 132 145 140
0.017422 0.392501 0.024374 143 154 152
0.189271 0.124658 0.015665 19 29 32
-0.183156 -0.133303 0.205178 19 25 25
-0.057490 -0.220221 0.036556 131 148 149
0.275188 0.401694 0.011335 147 147 141
-0.207379 -0.162438 0.007411 129 141 131
0.054664 0.073923 0.007442 24 44 39
-0.143262 -0.209388 0.009032 157 170 167
-0.221346 -0.154292 0.247984 25 36 32
0.124601 -0.191674 0.013183 85 93 90
0.012478 0.066486 0.004726 34 49 46
-0.025889 0.228514 0.052816 131 145 136
-0.093895 0.197106 -0.001301 115 127 117
-0.405713 0.069282 0.251325 145 168 173
0.043449 0.448473 0.100025 164 171 165
0.396479 0.529328 0.016880 153 151 143
-0.230007 -0.248880 0.007372 142 149 143
-0.165902 0.235103 0.043874 136 150 141
0.050965 -0.011151 0.004560 43 54 52
0.049903 -0.207793 0.008768 85 94 87
-0.120944 0.052323 0.001811 101 115 104
-0.302118 -0.150208 0.014189 130 139 132
0.113279 0.000931 0.014813 24 36 42
0.071844 0.011413 0.097219 85 104 104
0.194584 -0.000735 0.010102 29 41 43
0.274462 0.091003 0.014876 44 58 64
0.016424 0.407797 0.021730 144 155 153
0.023103 -0.199525 0.040247 84 86 94
-0.155220 0.431235 0.050306 151 158 152
0.175779 -0.296125 0.015261 129 131 122
-0.049316 0.442344 0.087571 162 169 163
0.275079 0.136286 0.015883 47 63 71
0.132584 -0.283261 0.015041 135 132 127
0.386251 0.311439 0.023644 137 141 134
-0.198236 0.241217 0.012585 138 150 142
0.084647 -0.065720 -0.000956 89 103 94
0.296331 -0.259851 0.017608 132 134 125
-0.269245 -0.163009 0.009536 133 142 135
-0.211982 -0.292338 0.007604 77 85 86
-0.258207 -0.088004 0.307425 147 162 159
0.243949 0.174642 0.074794 38 50 56
0.201850 -0.195338 0.014013 116 120 113
0.214028 0.500571 0.006959 129 130 121
0.112120 -0.272008 0.015194 128 129 123
-0.194583 0.389454 0.027252 115 122 116
-0.448597 -0.079151 0.017221 90 97 91
0.258328 0.077864 0.010943 41 55 61
-0.363601 0.046738 0.268506 129 163 169
-0.230595 0.224913 -0.003192 49 56 60
0.232264 0.168606 0.048067 31 45 51
-0.056424 0.424829 0.038087 152 160 157
-0.085928 0.221236 0.112407 141 159 153
-0.004141 -0.298575 0.014271 117 124 118
0.015390 -0.169523 0.048659 153 175 174
0.238512 -0.090835 0.012880 32 42 45
0.233542 0.020243 0.008866 29 39 42
-0.059484 0.143887 0.000821 106 121 107
-0.193168 0.311616 0.026323 114 123 116
-0.409762 -0.038108 0.283954 106 119 118
-0.143133 0.223834 0.107632 145 163 157
0.252804 -0.179832 0.014356 111 112 106
-0.178053 0.397481 0.024106 120 127 121
-0.119815 -0.059085 0.000261 103 117 108
-0.084176 -0.154379 0.036696 41 49 48
0.220248 0.409551 0.010444 84 88 83
-0.453294 -0.047427 0.392014 113 116 117
-0.454980 -0.048505 0.358869 61 61 63
-0.031411 -0.109477 0.023158 126 145 145
-0.208101 -0.083884 0.255437 20 24 19
0.211237 0.190974 0.126803 140 159 161
0.237285 -0.031987 0.009228 30 40 43
0.187577 0.523569 0.006276 137 139 130
0.251161 -0.261087 0.015797 132 132 126
-0.270381 -0.104197 0.317377 44 54 57
-0.219040 0.300501 0.031010 131 140 133
-0.218053 0.344865 0.034706 131 138 132
-0.488136 -0.069718 0.455433 85 80 76
0.017609 0.362028 0.026866 137 145 144
-0.229745 -0.103811 0.273316 23 34 32
0.185990 0.182988 0.095406 40 53 62
-0.228958 0.247236 0.002785 153 162 153
-0.018113 -0.119279 0.025655 131 150 150
0.048202 -0.207773 0.008680 84 93 86
-0.292785 0.064592 0.159061 40 49 59
-0.470941 -0.055465 0.481840 214 209 205
-0.023250 -0.094928 0.034688 178 202 202
-0.065100 0.223767 -0.002300 111 118 110
-0.066557 0.224403 0.075384 136 150 141
-0.335328 -0.041896 0.019282 120 130 116
0.216530 0.021918 0.009508 31 41 44
-0.320217 -0.111874 0.391983 126 165 172
0.233171 -0.183239 0.014035 119 120 114
0.127650 -0.254088 0.014562 58 57 66
-0.295844 0.076464 0.018831 107 117 105
-0.271336 0.087211 0.006013 118 130 122
-0.164112 -0.164109 0.007140 111 123 115
0.073030 0.253533 -0.001585 102 111 102
0.075004 0.082149 0.111920 66 87 93
0.197476 0.471851 0.007302 122 127 115
-0.028565 -0.227840 0.041689 155 169 173
0.068022 0.387079 0.108712 173 181 178
-0.204689 0.241923 0.000356 135 147 139
-0.090187 -0.028344 0.001461 87 101 92
0.298281 -0.267962 0.017444 135 132 127
0.051612 0.337449 0.052786 159 170 168
0.103373 0.192932 0.118713 67 80 89
0.200297 0.013625 0.009640 32 44 46
-0.307786 -0.133213 0.325754 55 67 59
0.283377 -0.139990 0.011415 110 114 109
0.026487 0.222838 0.092700 141 154 149
0.112946 0.141270 0.024346 19 33 37
0.326659 0.095217 0.124903 89 101 103
-0.151297 -0.295792 0.008455 120 129 122
-0.498905 0.057560 0.054223 115 122 116
0.163187 -0.063247 0.009124 26 38 40
0.058438 0.406208 0.077546 173 181 178
-0.186786 -0.245260 0.004967 136 142 140
0.315190 0.108360 0.119466 77 93 103
-0.227273 -0.109935 0.266585 21 29 26
0.071407 -0.035106 0.096537 86 109 114
0.001977 0.014343 0.005550 102 116 107
-0.020356 -0.030595 0.002932 83 97 88
-0.028643 -0.267857 0.011420 123 131 128
0.064343 0.196875 0.001727 116 128 120
-0.377195 -0.130703 0.007696 45 45 45
-0.415056 -0.081029 0.017571 117 125 122
0.084886 0.006677 0.010337 93 107 98
-0.320989 0.403122 0.001219 145 146 142
-0.318401 0.256982 0.000956 126 130 125
0.399184 0.092003 0.014695 92 95 94
-0.092141 0.383695 0.023454 141 149 146
0.383444 -0.278980 0.024931 131 130 130
0.242031 0.334388 0.006700 115 120 110
-0.019427 0.077321 0.003769 94 110 101
-0.104085 0.183008 -0.001034 32 43 41
0.261766 -0.023201 0.012239 42 54 60
-0.096466 -0.254451 0.009740 63 76 73
-0.098275 -0.261041 0.010269 120 129 122
-0.221168 -0.164092 0.006991 128 141 136
-0.134189 0.239617 0.019799 130 144 135
-0.221579 -0.076010 0.268697 34 34 34
-0.002960 -0.097168 0.052522 127 150 146
-0.127865 0.424745 0.036755 149 158 151
0.282936 0.412067 0.011874 142 144 135
0.030369 0.417502 0.032742 153 164 160
-0.204884 -0.146728 0.226167 27 37 40
-0.050980 0.223509 -0.001644 107 120 107
-0.080782 -0.248906 0.051533 121 135 137
-0.115495 0.221004 0.112200 142 160 154
0.072703 0.225845 0.000529 99 112 107
-0.308107 -0.286327 0.011980 151 153 144
0.336955 0.541450 0.011955 154 149 145
-0.405310 -0.098164 0.013777 128 134 132
0.229915 -0.215872 0.014125 114 121 113
0.201340 -0.257563 0.014874 126 131 121
0.391679 0.352412 0.023149 143 143 137
0.231661 -0.032059 0.009358 29 39 42
0.164034 -0.260630 0.014170 124 131 123
-0.382654 -0.041687 0.023282 124 135 131
-0.430206 -0.118958 0.226280 94 118 116
0.183241 -0.018457 0.009389 29 41 43
0.311796 0.148883 0.114193 64 77 88
0.133183 -0.222386 0.013475 123 127 120
-0.428712 -0.029488 0.379234 169 168 170
-0.209960 0.342462 0.031428 120 127 119
-0.225792 -0.228891 0.006322 118 124 122
-0.281010 0.273534 -0.001433 150 159 150
0.010055 0.159453 0.002194 111 125 116
-0.052578 -0.187468 0.031939 139 158 160
0.017610 -0.171698 0.076190 41 55 57
0.107417 0.142971 0.033019 24 36 42
0.169053 0.538601 0.005276 135 143 130
-0.204692 -0.133851 0.006886 44 56 58
0.304550 0.103701 0.064436 52 65 74
-0.051694 0.433469 0.061994 160 167 161
0.286361 -0.058937 0.030203 54 65 74
0.262262 0.167344 0.050684 35 47 53
-0.076641 0.417435 0.021091 143 154 150
0.010494 -0.276338 0.013684 117 125 122
0.193295 -0.193696 0.014379 106 113 107
-0.006148 0.451070 0.107507 163 167 162
-0.316412 -0.130377 0.372373 118 152 158
-0.365749 0.150401 0.016176 123 127 122
0.153944 -0.260603 0.014138 126 127 121
0.132831 -0.239194 0.014082 121 129 118
-0.028497 0.420913 0.030667 153 161 158
-0.007637 0.437807 0.078858 162 168 166
0.033252 -0.204025 0.007179 86 89 88
0.069775 -0.114570 -0.001596 93 104 100
-0.485223 -0.067646 0.472725 126 126 120
-0.189284 -0.021852 0.008967 101 115 104
-0.190797 0.148799 0.001993 115 127 117
0.395773 0.538144 0.016724 153 151 143
0.189469 0.360611 0.008471 88 89 83
0.125874 0.402196 0.004447 73 78 68
0.223679 -0.265788 0.015058 124 124 120
-0.146580 0.396368 0.022861 116 125 118
-0.213853 -0.179515 0.005863 125 137 129
0.148019 0.184432 0.075152 34 48 54
-0.016567 0.232330 0.040167 132 146 137
0.230053 -0.043743 0.009209 30 40 43
-0.035392 0.012701 0.004193 82 96 85
0.335347 0.488778 0.013167 154 152 144
-0.113990 -0.130654 0.021127 118 137 137
-0.234872 -0.096748 0.281102 38 41 40
-0.211752 0.128599 0.002139 114 126 116
0.107547 0.172394 0.054472 23 33 38
-0.148040 -0.289376 0.007639 118 124 124
-0.264467 0.173376 -0.002806 47 56 47
0.189118 0.168788 0.035742 19 31 33
0.065708 0.230349 0.098867 134 142 141
0.176503 -0.177893 0.013550 108 115 107
-0.109753 -0.185099 0.029150 125 142 143
0.014614 0.298708 0.024156 136 149 144
-0.212196 0.353494 0.033444 119 126 120
0.015973 -0.119302 0.054940 149 167 163
-0.399071 0.004406 0.344204 161 161 155
0.185047 -0.148194 0.088637 76 85 95
-0.038044 0.041432 0.004009 92 101 94
-0.461521 -0.065684 0.021158 89 97 94
-0.161430 0.417483 0.022565 135 144 137
-0.237410 -0.095074 0.284052 30 43 40
-0.139820 -0.263714 0.007312 122 129 123
-0.284263 0.485907 0.003819 167 180 177
-0.253525 -0.129455 0.010158 123 135 127
0.212232 -0.242641 0.014091 130 131 125
-0.168063 0.217800 -0.002043 71 80 71
-0.347308 -0.140223 0.396933 134 170 178
-0.310137 -0.134606 0.319043 56 65 58
0.018781 0.424188 0.043478 155 163 162
0.099054 -0.143053 0.008804 112 121 114
0.353258 0.341961 0.019286 110 113 112
0.341720 0.356541 0.016748 139 140 134
-0.198890 0.001315 0.010225 16 37 26
0.383480 -0.125442 0.018093 101 105 100
-0.056191 -0.291856 0.012290 47 52 57
-0.322144 -0.238880 0.007421 136 143 135
0.279046 0.508083 0.009432 129 130 124
-0.324497 -0.230558 0.007085 145 149 142
0.145266 -0.040555 0.010271 28 40 42
-0.240973 0.346813 0.060653 171 175 168
-0.128894 -0.049839 0.001246 103 115 107
0.016054 0.446313 0.090346 162 169 163
0.023103 -0.185242 0.133237 41 47 45
0.224618 -0.181555 0.014275 106 112 110
-0.092716 0.040077 0.001713 95 110 96
0.320780 -0.136798 0.013077 100 91 96
0.093898 0.231988 -0.001321 105 111 113
-0.116026 0.184918 -0.000573 86 100 91
-0.159584 0.160164 0.002212 120 130 116
0.081536 0.336518 0.110369 139 157 155
0.125085 0.018534 0.011488 26 38 42
-0.408564 -0.121485 0.267575 62 71 64
0.169544 -0.292949 0.015323 61 67 67
0.337705 -0.297437 0.021469 136 137 131
0.396352 -0.217867 0.022995 134 131 126
0.028201 0.014403 0.005728 83 98 93
-0.152425 0.298231 0.021738 136 150 141
-0.088906 -0.097558 0.019808 118 140 139
-0.319160 -0.100812 0.391118 129 170 176
-0.148643 -0.186022 0.046968 119 133 135
-0.451285 -0.088018 0.016110 90 97 91
0.380194 -0.140089 0.018590 75 74 74
-0.040632 -0.184104 0.032079 142 161 163
0.070390 0.322056 0.101079 159 172 169
0.023774 0.127317 0.004030 37 50 45
-0.455738 -0.062111 0.443636 109 110 104
0.308264 0.006051 0.103738 64 77 88
0.180761 0.183612 0.127596 61 81 92
-0.437798 -0.013690 0.400452 182 177 173
0.210719 -0.086528 0.010990 28 40 42
0.241782 0.181382 0.118994 52 68 76
-0.348656 -0.000774 0.289610 79 88 81
-0.320492 0.467966 0.001355 145 146 140
-0.161196 -0.103681 0.003764 110 124 115
0.066785 -0.058271 -0.000382 88 102 93
0.352484 0.324287 0.019138 139 139 133
0.226100 0.169772 0.049739 30 44 50
-0.218254 -0.298735 0.008593 138 142 135
-0.299605 -0.080522 0.348309 89 100 96
0.180896 0.025594 0.010021 28 40 42
0.305423 -0.161983 0.013379 121 125 118
-0.378181 -0.027365 0.305435 68 76 73
-0.381613 -0.123126 0.272005 52 61 52
-0.470746 -0.065634 0.459608 134 134 128
-0.043712 -0.014749 0.002558 75 85 71
-0.373217 -0.075834 0.018995 122 133 129
0.213983 -0.010541 0.009826 30 42 46
-0.264163 0.168280 -0.001832 54 63 56
-0.245500 0.246518 -0.003782 144 153 144
-0.309711 0.174554 -0.001646 134 144 132
-0.238100 0.210357 -0.002556 138 147 138
-0.093414 0.221738 -0.003322 106 120 109
-0.183678 -0.232023 0.004964 137 146 139
0.314664 0.128211 0.120698 76 89 100
-0.160123 -0.016968 0.001885 88 109 98
0.124830 -0.003516 0.011186 23 37 41
0.295252 0.360239 0.010980 140 141 135
0.376033 -0.127217 0.017895 105 109 104
0.274797 0.348061 0.009615 75 79 74
-0.446758 -0.095088 0.220233 110 136 138
-0.327464 -0.190301 0.007863 147 151 146
0.106664 0.027772 0.022630 30 42 46
-0.038017 0.088737 0.001998 90 103 100
-0.364669 0.034697 0.271374 101 122 128
-0.038256 -0.163904 0.033575 126 145 145
-0.260015 -0.214039 0.007578 84 87 90
-0.130704 -0.045970 0.001229 95 111 102
-0.046447 0.123703 0.001467 99 113 102
-0.018059 -0.109529 0.029212 136 158 157
-0.200000 -0.251881 0.005444 71 77 75
0.185201 0.312429 0.004485 119 123 118
-0.213556 0.320960 0.030065 121 130 121
-0.336726 0.120722 0.002684 153 163 151
-0.295006 -0.065204 0.320809 77 92 87
0.299350 -0.156621 0.013253 124 125 121
0.042742 0.120348 0.005015 101 117 108
-0.291778 -0.089513 0.016263 61 74 71
0.143904 0.293210 0.002633 111 118 110
0.197646 0.335932 0.007243 117 121 114
0.189239 0.063059 0.009937 30 42 46
-0.139817 -0.266929 0.007178 124 131 125
0.170578 0.509327 0.005826 132 134 125
-0.266826 0.275986 -0.001200 146 156 144
-0.357855 -0.051153 0.018364 36 39 42
0.082130 -0.255588 0.014315 124 131 125
-0.435610 -0.007806 0.391440 170 170 166
-0.308722 0.190671 -0.001829 140 149 140
-0.129949 0.355885 0.025359 105 114 107
0.320002 -0.290762 0.019304 63 58 66
-0.045212 0.103793 0.001973 91 104 89
0.134649 -0.224106 0.013664 124 131 123
0.136124 0.093311 0.012540 22 34 36
-0.143820 0.132893 0.003396 104 116 106
0.077329 0.132572 0.112918 63 81 90
-0.189289 -0.205085 0.004936 126 137 133
-0.394958 -0.045082 0.022080 128 139 135
-0.110645 0.405209 0.019156 121 129 126
-0.274878 0.273489 -0.001256 147 156 147
0.114591 0.370399 0.004428 115 122 116
0.310180 0.408707 0.013255 144 145 139
-0.467708 -0.024530 0.473457 162 153 146
-0.209952 -0.142184 0.238577 14 17 20
-0.294227 -0.297477 0.013003 92 89 86
0.123911 -0.151132 0.012265 71 79 76
0.303334 0.175342 0.119428 55 68 77
0.355074 -0.276879 0.022076 137 137 131
-0.228928 0.118208 0.000808 106 122 111
-0.438907 -0.002837 0.395107 162 157 153
0.277689 0.404340 0.011407 146 146 140
-0.184253 0.002444 0.007682 99 115 104
0.139766 0.486942 0.004880 132 133 124
-0.169621 -0.139066 0.006411 119 135 126
-0.353387 -0.005219 0.291664 82 90 87
-0.312429 0.257411 0.000413 129 136 130
-0.193048 0.304532 0.025902 116 125 116
-0.126615 0.235550 0.036864 134 148 139
0.128898 -0.184689 0.012881 116 130 121
0.223579 -0.008540 0.009922 31 41 44
0.151517 0.183558 0.120651 59 75 83
-0.079206 -0.162739 0.035624 78 92 94
-0.339664 -0.110743 0.013606 137 142 130
0.305263 -0.049446 0.102986 64 77 86
0.261277 -0.132824 0.011607 64 67 70
0.138823 0.103517 0.013689 19 31 33
-0.427280 -0.113239 0.009385 110 117 111
0.027051 0.423598 0.044338 156 164 163
-0.305562 -0.095825 0.370493 125 161 169
0.082701 -0.027687 0.006666 82 94 86
-0.185933 -0.109708 0.005228 111 123 115
-0.167594 0.231052 0.070460 139 153 144
-0.275031 -0.242651 0.009668 148 152 147
-0.208290 -0.038298 0.252569 27 38 36
0.378903 -0.191755 0.020675 128 124 125
0.338216 -0.209971 0.017911 129 129 125
0.198817 0.003270 0.010194 31 41 44
0.011295 0.397383 0.024707 143 154 152
0.024500 0.454673 0.107111 163 167 162
-0.402295 -0.035501 0.282065 124 135 133
-0.187715 0.226328 0.103238 150 163 158
-0.203975 0.205998 -0.002480 124 136 126
-0.453483 -0.048522 0.384181 94 98 93
-0.411889 -0.032872 0.362981 189 195 193
0.232568 0.303381 0.003959 106 114 103
-0.176797 -0.128044 0.005633 114 128 119
0.075082 0.085560 0.113001 68 86 93
-0.086031 0.190055 -0.000980 114 128 117
-0.390173 -0.079098 0.326732 142 159 164
-0.375239 0.007045 0.311743 91 95 90
-0.001235 -0.253407 0.012076 81 89 90
-0.138200 0.329736 0.023017 107 116 109
-0.128085 -0.247347 0.006866 43 52 45
0.087778 -0.203111 0.010671 114 122 119
0.251201 -0.024321 0.009932 49 61 65
-0.208487 0.151448 0.000966 117 129 119
-0.306619 -0.165249 0.011409 138 147 140
0.184365 0.492188 0.006230 128 130 119
-0.257812 -0.286237 0.010240 147 148 142
-0.149220 0.442840 0.082069 165 169 164
-0.097655 -0.034338 0.001680 87 98 96
-0.445449 -0.031095 0.418393 198 202 197
-0.392043 -0.010625 0.338419 227 225 217
0.276182 -0.095284 0.026785 61 74 83
-0.248383 -0.247235 0.007526 146 153 145
-0.002441 -0.246732 0.011408 100 107 101
0.278611 0.172778 0.078401 36 49 58
0.178218 -0.091378 0.008353 26 38 42
0.165446 0.180268 0.057128 29 41 45
0.276972 -0.077195 0.022922 61 73 79
0.280318 0.175056 0.085355 38 51 60
-0.277679 -0.054467 0.017826 111 125 116
0.254755 -0.098684 0.019972 40 54 60
-0.325380 -0.240481 0.007215 145 152 146
-0.333170 -0.111819 0.402363 96 125 135
-0.248647 -0.162895 0.009123 132 141 132
-0.259605 -0.118628 0.290920 113 128 125
0.280438 -0.103354 0.040366 55 68 77
-0.396224 -0.021719 0.346761 249 253 248
0.146656 -0.149656 0.013470 108 115 109
0.206736 -0.008608 0.009902 29 41 45
0.310743 0.382508 0.012871 137 138 134
0.153239 0.512752 0.004839 132 134 123
-0.311751 0.143221 -0.001916 110 111 107
0.358619 -0.201616 0.018694 131 132 123
-0.381367 0.127852 0.025035 121 134 129
0.192640 0.300902 0.003199 111 119 108
0.017129 0.145679 0.002827 54 69 66
-0.215760 -0.111582 0.252307 100 109 102
0.080652 -0.253914 0.014092 114 122 119
0.381749 -0.107167 0.018371 97 92 90
0.285638 -0.070797 0.031655 54 65 74
0.259340 -0.204026 0.014352 123 125 116
-0.162414 -0.160604 0.007197 142 157 152
0.069436 -0.074957 -0.002067 94 106 98
0.211686 -0.042008 0.009602 30 40 43
-0.252716 0.435588 0.113381 181 181 175
0.285685 0.493151 0.010398 144 146 137
0.262459 -0.143266 0.117296 76 92 100
0.371421 -0.210592 0.020699 126 126 130
-0.250884 0.289054 0.085144 167 170 169
0.316307 -0.202640 0.015680 130 131 125
-0.147324 0.448960 0.098386 169 173 168
-0.151498 -0.257159 0.007118 124 135 131
0.182601 -0.170928 0.013696 117 118 112
0.058006 -0.265143 0.013418 129 136 128
0.166875 -0.212343 0.013742 58 57 59
-0.478111 -0.071504 0.021678 86 93 87
-0.212581 -0.140515 0.242150 29 31 37
-0.182883 -0.029212 0.234525 111 118 112
-0.317246 -0.294163 0.012090 74 78 73
-0.244409 -0.294124 0.010010 72 74 63
-0.423779 -0.062876 0.018869 124 133 126
0.291692 -0.001313 0.031828 54 67 76
0.294492 -0.190392 0.014885 132 133 124
0.052487 -0.085817 -0.003849 76 85 78
0.377600 0.471656 0.017597 153 146 138
-0.052289 0.065043 0.002434 73 89 80
0.020160 0.428466 0.050910 157 165 162
-0.141488 -0.260464 0.007298 121 130 121
-0.117046 0.065040 0.001551 90 108 102
-0.034533 -0.138632 0.024434 131 150 150
-0.082801 -0.134390 0.021839 125 144 146
-0.323697 -0.136675 0.368676 101 140 145
-0.251133 0.322577 0.100198 164 167 168
-0.155360 0.110817 0.003557 109 122 109
0.199943 -0.152510 0.125709 139 158 160
-0.219518 -0.265011 0.006459 144 148 143
0.304682 0.369637 0.012472 140 141 135
-0.372664 -0.059551 0.020537 122 135 130
-0.098082 0.401305 0.020962 138 146 145
0.007200 0.109670 0.004000 114 128 119
-0.051681 -0.035821 0.000888 72 88 79
0.079652 0.260591 -0.001140 102 111 102
0.230909 0.160775 0.023224 29 41 45
-0.224119 -0.078491 0.270747 40 37 34
0.105699 0.176853 0.065279 23 37 41
-0.080963 -0.130747 0.021604 125 144 146
0.254173 0.138947 0.014748 45 62 67
0.153376 0.536635 0.003935 142 144 135
0.151026 0.064791 0.010200 26 38 40
0.110730 0.096063 0.015215 18 35 40
-0.352610 -0.037498 0.329932 37 43 43
0.126548 -0.159946 0.012018 78 84 82
-0.039609 0.150634 0.001073 30 43 38
0.031817 0.290402 0.029280 147 162 161
0.168877 0.165542 0.037128 17 29 31
0.072168 -0.107491 0.094421 93 107 109
-0.065972 -0.290191 0.011878 106 109 112
-0.061370 0.429980 0.050586 156 164 161
0.085300 -0.014577 0.008535 50 68 66
0.301924 0.061298 0.062235 53 69 77
0.226293 0.119415 0.013725 20 30 33
0.299966 -0.078857 0.090148 58 69 78
0.397992 -0.195661 0.022658 135 130 126
0.166750 -0.000499 0.009208 29 41 43
0.129049 0.313112 0.002485 111 118 110
0.306436 -0.156616 0.013252 124 125 121
-0.431247 -0.096894 0.015338 95 104 97
-0.327876 -0.153304 0.012544 136 143 137
0.079691 -0.279937 0.015153 135 139 132
-0.035175 -0.173978 0.032582 141 160 160
0.114822 -0.172218 0.011777 51 54 55
0.217492 0.092209 0.011645 25 37 39
-0.291181 -0.064426 0.019149 33 41 42
-0.003509 0.127473 0.003320 108 129 116
-0.075431 -0.121441 0.020541 123 145 146
-0.314434 -0.204163 0.008953 147 154 146
0.161348 -0.139694 0.065382 70 80 87
0.210781 0.293933 0.002802 105 112 104
-0.274143 -0.229405 0.009349 147 151 146
-0.136493 -0.263727 0.007345 124 131 125
-0.221627 -0.098861 0.005680 114 127 122
-0.166151 0.227729 -0.002808 52 60 59
-0.070841 0.308006 0.023361 129 142 137
0.312886 0.069932 0.112347 67 83 91
0.259653 -0.070185 0.013418 43 53 60
0.136313 0.072729 0.011055 24 36 38
-0.201450 0.464562 0.122341 176 180 173
0.335108 -0.160592 0.014916 121 125 120
0.216278 0.331459 0.006741 114 122 111
-0.003822 0.159279 0.002280 111 122 118
0.031514 -0.189755 0.144380 40 51 47
-0.196987 0.422218 0.038354 156 160 155
0.310502 -0.179885 0.014574 127 128 119
-0.222136 0.149341 0.000519 118 130 120
0.272376 -0.010120 0.014381 44 56 62
0.261168 -0.298222 0.017180 131 124 118
-0.444539 -0.007263 0.419077 156 145 138
0.064105 0.442913 0.120448 177 181 176
-0.427633 -0.059250 0.019194 124 133 126
0.269860 0.340976 0.008694 128 135 129
-0.469674 -0.049840 0.485001 161 153 150
0.372492 0.312508 0.021900 134 134 128
0.141596 -0.179519 0.013061 119 127 124
-0.428402 -0.089789 0.016076 93 102 95
-0.455210 -0.050351 0.346335 35 31 32
0.224887 0.176166 0.075564 37 49 55
0.124930 0.178000 0.056508 21 33 37
0.045902 0.028371 0.006661 91 102 100
0.016900 0.423318 0.041339 155 163 160
-0.462101 -0.061503 0.453171 129 130 126
-0.352727 0.124121 0.000149 16 22 22
-0.189523 0.456365 0.114742 176 177 171
-0.180305 0.105324 0.005435 109 122 117
-0.353672 -0.047199 0.002452 8 14 14
-0.408391 -0.042712 0.330321 73 84 80
0.055907 0.299784 0.060478 158 171 168
-0.462119 -0.079042 0.196431 112 136 138
0.279431 -0.261330 0.016906 134 132 124
-0.232987 0.312783 0.040740 155 162 156
-0.244095 0.111402 0.001103 117 129 119
-0.019851 0.110022 0.002915 97 113 104
-0.008527 0.236552 0.004728 124 136 128
-0.237981 -0.174642 0.007257 57 60 59
0.140375 -0.034709 0.010238 29 39 42
-0.384296 -0.031046 0.306387 69 75 73
-0.172351 0.082236 0.004596 111 125 114
-0.198850 0.234460 0.051200 141 155 146
0.081705 -0.135761 0.091753 73 87 89
-0.127943 0.324967 0.022891 107 115 112
0.214457 0.171021 0.043719 32 44 50
-0.318673 -0.297246 0.011798 48 53 58
-0.208042 0.444800 0.093108 171 172 166
0.166409 -0.082259 0.009144 26 38 40
-0.485981 -0.094744 0.019582 87 91 86
-0.257193 -0.124257 0.010848 126 132 130
0.303810 -0.127023 0.010630 111 111 107
-0.318311 0.326831 0.003088 148 153 143
0.056682 0.075932 0.007701 89 109 104
0.038343 -0.204117 0.007586 85 94 87
-0.119157 -0.105161 0.026211 118 138 135
0.051424 0.054984 0.007391 88 107 97
0.326659 0.337316 0.014723 137 138 134
-0.029584 -0.197975 0.033536 139 158 160
0.283678 0.401501 0.011742 142 139 134
0.111384 0.297054 0.000076 108 115 107
0.167463 0.122160 0.015903 19 31 33
-0.208880 0.292744 0.028407 150 159 150
-0.134080 0.360917 0.025376 103 112 105
-0.150417 -0.155446 0.040414 112 131 131
0.146930 0.195431 0.122245 118 135 136
-0.399362 -0.109936 0.282341 86 93 87
-0.029436 0.159546 0.001396 110 124 113
-0.206709 0.158369 0.000650 122 134 124
0.360284 -0.121126 0.015741 107 108 102
0.181784 -0.252594 0.014772 67 67 69
0.273861 -0.044151 0.015970 43 59 67
0.011349 0.180728 0.000837 108 122 111
0.079403 0.003474 0.008303 90 104 95
-0.270329 0.173065 -0.002361 137 146 137
-0.181284 -0.172721 0.006550 45 49 42
-0.451418 -0.052714 0.432848 51 54 57
-0.065533 -0.136365 0.022587 126 150 150
0.116882 -0.098959 0.019874 35 54 56
-0.242572 -0.265192 0.007964 143 150 142
-0.434984 -0.044143 0.364354 101 107 105
-0.314743 0.080369 0.019134 128 141 128
0.034953 0.091657 0.005808 96 110 101
-0.259456 -0.117873 0.292586 121 136 133
-0.245902 -0.109461 0.286519 26 37 37
-0.368064 0.132653 0.016484 117 130 125
-0.078853 0.450673 0.106419 165 169 164
-0.294829 -0.060988 0.020020 125 137 127
-0.460375 -0.032422 0.471429 170 162 159
-0.147169 -0.104608 0.035642 133 151 149
-0.293368 -0.264004 0.011388 150 152 143
0.114939 0.034109 0.013112 23 35 39
0.362702 -0.235788 0.020629 138 136 124
-0.019055 0.045273 0.004926 95 109 98
-0.080625 0.164364 0.000052 109 123 112
0.339062 0.351823 0.016118 139 141 132
0.271629 0.407071 0.011211 147 147 141
0.133756 0.492986 0.004296 130 131 122
0.205037 0.052467 0.010375 26 36 39
-0.476189 -0.033506 0.487674 164 159 155
-0.146569 0.229947 0.072470 139 152 147
0.169020 0.345605 0.007464 79 83 78
-0.298969 0.474807 0.003479 151 152 141
-0.258865 0.262487 0.114320 179 186 180
-0.093752 0.202495 -0.002535 115 127 117
0.313303 0.385201 0.012841 129 136 130
0.085934 -0.220319 0.011827 125 132 124
-0.028995 0.234293 0.104386 142 157 154
0.079502 -0.077706 0.104200 55 73 80
-0.202683 0.224600 0.099020 146 160 151
-0.002067 -0.167571 0.054159 123 145 144
0.328616 0.103805 0.124064 94 104 107
0.179405 -0.183051 0.013270 110 117 111
0.010695 0.138373 0.003857 104 120 109
0.176568 -0.254185 0.014552 120 127 121
-0.174470 0.099135 0.004979 113 128 114
0.316344 -0.052153 0.127619 77 93 103
-0.166041 -0.295749 0.008485 127 136 129
0.184354 0.005616 0.009235 26 36 39
-0.249153 0.377993 0.104136 169 177 176
-0.306139 0.407020 0.003261 142 149 141
0.373136 0.383828 0.019108 96 96 92
-0.487012 -0.055778 0.391298 30 33 32
-0.191535 -0.148435 0.204733 17 30 29
0.076382 0.476979 0.098693 155 162 154
-0.396247 -0.109293 0.284319 87 94 88
0.239946 -0.073188 0.010924 35 42 46
0.245268 0.165457 0.042324 33 47 53
0.354842 -0.299281 0.023135 141 139 131
-0.079516 0.386433 0.023530 139 150 146
-0.177509 -0.132441 0.198376 115 121 121
0.303699 0.159266 0.086627 56 69 78
-0.271146 -0.159513 0.009570 131 140 133
-0.202249 -0.289188 0.007457 140 147 141
0.198728 -0.252611 0.014674 45 47 55
0.147013 -0.288066 0.014931 137 137 131
-0.436998 -0.009023 0.397803 170 167 164
-0.286688 -0.121502 0.013573 121 132 128
0.082660 0.199397 0.001703 114 126 116
-0.211828 0.333352 0.030176 122 129 121
0.352135 0.309317 0.018995 133 134 128
-0.303652 0.204872 -0.002306 147 157 145
0.136139 0.180907 0.059216 21 33 37
-0.404628 -0.080899 0.017270 128 136 133
-0.355813 0.113435 -0.000305 19 25 27
0.325909 -0.292498 0.020276 127 122 118
-0.157320 0.115421 0.003045 110 122 112
-0.106170 -0.172900 0.028217 133 150 151
-0.304356 -0.077861 0.020060 124 133 124
0.126200 0.332126 0.004138 114 118 113
-0.157221 -0.147683 0.043582 118 136 134
0.349263 0.428685 0.015920 96 95 95
0.075348 -0.005653 0.006055 86 100 91
0.106152 -0.267023 0.014365 127 132 122
0.177104 -0.134881 0.012108 93 100 94
0.392885 -0.226223 0.022764 139 135 128
-0.105498 0.222451 0.094158 136 151 146
-0.094890 0.350196 0.026815 132 145 140
0.186017 0.108393 0.013340 20 30 33
0.017685 -0.009069 0.003970 106 119 114
0.049372 -0.130232 -0.004799 59 67 66
-0.389321 -0.028832 0.324707 72 78 76
-0.322084 0.495689 0.001501 128 125 122
-0.187514 -0.117462 0.006654 114 127 122
-0.300827 -0.251049 0.011309 147 151 146
-0.093364 0.003200 0.002094 90 106 95
-0.151487 0.456782 0.115101 171 175 168
0.188686 -0.215806 0.014000 124 125 119
0.222588 0.161813 0.025185 24 36 38
-0.464657 -0.043817 0.482017 242 231 226
-0.242153 0.272810 0.062436 167 176 169
-0.222612 0.227306 -0.003105 138 146 143
-0.141758 0.031022 0.002924 97 113 102
-0.197513 0.227652 0.088184 144 158 149
-0.157946 0.221803 0.100653 139 154 149
0.241477 0.350944 0.008571 114 118 111
-0.189780 0.356341 0.030203 114 118 113
0.239878 -0.298053 0.016392 130 134 127
-0.259591 0.239142 0.115362 176 183 177
0.118530 0.442852 0.004107 119 127 124
-0.409672 -0.040405 0.345095 98 106 103
-0.054133 -0.282242 0.011540 128 135 129
0.194037 0.317277 0.004912 114 121 113
0.075320 0.066089 0.112235 68 86 95
0.009404 -0.131311 0.048067 138 160 159
0.390958 0.019024 0.013632 92 95 94
-0.318183 -0.139146 0.359163 54 82 86
-0.204972 -0.054812 0.222350 43 43 43
-0.207253 -0.167608 0.007050 128 140 132
0.214414 -0.150975 0.126115 142 159 164
0.096345 -0.232383 0.013496 66 69 68
-0.244047 -0.107392 0.009258 115 127 119
0.290970 -0.181600 0.014446 122 126 121
-0.297521 0.167817 -0.001561 82 89 83
0.240979 0.383802 0.009864 112 120 117
0.166920 -0.146394 0.126924 139 161 164
-0.114884 0.234166 0.039172 134 148 139
0.078651 -0.291070 0.015185 87 87 87
0.033646 0.316525 0.027240 151 162 160
0.296024 -0.102023 0.085213 57 68 77
0.109344 -0.143394 0.010076 114 123 114
-0.264516 -0.124421 0.269170 22 28 30
-0.307648 -0.101377 0.376183 128 169 175
0.385218 -0.265936 0.023832 138 130 127
0.253587 -0.174620 0.014491 61 67 67
0.052546 0.239252 0.055471 115 119 112
0.294604 0.135926 0.032880 59 75 83
-0.405211 -0.104612 0.011050 131 139 136
0.195664 -0.101928 0.018136 59 78 82
-0.177283 -0.049553 0.203834 26 34 31
0.173321 0.096062 0.011893 23 33 36
-0.197855 -0.126682 0.007075 125 137 129
0.178259 -0.028424 0.009578 29 41 45
-0.282200 -0.109169 0.331476 88 102 93
-0.222902 0.297037 0.032361 137 146 139
-0.039784 0.433381 0.068345 161 170 163
-0.176410 -0.125276 0.186893 31 38 42
0.145612 -0.272054 0.014949 131 132 126
-0.013402 0.372844 0.028879 138 149 145
0.250126 0.103281 0.011581 35 49 53
0.237906 0.166039 0.041214 31 45 51
-0.089102 0.234302 -0.004374 102 114 106
0.119979 0.088367 0.013623 19 33 37
-0.032752 -0.136927 0.024698 125 147 148
-0.121211 -0.235310 0.004234 133 141 138
0.394652 -0.261120 0.024023 136 133 130
0.393121 0.111401 0.014847 100 106 106
0.047535 0.024357 0.006499 81 96 91
0.137534 0.510302 0.004064 129 131 122
-0.404661 -0.123747 0.265943 60 67 61
0.174638 0.182817 0.081675 33 49 57
0.124142 -0.240855 0.014189 133 137 130
0.382018 0.259153 0.021053 125 131 129
0.289749 -0.068258 0.045621 52 63 72
-0.410842 -0.055335 0.296508 76 82 82
0.046195 0.415826 0.053866 169 177 174
-0.057257 -0.239734 0.044843 136 150 152
-0.251373 -0.219026 0.007289 131 143 133
0.244447 0.481786 0.009685 139 136 131
-0.038135 -0.201342 0.033601 143 160 163
-0.018130 -0.106488 0.031069 136 158 157
0.272997 0.053440 0.013693 42 58 68
-0.022558 0.006682 0.004239 88 102 91
0.076906 -0.275061 0.014718 133 140 134
-0.163561 0.422653 0.029071 147 154 148
0.268333 -0.222712 0.014314 131 132 123
-0.380140 -0.111769 0.010792 131 139 138
0.167024 0.200369 0.124959 141 154 153
0.128319 -0.263816 0.014253 65 64 64
0.221546 0.454326 0.008840 108 105 100
-0.389569 -0.049987 0.020032 125 136 132
-0.245712 0.410028 0.084798 178 182 177
-0.299491 -0.268934 0.012263 150 151 145
-0.453735 -0.053325 0.023332 90 98 95
0.390311 0.387911 0.020934 144 145 136
0.144360 0.056294 0.010321 26 38 42
-0.156287 -0.286138 0.007338 144 145 139
-0.066127 -0.248667 0.050071 130 144 146
0.199525 -0.080150 0.008747 27 37 40
0.020478 0.295742 0.024982 133 144 142
0.015615 0.057491 0.006018 98 117 105
0.063428 0.422143 0.103562 177 183 181
0.015705 -0.133799 0.050570 146 168 167
-0.342653 -0.131967 0.005995 145 150 140
-0.312952 -0.224340 0.009189 143 150 142
-0.253002 0.231905 -0.003415 140 152 142
0.000697 0.308060 0.024618 136 149 146
0.235447 -0.225888 0.013555 129 130 124
-0.441956 -0.009903 0.407931 163 164 155
0.021205 0.147969 0.002797 75 88 85
0.254106 0.018308 0.008869 49 61 65
-0.024587 -0.106757 0.026135 130 152 151
-0.272248 0.076315 0.010934 124 133 124
-0.139914 0.151657 0.001679 105 121 110
-0.447634 -0.023467 0.450931 107 99 98
-0.158819 -0.175184 0.009500 147 158 158
0.263930 -0.088950 0.018728 39 56 61
-0.245477 0.433614 0.101669 183 184 178
-0.252079 0.260514 -0.003222 146 154 141
-0.107672 -0.062124 0.014323 131 148 149
-0.182340 0.241154 0.005635 137 149 139
0.298559 -0.062324 0.079748 60 69 79
-0.117954 0.192034 -0.000956 113 128 114
0.229403 -0.131054 0.011628 65 67 75
-0.331373 -0.208627 0.006184 151 155 150
-0.440906 -0.039483 0.386029 140 143 142
-0.450162 -0.052408 0.445273 56 55 59
-0.249262 -0.147275 0.010045 127 134 126
0.001647 -0.114097 0.049561 128 150 149
0.292556 -0.244935 0.016873 131 131 127
-0.457823 -0.091682 0.016025 89 96 90
-0.352885 0.014312 0.283284 82 93 91
-0.225891 0.336259 0.035978 145 152 146
-0.280003 -0.081742 0.015275 117 129 119
-0.011662 -0.150966 0.030802 136 156 153
-0.220166 -0.290844 0.008431 142 145 146
0.238883 -0.169189 0.013827 106 113 105
-0.233356 0.245011 -0.004946 135 144 135
-0.076927 0.240002 -0.001865 98 107 100
0.395743 -0.003398 0.014017 94 97 96
-0.160111 -0.128936 0.165618 38 53 52
0.367712 -0.299427 0.023960 144 139 135
-0.225855 -0.128469 0.006874 96 107 103
-0.453879 -0.048190 0.409732 127 127 123
0.323510 0.454889 0.013467 144 143 143
-0.299399 -0.292774 0.013015 150 152 143
-0.405305 -0.111628 0.279328 86 90 85
-0.086212 0.369296 0.025424 133 144 142
-0.041297 0.157630 0.000602 86 99 94
0.163616 -0.196984 0.013762 120 124 117
-0.346498 -0.120189 0.400687 134 170 178
0.074252 0.297796 0.101629 157 168 166
0.016294 -0.034475 0.003194 80 93 88
-0.440698 -0.046000 0.372575 105 109 104
-0.024581 -0.284076 0.012668 125 131 129
0.207575 -0.191870 0.013912 115 119 112
-0.302617 0.380825 0.003167 149 154 144
0.118180 0.189055 0.108416 43 59 67
-0.303114 -0.197326 0.008694 135 144 137
0.163709 -0.089785 0.009120 26 38 40
-0.006724 0.178307 0.000762 42 56 47
-0.354335 -0.031813 0.293735 103 122 126
-0.034051 -0.189127 0.031777 138 157 159
0.197012 -0.057263 0.008800 26 38 40
-0.371398 -0.019812 0.303207 75 86 82
0.134090 0.093112 0.012907 21 33 35
-0.130226 0.116028 0.002291 100 119 109
-0.047209 0.449294 0.114122 162 169 163
0.131841 -0.145931 0.103386 64 76 80
-0.183358 0.334416 0.025969 114 123 116
-0.221869 -0.198219 0.004833 128 136 133
0.150631 -0.272067 0.014949 136 137 131
-0.391305 0.119505 0.028350 122 135 132
0.015637 0.087921 0.004416 101 117 108
-0.131486 -0.142529 0.025304 86 101 100
-0.028614 -0.249813 0.047250 100 113 112
0.347703 0.406672 0.016518 122 122 116
-0.134881 0.442134 0.080232 162 169 163
0.036914 0.120390 0.004847 99 115 106
-0.286559 -0.291215 0.012773 74 75 71
0.365372 -0.230826 0.020816 135 131 124
-0.336489 0.278643 -0.002774 164 166 155
-0.183249 -0.158763 0.006857 121 132 128
-0.302372 -0.130498 0.329200 60 68 65
-0.197607 -0.118805 0.216027 15 21 21
0.181924 0.134257 0.018145 23 33 36
-0.165670 0.422791 0.028864 148 155 149
0.178465 -0.059182 0.008618 28 40 42
-0.298250 -0.122507 0.342609 70 85 80
-0.485868 -0.078881 0.021534 86 90 85
0.142367 0.075015 0.010795 23 35 37
0.062260 0.170754 0.003103 108 120 110
0.245344 -0.151313 0.013281 106 110 105
0.040130 0.026345 0.006537 26 39 38
0.215577 -0.242675 0.014250 130 131 125
0.081447 -0.295854 0.015464 122 129 121
-0.334027 -0.097652 0.400389 130 169 176
-0.067436 -0.000965 0.002752 86 101 96
-0.157407 0.444981 0.085343 165 169 164
-0.305730 -0.294353 0.013278 154 156 147
-0.301536 -0.264038 0.011722 148 153 143
0.126410 -0.126100 0.012859 80 86 88
0.182082 -0.012529 0.009458 30 40 43
