ply
format ascii 1.0
element vertex 1228
property float x
property float y
property float z
property uchar red
property uchar green
property uchar blue
end_header
-0.112248 0.012760 0.012607 91 107 96
0.280723 0.135223 0.021959 70 86 94
-0.417187 -0.031861 0.332396 102 110 107
0.057998 0.306939 0.098708 161 174 171
0.385047 0.354633 0.030216 146 143 138
-0.233914 -0.184204 0.011058 130 139 132
-0.356226 0.121132 0.104111 60 56 61
-0.485498 -0.034677 0.354700 41 51 54
0.265575 -0.046671 0.017461 42 54 60
-0.319125 -0.108077 0.375908 125 166 170
0.298169 0.369521 0.019256 142 143 137
-0.352281 0.040232 0.247890 126 163 166
0.150179 0.063417 0.013080 25 37 39
-0.178408 -0.232204 0.014628 134 141 135
-0.001917 -0.249634 0.018624 64 76 68
-0.248034 -0.061473 0.276868 56 64 63
0.369283 0.392773 0.027647 146 146 140
0.313455 0.490867 0.019890 143 145 136
-0.126569 -0.232396 0.080669 114 126 128
-0.084838 0.335107 0.026919 138 149 145
-0.428885 -0.071319 -0.000058 105 112 106
0.293026 0.060647 0.050962 49 65 73
-0.444019 -0.019799 0.367876 165 164 164
0.055977 -0.288811 0.022323 123 128 118
-0.123085 -0.227198 0.070656 108 120 122
-0.222891 0.293507 0.030492 139 148 139
-0.434255 -0.072918 -0.000947 98 105 99
0.028014 0.002623 0.014550 81 94 93
0.029886 -0.290100 0.020789 132 132 134
0.173141 -0.008686 0.009715 29 41 43
-0.141890 0.051267 0.012777 97 113 104
-0.421628 -0.108485 0.288979 70 78 75
-0.328121 -0.129743 0.373750 105 144 151
0.002119 -0.289920 0.020074 117 128 126
0.069642 0.260752 0.009444 76 83 77
-0.077424 -0.112711 0.027432 123 145 146
0.260037 -0.267479 0.025188 133 131 121
-0.490693 -0.031792 0.362360 50 50 50
0.012766 -0.251553 0.020132 105 113 112
0.161782 0.377713 0.016136 67 75 74
0.129037 -0.242107 0.021010 122 125 126
0.043235 -0.017366 0.015067 56 69 64
-0.187419 0.225204 0.114379 149 164 159
0.083567 0.169382 0.124767 55 71 79
0.083548 -0.258507 0.022035 128 137 130
-0.231224 -0.163568 0.011779 128 142 133
0.392244 0.455835 0.029785 98 95 90
0.039449 -0.231718 0.019127 102 114 106
0.066818 -0.069233 0.014503 92 105 100
0.125743 -0.195177 0.020994 120 123 122
0.307167 -0.202999 0.025075 138 135 130
0.244869 0.287757 0.005189 121 125 120
0.232736 -0.111322 0.042290 73 87 91
-0.064251 0.069241 0.011109 94 108 97
-0.063380 -0.097844 0.032155 118 140 139
-0.009943 -0.270842 0.020035 125 132 126
0.354891 -0.290791 0.030386 129 125 128
0.171847 0.112673 0.017415 21 33 35
-0.111441 0.228587 0.104602 144 159 156
-0.272058 -0.119523 0.306693 114 128 119
0.395269 0.009786 0.021021 90 96 94
0.014151 -0.044465 0.014260 77 88 84
0.111470 0.138709 0.020985 21 33 37
0.247624 -0.010457 0.009993 44 54 59
-0.023897 -0.286646 0.019734 123 131 130
0.072841 0.164668 0.122014 76 95 99
0.024258 0.122751 0.012602 103 114 110
-0.370692 -0.039311 0.001824 117 128 124
0.032022 0.322059 0.026460 146 159 156
-0.072142 -0.012994 0.012717 32 46 35
0.311439 0.072589 0.125866 85 98 107
0.224798 0.388953 0.016396 121 123 112
-0.187056 -0.029606 0.018856 103 116 103
0.276388 -0.204433 0.023954 129 130 124
0.361392 -0.129490 0.025591 112 113 109
-0.073146 -0.077950 0.054011 125 147 146
-0.405592 -0.131457 0.278246 104 133 132
-0.244096 -0.221754 0.012510 126 141 136
0.295243 0.032734 0.067043 50 66 76
-0.324157 0.093881 0.025548 96 105 96
-0.405000 0.085587 0.237055 155 174 178
-0.294028 0.326022 0.018331 75 81 81
0.095040 -0.212038 0.020616 117 123 123
-0.230856 0.299627 0.035378 153 160 154
-0.203622 -0.094073 0.254164 24 32 29
0.108482 0.036103 0.017726 29 41 47
-0.133994 -0.112562 0.071377 125 145 142
-0.200841 -0.269458 0.014093 138 144 142
0.028476 -0.263071 0.021068 119 126 118
0.237418 0.135612 0.016530 25 35 38
-0.201844 -0.122177 0.244975 7 15 14
0.260274 0.164236 0.066895 36 50 56
0.188732 0.173945 0.067826 36 48 54
-0.136168 0.113800 0.010611 34 55 44
0.306583 0.086392 0.104049 62 75 84
-0.163876 -0.180211 0.015944 135 147 139
-0.245662 -0.144604 0.013256 126 138 128
-0.153472 0.115704 0.010853 108 121 108
-0.250744 0.415197 0.129876 180 181 177
-0.043304 0.123545 0.010076 109 118 111
-0.046908 -0.156433 0.037991 100 108 107
-0.077506 0.418013 0.036316 146 157 153
0.326717 -0.126961 0.119036 49 51 57
-0.361854 -0.005749 0.303728 91 98 92
-0.234519 -0.116391 0.014898 118 131 126
-0.115117 0.399841 0.025667 117 125 122
0.062991 -0.173756 0.017941 41 44 45
0.082938 -0.142250 0.018777 111 120 113
-0.395840 -0.102361 -0.001949 129 141 133
-0.138276 -0.219386 0.016715 135 144 137
-0.143742 0.043433 0.011847 98 114 103
-0.316996 -0.046494 0.046436 116 130 121
-0.426883 -0.017634 0.354661 209 206 201
0.140651 -0.184890 0.021019 120 125 115
-0.136173 0.109451 0.010646 32 53 42
-0.320344 0.450093 0.012587 137 136 136
-0.026751 -0.089963 0.052380 136 160 158
-0.065494 0.092721 0.010772 93 108 90
0.342622 -0.279576 0.029700 133 133 129
-0.462641 -0.061309 -0.001881 90 97 91
0.005681 -0.231789 0.019746 100 103 102
0.218538 0.391177 0.016792 60 60 54
-0.432627 -0.038265 0.321767 57 65 62
-0.037288 0.180116 0.008905 92 110 106
0.334264 0.486637 0.021916 148 149 140
-0.049489 0.056735 0.011210 83 100 86
-0.098762 0.043931 0.011351 95 111 100
0.150090 -0.285976 0.022690 133 134 128
-0.099688 -0.013203 0.012926 89 103 92
-0.071867 -0.001242 0.013073 18 27 20
-0.037168 0.415292 0.030868 149 157 154
-0.437990 -0.107453 -0.003621 104 111 105
0.207099 0.441793 0.016905 122 122 116
-0.204455 -0.134324 0.241496 13 19 19
0.244959 -0.073592 0.012143 42 54 60
-0.404925 -0.018669 0.003530 121 129 126
0.012917 0.450724 0.116633 162 169 163
0.243300 -0.250930 0.023405 131 131 125
-0.072786 0.448912 0.105623 163 170 164
0.262858 0.137426 0.017659 47 61 67
-0.409915 -0.027280 0.332477 100 111 109
-0.354989 -0.136016 0.322003 59 67 64
0.234784 -0.171895 0.024589 110 117 109
0.039585 -0.044528 0.014678 78 91 86
0.082546 -0.004349 0.017573 86 100 91
-0.465328 0.013584 0.388062 152 144 141
0.081383 0.137457 0.014760 93 112 102
-0.426161 -0.098836 -0.001600 105 112 106
0.102176 0.179312 0.109766 33 46 55
0.000028 -0.225495 0.061826 148 165 166
0.059009 -0.075157 0.015173 65 78 77
-0.228130 -0.129711 0.244875 15 26 26
0.333716 -0.138115 0.024153 110 108 98
0.116587 0.168440 0.046419 19 29 34
0.076238 0.097955 0.015208 97 109 99
0.140928 0.150028 0.024963 20 30 33
0.170435 0.189543 0.134603 134 156 159
0.278004 -0.286801 0.025985 132 132 126
-0.385254 0.142476 0.010322 118 129 127
0.020016 0.212849 0.009176 104 119 105
0.306979 0.279138 0.015316 130 135 125
-0.349862 -0.142550 0.375938 97 136 143
-0.285543 0.023950 0.129146 97 99 83
-0.146843 0.420104 0.048058 148 155 149
-0.161520 -0.061523 0.012147 95 109 98
-0.155241 0.429502 0.064418 157 164 158
0.270755 -0.149632 0.121976 71 85 91
0.285710 0.172120 0.110738 41 55 61
0.041735 0.401008 0.049614 167 178 174
0.116733 -0.092069 0.015775 22 34 38
0.358252 0.516538 0.023749 155 151 144
0.357816 -0.131103 0.024914 108 112 105
0.041320 0.454179 0.130053 157 164 156
0.109876 0.183395 0.126661 62 78 86
-0.305021 -0.132348 0.320332 54 66 58
0.373559 -0.271906 0.031227 140 137 132
0.220429 0.480993 0.016487 87 89 80
0.330317 -0.237062 0.027635 135 132 127
-0.309726 -0.118200 0.363180 117 158 164
-0.234431 -0.118274 0.015141 117 130 125
-0.101159 0.342945 0.026239 129 140 136
-0.353884 0.004669 0.294185 85 94 87
0.060400 0.253119 0.095548 159 172 169
0.101746 -0.213673 0.020357 59 58 60
-0.395898 -0.123855 0.312199 87 94 88
-0.191697 0.435209 0.092489 171 172 168
0.219167 0.174208 0.099503 38 52 58
0.292569 0.088946 0.044304 48 64 72
-0.194231 0.372670 0.028847 114 121 115
0.335277 -0.269748 0.028264 138 138 132
0.196444 0.174331 0.074487 36 48 52
-0.163993 0.503402 0.085946 169 173 166
-0.420497 -0.011965 0.352915 212 219 213
0.203779 -0.076245 0.008446 27 37 40
-0.394677 -0.057688 -0.000731 125 136 132
0.299556 0.452767 0.018708 145 146 142
-0.217955 -0.121793 0.255408 20 31 27
-0.229390 -0.293319 0.015520 108 107 109
0.172601 -0.177975 0.021024 105 114 105
-0.413748 -0.025947 0.338077 106 114 115
-0.206984 0.297698 0.028334 125 132 124
0.041939 -0.183571 0.015518 70 81 79
-0.049454 0.227981 0.006316 98 114 105
-0.126355 0.151926 0.009413 104 120 109
-0.289992 0.193658 0.008836 138 150 140
-0.254131 0.231396 0.008523 146 154 143
0.109334 0.499167 0.019017 139 141 132
-0.279586 -0.241778 0.013959 143 150 144
0.210832 0.398869 0.016933 122 124 115
-0.137341 -0.184246 0.066755 104 122 120
-0.040794 0.222224 0.105405 140 155 150
0.178380 -0.060937 0.008147 26 38 42
-0.420486 -0.104086 -0.002492 106 115 108
0.069610 0.037119 0.014969 96 110 101
-0.487786 0.026297 0.113896 140 141 135
-0.167372 0.159923 0.010429 52 61 52
-0.468816 0.006794 0.395775 83 77 81
-0.326528 0.100032 0.065303 157 165 150
0.045270 0.121933 0.014456 107 121 110
-0.316323 0.280003 0.013401 154 155 149
-0.040713 -0.099674 0.032343 125 147 146
0.384919 0.388786 0.029653 148 145 140
0.287738 0.147615 0.035493 54 70 78
-0.262480 -0.096082 0.025307 117 129 121
0.072993 0.020302 0.137879 61 80 82
0.204612 0.131410 0.019681 19 31 33
0.369664 -0.281498 0.031474 140 135 131
-0.051032 0.014898 0.013066 79 94 80
0.261461 -0.189207 0.024645 128 132 125
0.215520 -0.176707 0.022949 105 109 102
-0.096646 0.058564 0.011107 90 106 97
-0.244730 -0.121948 0.015294 118 130 122
0.310937 0.386899 0.020670 143 145 136
-0.030789 0.448146 0.110116 163 170 164
0.074170 -0.132308 0.113026 76 98 97
0.367295 0.430627 0.026945 153 148 144
-0.003313 -0.166825 0.051319 124 141 142
-0.061027 -0.234809 0.052641 128 145 146
-0.192033 -0.049987 0.253682 11 17 15
-0.348221 -0.142564 0.372973 94 128 134
-0.013488 0.099355 0.011140 101 117 106
-0.479819 -0.043362 -0.003954 86 97 93
-0.377694 -0.063831 0.000630 125 133 130
0.028807 -0.219665 0.017207 74 73 73
0.229478 0.310995 0.010857 106 113 105
0.011083 -0.140472 0.067270 145 167 166
-0.403524 -0.007814 0.341267 179 182 185
0.314373 -0.033026 0.129112 84 93 103
0.127873 0.047201 0.011730 24 36 40
-0.165526 0.427441 0.063560 154 161 155
0.352750 0.431481 0.025635 151 147 140
-0.114296 -0.213743 0.052590 111 126 125
-0.063784 0.152556 0.009287 106 122 111
-0.198775 -0.166653 0.224000 34 45 45
0.200173 -0.188654 0.022341 113 120 112
-0.203854 -0.220230 0.012998 128 140 132
0.270648 0.162805 0.069445 34 48 54
0.089096 -0.167314 0.020086 97 108 104
0.224937 -0.135883 0.028408 68 75 79
-0.154153 -0.092651 0.015585 106 121 116
0.202371 -0.151862 0.123559 136 158 161
0.242622 0.429167 0.016491 136 137 126
-0.444755 -0.059626 -0.001093 104 111 105
0.279510 0.169566 0.101034 37 51 57
0.048926 0.062251 0.014139 34 49 46
0.396198 -0.060573 0.019868 102 106 101
-0.057415 0.105887 0.010363 92 111 99
0.230067 -0.194061 0.023426 119 123 116
-0.251028 0.203397 0.008606 140 150 136
0.163232 -0.064853 0.008244 27 37 40
0.203581 0.447748 0.016245 119 123 116
0.039020 -0.218095 0.017672 81 90 81
-0.401587 -0.007806 0.338715 179 179 179
-0.324802 0.315453 0.011748 72 73 69
0.073530 -0.258503 0.022141 122 129 123
-0.223678 -0.085526 0.272837 51 35 30
-0.050320 0.316431 0.025794 136 149 146
-0.313893 0.379515 0.014575 147 148 144
0.031371 -0.087880 0.013742 69 84 79
-0.340774 -0.114249 0.388428 136 172 178
-0.266804 -0.105597 0.314139 128 144 135
0.276543 0.173848 0.111248 42 56 62
-0.108593 0.166121 0.008403 108 120 110
-0.177707 0.374199 0.027234 117 124 118
-0.068082 0.208880 0.006545 112 125 112
0.099306 -0.128800 0.021952 95 106 102
-0.283327 0.485042 0.014254 140 140 140
-0.301884 -0.104166 0.359443 86 119 121
-0.381005 -0.067503 0.000247 125 133 130
-0.347158 -0.136370 0.322962 59 67 64
-0.419409 -0.025340 0.000397 135 143 140
-0.256195 -0.275914 0.015565 150 157 151
0.272305 -0.076439 0.026154 54 66 72
-0.096539 0.443786 0.093657 165 169 164
0.165404 0.005309 0.009746 28 40 44
-0.022191 -0.199747 0.041299 140 159 161
0.040364 -0.240117 0.019918 120 130 118
0.277154 -0.140930 0.027546 106 110 103
-0.104697 0.411124 0.031363 146 154 151
-0.254193 0.098731 0.012998 114 125 121
0.253627 -0.004957 0.011294 46 58 62
0.121796 0.453432 0.014361 117 123 121
-0.020412 0.426821 0.058127 157 165 162
0.200358 0.171609 0.038734 30 42 46
0.181144 0.108555 0.017130 21 33 35
0.340330 -0.237140 0.027972 133 130 125
0.235099 0.050211 0.011139 29 39 42
-0.419963 -0.102875 0.292866 66 77 73
-0.386209 -0.129387 0.312179 76 83 77
0.282024 0.302542 0.013179 66 69 70
0.056564 -0.108427 0.014459 68 82 73
-0.413097 -0.052189 -0.000226 130 141 137
0.170280 0.161019 0.037266 16 28 30
0.378933 0.426634 0.028730 143 143 139
-0.063730 0.443035 0.089406 163 170 164
0.084205 -0.251985 0.021836 128 134 134
-0.437105 -0.008797 0.367174 174 173 173
-0.294406 0.068195 0.043885 123 136 121
-0.166299 -0.115970 0.013898 118 130 122
0.037416 -0.296542 0.021859 115 121 119
-0.050648 0.077969 0.010701 88 104 93
0.271389 -0.192563 0.024305 131 132 126
-0.233452 0.154800 0.010517 123 135 125
-0.028907 -0.102434 0.035335 130 152 151
-0.356083 -0.050556 0.342842 64 72 71
-0.111871 -0.260602 0.017705 125 134 127
0.145580 -0.215584 0.021266 85 92 86
-0.347346 0.151749 -0.001777 101 101 103
-0.170551 -0.051911 0.017053 99 113 102
0.158486 0.144784 0.022734 22 32 35
0.203626 0.143589 0.021619 22 32 35
-0.130571 0.062456 0.011234 31 46 45
0.066792 0.033722 0.140979 66 89 96
0.357547 -0.140231 0.025391 114 116 107
-0.203602 -0.228661 0.013587 137 149 141
-0.102923 0.018718 0.012929 44 59 54
0.302098 -0.047701 0.103138 62 75 84
0.055449 0.277401 0.077961 154 169 166
0.067819 0.381068 0.140999 165 171 169
-0.142461 -0.124469 0.081472 121 143 142
0.080745 0.128787 0.014481 99 113 104
0.049931 0.222867 0.099640 132 147 144
0.002725 0.410441 0.031129 148 159 155
0.216922 0.338065 0.015088 55 58 57
-0.300121 0.476125 0.014588 150 152 143
0.038777 -0.181634 0.014652 69 80 78
-0.384084 -0.020333 0.317908 82 89 83
-0.455854 -0.021559 0.372991 192 194 185
-0.038445 0.050285 0.011822 83 102 92
-0.004961 0.008705 0.013990 102 114 104
-0.232466 -0.091775 0.280016 166 64 70
-0.236438 0.297520 0.041536 164 171 165
0.171969 0.142760 0.022605 22 32 35
-0.147281 -0.161117 0.079628 112 130 128
-0.157799 -0.298394 0.016775 39 40 36
-0.157536 0.148832 0.010465 117 127 115
0.318478 0.134593 0.140842 84 97 108
-0.241760 -0.081966 0.288109 32 45 44
0.178535 -0.158747 0.021054 113 117 112
-0.130015 -0.255623 0.017124 131 137 135
0.318389 0.366018 0.020822 132 139 131
-0.079610 -0.124267 0.029947 123 145 146
-0.051425 0.110666 0.009584 92 111 101
0.074675 0.249993 0.011251 99 106 98
0.384539 -0.260635 0.031019 135 133 125
-0.279260 -0.271158 0.016042 148 155 149
0.003196 0.163258 0.011276 111 125 114
0.241960 -0.229349 0.022639 127 128 119
0.143425 -0.248683 0.020970 126 130 123
-0.307769 0.461045 0.015955 146 148 139
-0.340092 -0.082220 0.381059 127 166 171
0.210515 0.172580 0.077559 36 48 54
-0.255777 0.405334 0.135006 181 185 178
0.028740 0.222635 0.102845 143 161 157
-0.036266 -0.231211 0.050527 145 162 165
-0.096398 0.073399 0.010765 97 116 104
0.107445 -0.085984 0.019854 24 34 41
0.130297 -0.201865 0.020408 124 131 125
0.246487 0.174022 0.107076 45 57 63
-0.065019 -0.187627 0.039695 138 157 157
0.331997 0.307127 0.021690 136 137 131
-0.144855 -0.276348 0.016520 127 136 129
-0.332581 -0.087395 0.026176 129 136 128
-0.407937 -0.131863 0.244894 85 98 95
-0.135628 -0.176586 0.062700 90 108 106
-0.331918 0.324972 0.008825 151 156 142
-0.168974 -0.034192 0.015894 97 113 102
0.159923 -0.208940 0.021669 114 125 123
0.348598 -0.289197 0.030390 113 110 107
-0.167326 -0.020224 0.015002 33 46 45
0.054560 0.144021 0.014488 45 56 56
0.092490 0.239406 0.009467 97 111 102
-0.443648 -0.039528 0.323917 57 63 61
0.172900 -0.026513 0.009669 29 39 44
-0.078354 -0.047489 0.011118 81 94 89
-0.339778 -0.133954 0.383014 112 149 152
-0.256412 0.293944 0.138859 168 183 182
-0.191197 -0.182989 0.013171 137 141 134
-0.203989 0.428299 0.082545 162 166 161
0.026323 0.325915 0.024513 135 148 145
0.146559 0.180534 0.131622 68 89 97
-0.083299 0.226471 0.068623 136 149 144
0.214746 -0.283130 0.023706 138 138 132
-0.171584 0.435262 0.084183 167 168 164
-0.313386 -0.134607 0.342130 58 70 62
0.222179 -0.200871 0.023365 109 117 116
0.102701 0.175012 0.078863 27 37 44
-0.097712 0.293694 0.025689 140 158 152
-0.082068 0.121226 0.009734 101 117 106
0.017561 0.420079 0.051387 153 164 160
-0.277957 0.062452 0.022230 114 126 118
-0.040281 -0.047611 0.011816 80 93 88
-0.308227 0.432903 0.017169 148 153 143
0.179248 0.156095 0.030540 18 29 29
-0.058024 0.211195 0.006743 111 126 112
-0.292538 -0.290232 0.017291 150 151 145
-0.489959 -0.033950 0.353365 34 45 45
0.024288 0.031177 0.013927 86 104 98
0.375536 0.357965 0.029036 123 123 123
-0.126918 0.037491 0.011585 99 115 104
-0.179063 -0.290346 0.015584 143 147 140
-0.022602 -0.099315 0.042500 167 195 199
-0.265973 -0.220032 0.012361 138 147 138
-0.325608 0.297558 0.012562 91 93 82
0.067162 0.241206 0.105969 151 164 161
0.284659 0.033257 0.030838 61 69 84
0.289544 -0.293325 0.027276 97 88 93
0.265793 0.163203 0.061383 37 51 57
-0.278240 -0.128158 0.285821 88 102 91
-0.185495 -0.119885 0.014749 114 126 118
-0.154223 0.224461 0.093613 139 155 146
-0.418760 -0.118885 -0.002030 113 120 114
-0.186375 0.053659 0.033271 114 121 115
0.025355 0.439937 0.094638 162 168 166
0.047549 0.404183 0.067592 169 180 178
0.033282 0.081763 0.012803 94 109 104
0.263844 -0.140426 0.025705 96 105 98
-0.303289 0.495517 0.014608 151 152 143
0.258456 0.331640 0.014240 134 141 133
-0.299949 0.234310 0.010525 144 153 144
0.240029 0.028058 0.009823 29 41 43
0.031217 0.411741 0.039664 155 166 162
0.299601 0.073385 0.078625 54 67 76
0.125381 0.465995 0.012633 75 79 72
-0.443515 -0.027342 0.358094 137 140 139
-0.055895 0.342309 0.027943 136 147 143
0.297721 -0.041301 0.082569 58 71 80
0.211452 -0.283112 0.023644 140 141 132
0.399217 0.343394 0.031835 139 140 134
0.222802 -0.098476 0.013302 33 45 49
0.299668 0.056317 0.080347 56 69 78
0.233371 -0.288131 0.025091 138 138 134
0.059995 0.344821 0.114615 167 178 176
-0.407069 -0.037855 0.318604 68 79 75
0.006643 -0.142494 0.062401 139 161 162
-0.194473 -0.155058 0.233345 17 28 26
0.096806 -0.194969 0.020127 114 122 119
0.011176 -0.157118 0.059596 149 171 170
0.116826 -0.273156 0.022657 131 133 124
-0.089533 -0.222031 0.045471 128 142 144
-0.207821 0.431406 0.090606 166 167 163
0.337523 -0.211804 0.026519 129 133 128
-0.126740 0.440612 0.082084 164 168 163
0.275800 0.484216 0.017128 146 146 140
-0.339303 -0.116862 0.388406 131 170 177
0.092718 0.184623 0.130949 68 85 90
0.154607 0.011024 0.010438 28 40 42
0.272944 -0.170379 0.025532 121 125 118
0.110848 -0.174361 0.020419 53 56 57
-0.113421 0.357523 0.026858 105 116 112
0.157057 0.177915 0.089129 34 50 58
0.083573 0.183965 0.012125 109 120 118
-0.475610 0.032828 0.142005 145 153 150
0.030150 0.230172 0.029993 127 141 132
0.272527 0.152407 0.018903 41 54 63
0.153197 -0.148724 0.123739 135 161 163
0.038637 0.443395 0.116630 162 169 163
-0.326413 -0.159106 0.007894 135 142 134
-0.058608 -0.295935 0.019498 105 111 109
-0.364431 -0.047323 0.002688 109 120 118
-0.281228 -0.124140 0.304045 29 37 36
0.085126 -0.009677 0.020928 76 91 88
0.292639 -0.226534 0.024940 134 134 128
-0.013342 -0.011274 0.014010 94 108 97
0.245704 -0.227651 0.022449 127 127 121
-0.269212 0.063122 0.016645 117 129 119
0.054871 0.039462 0.014141 52 60 57
-0.351000 0.051114 0.244359 126 162 168
0.213840 0.295564 0.007681 105 112 104
0.213582 0.171067 0.072938 33 47 53
-0.447426 0.000302 0.378760 176 173 168
0.149444 0.497033 0.015938 82 86 79
-0.410088 -0.019557 0.340248 159 167 166
-0.284397 -0.054331 0.037829 113 122 113
0.388176 0.349297 0.030562 146 143 138
0.384523 0.270103 0.029952 132 133 127
-0.154294 0.231725 0.108901 149 163 154
-0.329706 0.324320 0.009759 148 156 145
-0.474556 -0.005055 0.397824 72 71 71
0.056257 0.085435 0.014304 108 121 120
0.322911 -0.255247 0.028645 125 123 115
0.285949 -0.097354 0.060714 53 64 73
0.046447 0.288637 0.052410 157 170 167
0.057381 0.180939 0.012947 41 51 56
-0.022675 -0.264193 0.018757 118 130 122
0.294164 -0.050916 0.073959 54 67 76
0.302710 0.041700 0.093823 60 76 84
-0.290348 -0.145038 0.014677 39 50 48
0.348085 -0.284411 0.030091 79 75 76
-0.193023 -0.122837 0.254531 22 30 29
0.010506 0.432169 0.079650 160 168 167
0.063657 -0.258392 0.021599 46 54 51
-0.260934 -0.084231 0.308753 169 187 181
0.022144 -0.143063 0.070309 122 137 134
0.175762 -0.266903 0.022796 133 137 132
0.317981 -0.206682 0.026359 126 127 121
-0.174852 0.307970 0.024890 114 126 118
-0.032706 -0.265802 0.018907 51 58 52
-0.019688 0.232263 0.104242 145 160 155
0.228934 0.030077 0.009765 32 42 45
0.132603 -0.179711 0.021030 117 122 112
-0.469103 -0.081906 -0.002445 86 93 87
0.133525 0.026871 0.011180 27 37 40
0.269250 -0.093502 0.026944 50 64 70
-0.343155 -0.125704 0.387675 138 174 182
-0.311141 0.258983 0.012517 154 156 147
-0.184986 0.162375 0.009776 120 130 118
-0.304230 0.240883 0.011232 146 155 146
0.178611 -0.234170 0.022266 132 133 127
-0.304533 -0.083742 0.354654 84 103 103
0.142800 0.423210 0.015195 120 125 115
0.377960 0.394996 0.028329 134 130 133
-0.180789 -0.154607 0.223313 71 79 78
0.101934 -0.194985 0.020193 114 121 115
0.359861 -0.179196 0.026083 124 125 116
-0.236465 -0.204778 0.011541 136 143 137
0.061973 0.417385 0.133988 175 182 176
0.296982 0.109724 0.057088 50 63 72
0.223179 -0.015751 0.008008 34 41 45
0.261575 -0.211163 0.023796 131 128 123
0.031765 -0.023393 0.015275 81 95 86
0.030965 0.379415 0.027972 155 166 164
0.358317 -0.124423 0.026797 109 109 109
-0.220463 0.006041 0.116921 100 114 105
0.138474 0.127708 0.017373 19 29 32
-0.292036 -0.100461 0.345894 90 103 98
-0.156292 -0.282617 0.016219 137 140 139
-0.494775 -0.000208 0.407800 204 199 195
0.238681 0.177603 0.137679 89 95 106
0.162598 0.474426 0.016448 129 131 122
-0.169517 0.438530 0.092168 165 169 164
0.301788 -0.074820 0.108151 67 78 87
-0.313878 -0.081214 0.366145 126 161 164
-0.171757 -0.228994 0.015089 134 143 136
-0.471519 -0.033701 0.348049 70 76 74
0.016935 -0.027166 0.014753 79 98 88
-0.037757 -0.118832 0.029993 123 145 144
-0.230509 -0.226724 0.012335 140 149 142
0.231649 0.166963 0.061890 34 48 54
-0.065189 -0.227224 0.046916 128 145 148
0.051992 -0.048473 0.015046 78 92 83
0.097554 0.255220 0.011011 99 106 98
-0.285646 -0.198252 0.012807 128 136 133
0.380765 0.282496 0.029545 135 136 130
-0.375000 -0.033201 0.001013 119 130 126
-0.250384 0.341376 0.146661 170 178 179
-0.365878 0.140486 0.033713 88 89 83
0.148641 0.395916 0.016103 117 122 112
-0.123104 0.447129 0.100860 166 170 165
0.276420 -0.269146 0.025316 136 133 128
0.344509 -0.194737 0.026205 116 116 118
-0.089009 0.062869 0.010939 27 45 41
0.131661 0.026899 0.011094 26 38 40
0.297737 0.181913 0.132240 80 90 95
0.150919 -0.169449 0.021703 105 112 106
-0.065442 0.440388 0.083590 162 168 166
-0.346189 -0.100430 0.387302 136 172 180
-0.410037 -0.018451 0.340966 190 193 196
0.308021 -0.017647 0.118905 64 80 88
-0.036224 -0.182409 0.039082 140 159 161
0.242516 0.048239 0.010993 33 43 46
-0.200537 -0.218561 0.012987 124 136 128
-0.015344 0.323205 0.027400 131 144 141
0.280254 -0.291615 0.026478 83 75 74
-0.230546 -0.132159 0.013416 117 129 121
-0.105328 0.425196 0.052182 155 162 156
-0.125971 0.222362 0.006441 73 84 80
0.315079 0.035437 0.129996 85 98 109
0.294773 -0.067280 0.078308 57 66 76
0.283733 -0.062646 0.040399 49 65 73
0.151973 -0.190160 0.021478 119 123 116
0.171564 -0.055381 0.008692 28 40 42
0.163505 0.063410 0.013277 27 37 40
-0.247536 -0.286971 0.015383 146 153 147
-0.127350 0.451129 0.110506 166 170 165
0.172566 0.378210 0.015708 60 66 64
-0.002436 0.129638 0.011616 114 128 117
-0.134502 -0.011500 0.013203 22 40 34
0.214354 0.072117 0.013416 28 40 42
0.230700 0.060539 0.011385 30 40 43
-0.173355 0.357915 0.028490 110 117 111
-0.419464 -0.009191 0.353383 173 176 177
-0.346505 -0.019620 0.276948 71 79 76
0.368387 -0.131143 0.025100 109 110 104
0.075206 0.059430 0.135761 59 76 81
0.226280 -0.185414 0.023182 117 122 112
-0.455041 -0.036123 -0.002348 88 108 103
-0.379205 -0.067517 0.000302 125 133 130
0.360125 -0.247105 0.028329 136 133 128
-0.118760 0.231191 0.036548 134 148 139
0.062209 0.016273 0.015952 85 101 92
-0.307599 0.381221 0.015823 147 151 144
0.389310 0.344128 0.030675 145 142 139
0.393002 -0.161846 0.026628 130 122 119
-0.234627 -0.165206 0.011342 127 141 132
-0.051893 -0.124316 0.030262 117 139 140
0.316584 -0.204986 0.026358 124 123 125
-0.047135 0.020858 0.013354 67 82 68
-0.127069 -0.165136 0.051068 95 108 107
-0.402615 -0.005918 0.340704 251 255 250
-0.267312 -0.280695 0.015991 147 154 146
-0.002096 0.097128 0.011460 108 124 115
0.260235 0.169780 0.086461 37 51 57
0.197458 0.332884 0.014855 114 122 109
-0.370573 -0.007802 0.312668 91 97 95
-0.263884 -0.161954 0.012243 131 140 133
0.052123 0.428101 0.113819 175 182 176
0.229856 -0.299168 0.025372 133 138 126
-0.355457 -0.109491 0.383862 137 171 177
-0.229850 -0.094880 0.276875 55 33 35
-0.281804 -0.125129 0.299535 21 27 29
0.008155 -0.118252 0.073790 129 151 150
0.188899 0.352529 0.015733 112 120 119
-0.312986 -0.219762 0.011281 133 137 130
0.224907 -0.278595 0.025152 130 131 125
-0.106870 -0.252789 0.019240 81 89 88
-0.082955 -0.091372 0.039989 124 143 143
-0.198144 0.424724 0.071975 158 165 159
0.023352 0.440083 0.094436 163 169 167
-0.269101 -0.122844 0.297576 92 107 104
0.118547 0.389113 0.014127 120 124 117
-0.319771 -0.242681 0.010272 62 63 59
-0.130028 0.326096 0.024704 104 115 111
0.005206 -0.240002 0.019596 93 101 98
-0.497350 0.011486 0.410091 170 163 157
-0.377600 -0.103151 0.000698 125 136 132
0.117875 0.086259 0.013536 21 33 37
0.032680 0.336216 0.027672 149 162 159
-0.312796 0.436507 0.015992 149 154 144
-0.434922 -0.031828 0.342735 116 124 121
-0.152736 0.362105 0.026778 109 118 111
0.066418 0.044269 0.138898 77 94 99
0.066106 0.015034 0.144699 67 85 92
0.257787 -0.202710 0.023899 126 127 121
-0.236796 -0.153025 0.011735 128 139 135
0.280450 -0.142354 0.125182 79 93 99
0.045680 0.343658 0.054329 162 177 174
0.053000 0.066413 0.014256 37 52 47
-0.102680 0.444920 0.095153 163 170 164
-0.405772 -0.127664 -0.003007 46 46 40
-0.009846 -0.183374 0.043036 141 160 162
-0.192496 -0.201747 0.013036 43 51 48
-0.075928 -0.275262 0.018713 129 135 133
-0.323833 -0.131122 0.365008 106 142 150
-0.390180 -0.044878 0.001023 125 136 132
0.241495 0.152985 0.017380 38 50 54
-0.473744 -0.020854 0.385834 49 55 57
-0.307472 -0.148301 0.013637 133 142 135
-0.085999 0.442894 0.086212 163 170 164
-0.016567 0.418266 0.037229 154 162 161
-0.156821 -0.210853 0.016015 135 144 135
-0.037665 0.024978 0.013330 88 101 96
-0.330579 -0.097281 0.383945 131 170 177
0.115193 0.534665 0.014638 121 130 123
0.149678 0.499778 0.016029 128 132 125
-0.076560 0.337670 0.027013 135 146 142
-0.250529 0.319866 0.132864 165 176 176
0.306624 -0.017396 0.114115 64 80 88
-0.263489 -0.129228 0.015516 126 138 130
0.152650 -0.141072 0.021214 86 92 90
0.219331 0.138412 0.019213 23 33 36
0.070338 -0.023272 0.015385 87 99 91
0.059926 -0.228456 0.019277 121 128 120
-0.479998 0.004031 0.404014 165 165 161
-0.222909 -0.156383 0.011147 126 137 133
0.099178 -0.130547 0.021773 97 108 104
0.017548 0.446380 0.110208 161 167 165
-0.410574 -0.081614 -0.002881 125 133 130
-0.130481 -0.167634 0.054099 88 99 99
-0.281636 -0.148344 0.013879 131 142 138
0.304821 0.031661 0.106379 61 77 87
0.386286 0.470211 0.028968 153 151 141
0.085859 0.232284 0.009340 114 123 116
-0.039931 -0.218483 0.043894 138 155 158
0.226802 0.461312 0.016905 92 89 84
-0.330509 -0.288006 0.013245 155 155 149
0.071497 0.022212 0.137778 63 81 88
-0.229607 -0.071499 0.275489 31 39 38
0.304132 -0.191066 0.025209 132 132 126
-0.361642 -0.112811 -0.003690 28 35 39
0.108554 -0.196756 0.020459 114 123 116
0.183533 0.114578 0.018102 19 31 33
0.327562 -0.273062 0.029079 138 135 130
-0.395558 -0.090618 0.329649 79 88 81
0.256884 0.167961 0.078733 38 51 60
0.394402 -0.229087 0.028797 134 134 130
0.275147 0.291975 0.010399 130 134 127
-0.300471 -0.271110 0.016075 143 150 144
-0.360335 0.113483 -0.004650 41 48 52
-0.350503 0.055206 0.216492 113 141 145
0.358618 -0.266830 0.029790 138 135 132
-0.382216 -0.022509 0.313506 76 83 77
0.202288 0.539545 0.017414 107 104 101
-0.189158 -0.113951 0.013106 110 122 114
0.148646 0.167147 0.049122 19 29 32
-0.215634 -0.167091 0.011919 126 138 130
-0.138193 -0.037473 0.014678 90 104 93
0.196909 -0.095808 0.010612 26 38 44
0.311129 -0.131707 0.133546 80 93 102
0.312837 0.413598 0.020467 142 143 139
-0.010464 -0.169178 0.040686 128 150 149
0.050915 -0.233583 0.020144 116 125 118
-0.307826 -0.141457 0.014470 126 135 128
-0.071021 0.101278 0.010737 26 34 33
0.121047 -0.174530 0.021106 58 58 62
-0.352581 -0.013584 0.298006 36 44 45
-0.192617 0.411675 0.038437 149 156 150
0.183138 0.176425 0.135255 69 87 96
0.306671 0.098322 0.104571 63 76 85
0.159115 0.483040 0.016089 124 128 123
-0.317833 -0.281905 0.014387 57 60 59
0.114570 -0.137377 0.020637 96 103 95
0.118647 0.315218 0.013409 106 110 103
-0.105395 0.426088 0.054207 155 162 156
-0.214715 0.443185 0.125320 173 174 170
-0.252815 0.402844 0.121286 179 180 176
-0.239185 0.203650 0.008393 138 148 136
0.083300 0.087814 0.014198 106 120 111
0.215567 0.318065 0.011249 113 117 110
0.123951 0.184103 0.129073 64 80 88
0.065616 -0.061632 0.014495 88 101 96
0.096651 0.182088 0.128393 62 78 86
0.302064 -0.026253 0.100191 60 76 84
-0.300844 0.490027 0.014551 152 154 145
-0.427259 -0.069496 0.000147 107 116 109
0.022313 -0.150401 0.066121 159 177 173
0.191762 0.146870 0.023499 22 32 35
-0.259902 0.290958 0.139649 166 181 180
-0.405571 -0.126319 -0.001390 46 46 42
-0.320313 0.378406 0.012562 143 146 145
0.071542 0.233645 0.010675 102 111 102
-0.236068 -0.098616 0.281964 35 41 41
0.163659 0.178271 0.078205 35 49 55
0.316833 -0.194744 0.026274 129 126 121
0.215905 -0.142654 0.020722 99 105 103
0.380127 0.326688 0.030132 137 137 131
-0.412162 -0.027897 0.333527 98 109 107
0.382230 0.062479 0.027038 34 39 44
0.299827 -0.091447 0.105380 63 76 85
0.349137 -0.286075 0.030645 138 135 132
0.340255 -0.246921 0.027498 134 131 126
0.330726 0.450156 0.022397 150 151 142
0.246512 -0.163200 0.024779 109 113 106
0.197677 0.435917 0.017243 121 122 116
-0.292273 0.239281 0.010269 140 147 139
-0.244269 -0.253227 0.013907 147 152 142
0.166843 0.342297 0.015306 113 120 112
0.073719 -0.051940 0.014222 87 101 92
-0.254406 -0.076867 0.299513 127 145 139
-0.222194 0.419146 0.077831 164 168 163
0.287722 0.004946 0.040388 53 69 79
0.365622 0.298231 0.027846 77 74 71
0.134984 -0.287542 0.022894 133 134 128
-0.076510 0.430049 0.059355 157 163 161
-0.301552 -0.114857 0.355974 89 101 105
0.126470 -0.220469 0.020642 109 117 116
-0.257679 0.132218 0.010998 118 128 114
-0.248711 -0.294919 0.016271 71 68 65
-0.331573 -0.091080 0.382412 130 169 176
-0.201534 -0.040915 0.270816 37 48 48
0.204222 0.029920 0.009809 26 38 40
-0.321902 -0.131362 0.362556 101 140 147
-0.488238 -0.017669 0.394421 178 182 177
0.074248 -0.099842 0.126822 52 65 74
0.196738 0.184750 0.135819 137 159 160
-0.060522 -0.257626 0.018563 120 127 121
0.180589 -0.268503 0.022669 131 135 130
-0.109100 0.417855 0.039017 150 158 155
0.309035 -0.022823 0.122321 74 87 96
-0.205560 -0.275924 0.014733 145 152 146
-0.161665 -0.043387 0.014795 97 109 101
0.253692 -0.229450 0.023079 69 75 75
-0.128778 -0.123213 0.060958 116 140 138
0.081480 0.106534 0.051813 89 107 105
0.055008 -0.080757 0.015015 68 81 76
0.284455 0.168726 0.102454 38 52 58
0.058907 0.150624 0.014689 103 117 108
-0.392407 -0.063275 -0.001086 127 136 129
0.363482 -0.279858 0.031234 140 137 132
-0.180657 -0.291946 0.015847 84 87 88
-0.029997 0.117041 0.010189 101 115 104
0.160722 0.501931 0.017003 131 132 126
0.147104 -0.172882 0.021493 117 118 112
-0.177645 -0.277683 0.015381 136 142 140
-0.069467 -0.172928 0.080620 120 144 144
-0.061875 -0.090649 0.037997 124 143 143
0.038097 0.306200 0.034709 154 167 166
0.215437 -0.257370 0.023289 122 126 119
-0.131989 0.217845 0.006061 118 126 113
-0.111411 0.225346 0.102833 142 157 154
-0.070853 -0.085232 0.043498 129 148 148
-0.326176 -0.075278 0.028493 121 128 120
-0.348280 -0.141006 0.378362 107 143 151
-0.260686 -0.125110 0.278330 17 28 28
-0.022231 0.445844 0.104334 163 170 164
0.191837 -0.162415 0.021652 107 113 111
0.171711 0.110683 0.017066 21 33 35
0.019545 0.223359 0.088505 138 149 145
-0.071793 0.145684 0.009490 52 66 55
0.312430 -0.184127 0.024992 124 124 118
-0.362535 -0.029635 0.301235 87 93 91
-0.145451 -0.031811 0.014982 95 109 98
-0.143592 -0.080918 0.019429 107 123 112
-0.066300 -0.076626 0.055480 127 150 146
0.232299 -0.101214 0.016131 31 45 51
-0.276453 -0.126884 0.289831 87 99 89
0.359244 0.484226 0.025142 150 148 140
0.358823 -0.237233 0.028318 137 132 128
-0.075846 -0.272081 0.018763 128 135 129
0.069058 -0.056678 0.131561 63 81 88
-0.257895 0.277034 0.134132 179 185 183
-0.130942 0.442934 0.088133 165 169 164
-0.207029 -0.226872 0.012939 131 143 135
-0.469946 -0.072905 -0.001275 88 97 90
-0.291128 0.347079 0.017159 80 81 77
-0.465564 -0.039961 0.332633 36 39 40
-0.204647 -0.127089 0.242096 1 12 10
-0.302614 0.059755 0.076680 93 106 93
0.086310 -0.160262 0.019915 96 105 98
0.315085 0.018122 0.130422 86 97 108
0.385266 0.084380 0.025439 88 98 101
-0.106722 0.403984 0.027196 138 147 140
-0.104759 0.386901 0.025710 130 138 135
0.307381 -0.025907 0.116725 64 80 88
-0.039509 0.337757 0.027603 130 141 139
-0.260497 -0.118700 0.294572 120 135 132
-0.340063 0.096485 0.020247 160 173 158
0.356616 -0.274932 0.030377 139 136 131
-0.179617 0.363176 0.028165 114 121 115
0.142755 0.377765 0.015701 74 75 71
0.377432 -0.152958 0.026381 59 59 61
-0.076946 -0.194428 0.040049 139 158 158
0.136081 0.031376 0.010296 26 38 40
-0.016465 0.435846 0.083797 161 169 166
0.079083 -0.005619 0.015786 85 101 92
0.195076 0.450154 0.016462 114 121 115
-0.429293 -0.027811 0.011672 130 141 139
0.132203 0.423637 0.014467 120 128 117
-0.465173 -0.027143 0.372308 132 133 129
0.347471 0.371022 0.024972 138 138 132
-0.048605 0.029492 0.012191 81 97 86
-0.030175 0.434235 0.076499 162 168 166
-0.134560 -0.035354 0.014228 24 36 28
-0.026267 -0.093448 0.046621 139 161 160
0.059862 0.057789 0.014890 88 109 98
-0.271866 -0.089730 0.323398 87 98 94
0.262776 -0.297801 0.026112 129 133 126
0.217693 -0.162636 0.022550 78 86 83
-0.295745 0.440042 0.018518 147 151 144
0.181326 -0.203727 0.021007 114 121 115
-0.320047 -0.239370 0.010089 61 62 58
-0.374478 -0.077405 0.001665 121 132 128
-0.295376 0.152130 0.010312 65 76 74
-0.239963 -0.274311 0.015184 142 146 139
-0.249367 0.264509 0.008958 147 160 147
-0.133415 -0.292270 0.017207 54 61 65
0.363299 0.257841 0.026293 104 104 104
0.071182 0.293253 0.116618 153 166 163
0.342563 -0.256977 0.029042 126 131 121
0.190063 0.059772 0.012459 31 41 44
-0.012379 0.044029 0.012278 103 116 111
-0.103788 -0.271904 0.018061 126 133 127
-0.448704 -0.034289 0.346832 98 102 97
-0.209002 0.412552 0.046427 157 161 156
0.306015 0.171876 0.134650 77 90 99
0.145944 0.125389 0.017723 19 29 32
-0.159397 0.437488 0.084870 163 167 162
-0.345190 -0.142236 0.350429 105 134 133
-0.237293 -0.107581 0.278661 24 35 35
-0.293422 -0.182785 0.012357 131 140 133
-0.499980 -0.010178 0.405113 234 227 221
-0.019668 0.227120 0.101956 149 162 157
0.209063 -0.174809 0.022295 51 51 47
-0.063256 -0.146533 0.033595 125 147 146
0.351687 -0.215439 0.027714 123 124 120
0.203249 -0.148098 0.127353 140 162 165
-0.133327 -0.260370 0.016573 124 131 125
-0.098591 -0.252827 0.019363 72 80 77
0.290238 -0.159990 0.026032 125 126 120
-0.480363 -0.032379 0.366031 83 83 83
-0.276374 -0.150104 0.013878 132 143 139
0.224089 -0.254244 0.023927 59 57 64
0.010565 0.223001 0.098730 145 158 153
-0.475543 -0.089060 -0.003473 85 91 89
0.145500 0.053326 0.012221 26 38 40
-0.152689 0.352061 0.026587 111 119 116
-0.073191 0.452255 0.113218 163 170 164
-0.094130 0.206184 0.006708 111 126 112
-0.059650 0.228139 0.035140 132 146 137
-0.154186 -0.087262 0.016096 104 119 114
0.291237 -0.154656 0.025866 120 124 119
-0.244764 0.099133 0.012353 103 114 112
0.169259 0.497106 0.016262 101 102 96
0.309296 -0.084225 0.133242 84 97 108
-0.210791 -0.156552 0.011817 122 134 126
0.191422 0.055533 0.012585 26 36 39
-0.262588 0.244696 0.009750 80 87 79
0.180775 0.547973 0.017268 142 144 135
-0.101932 0.437282 0.074570 162 169 163
-0.130697 0.436446 0.074918 162 165 164
-0.233583 -0.191257 0.011894 132 141 134
0.282850 0.088974 0.023287 54 70 78
-0.312696 -0.115165 0.368232 126 167 173
0.020348 0.334472 0.026405 131 144 141
0.355839 -0.220455 0.027601 130 131 125
-0.244069 -0.120941 0.271696 12 23 19
0.053609 0.130678 0.014629 39 50 46
0.275100 0.143443 0.019017 49 63 69
-0.124170 0.189105 0.007733 113 127 116
-0.096750 0.420940 0.044983 148 159 155
0.183654 0.318578 0.013436 91 97 95
0.102405 0.182871 0.127316 60 76 84
-0.249632 0.292399 0.077544 165 172 166
-0.366750 -0.131303 0.296333 29 35 37
-0.089092 0.325401 0.026415 134 147 142
-0.491535 -0.023370 0.389554 130 130 126
0.038188 0.232344 0.030394 123 137 128
-0.449900 -0.018770 0.373379 168 164 167
0.021979 -0.005340 0.014449 71 84 81
-0.472669 -0.033553 0.355528 84 85 81
0.077075 -0.134193 0.113724 110 132 135
-0.010063 -0.019196 0.014133 96 110 99
-0.308294 0.359461 0.017287 147 152 140
0.144447 0.466314 0.015847 126 128 119
0.219367 0.119591 0.017414 18 30 32
-0.089998 0.110275 0.009756 104 118 107
-0.183974 0.218938 0.007169 96 105 98
0.170658 -0.207076 0.020834 120 124 117
0.053747 -0.206083 0.016627 86 97 93
-0.184085 0.420487 0.056067 157 161 156
0.317768 0.053793 0.131821 83 97 103
-0.201228 -0.254936 0.013910 91 99 100
0.193956 0.191182 0.135782 139 158 158
-0.442347 -0.081989 -0.001991 90 99 92
-0.054003 -0.262385 0.017969 125 133 130
-0.154230 0.221559 0.104298 142 158 149
0.081351 -0.248579 0.021029 132 139 131
-0.107669 0.459624 0.123991 170 174 169
0.212229 -0.212503 0.022346 108 114 112
0.341902 0.454718 0.023696 146 144 136
0.135620 0.295692 0.013178 102 111 102
-0.058915 0.000693 0.013364 88 102 93
-0.006485 0.125407 0.011256 110 128 122
0.118723 -0.243758 0.021154 128 135 129
-0.161429 0.444029 0.106212 169 173 168
0.098315 -0.260203 0.022325 121 128 120
0.123006 -0.139750 0.121139 64 82 89
0.307557 0.166604 0.132990 83 96 105
0.315379 -0.000209 0.129586 79 95 103
0.085542 0.052709 0.017198 28 42 44
-0.101234 0.335719 0.025791 129 140 136
-0.092114 0.442998 0.085972 166 170 165
0.286804 -0.191085 0.025308 130 130 124
0.272256 0.070380 0.017820 41 57 65
0.300022 0.127043 0.071944 51 62 71
0.194455 -0.049406 0.008420 26 38 40
0.009802 -0.204003 0.059924 162 176 180
0.352882 -0.298722 0.031050 139 139 135
-0.309709 -0.117138 0.363802 119 163 168
0.002531 0.186631 0.010147 112 128 119
-0.129236 0.227844 0.065754 137 151 142
0.262548 0.159156 0.034312 30 44 50
-0.375810 -0.000873 0.316990 92 96 91
0.035134 0.443869 0.113262 163 170 164
0.159073 0.195458 0.132033 131 148 149
0.297874 0.175484 0.128994 62 76 82
0.193444 0.497071 0.016796 98 103 93
0.326554 -0.271347 0.028359 137 137 131
0.071530 0.260285 0.010181 79 85 83
0.232705 -0.155901 0.126319 138 155 158
-0.324638 0.482176 0.010376 140 148 137
-0.168750 -0.053456 0.016085 94 110 99
-0.288761 -0.094176 0.024873 89 100 98
-0.039513 -0.024719 0.012895 17 29 21
-0.273079 0.070280 0.018992 122 134 124
0.130518 0.102419 0.015700 19 31 33
-0.177179 0.333449 0.027375 115 122 116
0.283636 -0.022068 0.034398 48 66 75
-0.337314 0.094029 0.025064 160 173 158
-0.010781 0.447412 0.111315 165 169 164
0.308791 0.139637 0.122355 65 78 87
0.143943 0.123501 0.017130 19 29 32
0.052492 0.085574 0.013971 74 88 79
-0.397752 -0.133670 0.291270 60 69 62
0.120967 0.416172 0.013528 108 108 104
0.277359 0.161610 0.071541 34 48 54
-0.158732 0.047436 0.011903 107 122 108
-0.191912 -0.065880 0.246834 25 33 30
-0.441111 0.000702 0.371228 185 186 182
-0.319597 0.231368 0.011101 144 153 144
0.258854 0.165650 0.071790 36 50 56
-0.217991 -0.294882 0.015237 79 89 92
0.134144 0.174963 0.065241 22 32 35
-0.076354 0.349684 0.027840 134 147 144
-0.326600 0.280700 0.012203 130 133 132
0.037764 -0.231715 0.019128 102 114 106
-0.306528 0.141772 0.008852 135 145 133
-0.070458 -0.201100 0.040005 138 157 159
-0.240780 -0.083974 0.108555 53 73 70
0.037185 0.428491 0.078426 162 170 167
-0.308557 0.364441 0.017465 88 93 83
-0.303210 0.380091 0.017339 147 151 144
0.238329 0.501155 0.016311 97 98 92
-0.223512 -0.122946 0.254491 12 18 16
0.081141 -0.050039 0.014353 83 97 88
0.330062 0.486990 0.021432 147 148 139
0.055644 0.326623 0.085794 164 175 173
0.067733 0.420280 0.147298 164 168 163
-0.011620 -0.091884 0.068606 123 142 142
0.187180 0.051453 0.012324 31 41 44
0.222613 0.181116 0.138517 139 158 158
-0.456356 -0.055351 -0.002483 93 100 94
0.003041 -0.274111 0.020315 115 122 116
-0.340006 -0.006862 0.265463 116 131 126
-0.297310 0.220851 0.009616 148 157 148
0.305225 0.494014 0.019347 145 149 142
-0.326079 -0.076071 0.369553 127 160 162
-0.370633 0.055169 0.260370 131 165 171
-0.333123 0.224593 0.010467 157 159 148
-0.137302 -0.155674 0.066115 98 113 112
0.007068 0.407179 0.028762 145 156 154
-0.051298 -0.091911 0.036393 122 144 143
-0.301012 0.300271 0.016120 162 164 155
-0.042110 0.433308 0.071365 160 168 165
-0.375764 -0.135127 0.284339 44 56 48
-0.153011 -0.041865 0.183334 102 115 110
-0.108504 -0.235221 0.063190 106 120 122
0.037422 0.421520 0.059329 161 169 166
-0.302295 -0.132239 0.306405 56 65 58
-0.004838 -0.243027 0.018279 90 104 95
0.300721 0.174439 0.130641 67 81 87
-0.193400 0.328969 0.029709 113 120 114
-0.298786 -0.148462 0.014259 135 144 135
-0.191863 -0.150120 0.014187 125 133 130
0.286453 0.532115 0.017828 86 86 86
0.318006 -0.043119 0.131719 80 94 100
0.295977 -0.114444 0.096222 58 69 78
0.065866 0.024090 0.141444 70 88 95
-0.486210 -0.045959 -0.002197 86 95 88
-0.132291 -0.110443 0.070254 126 146 143
0.021539 0.446194 0.110491 162 168 166
-0.234133 -0.082034 0.281766 31 39 38
-0.075875 -0.214532 0.040878 135 149 151
-0.413811 0.014048 0.343585 155 152 149
-0.104910 0.417930 0.039012 150 158 155
-0.099079 0.345272 0.026545 132 143 139
-0.181529 0.437593 0.098652 167 171 166
0.168774 0.425694 0.015962 121 123 114
0.311101 0.164215 0.136739 81 98 103
0.165506 -0.010628 0.009498 28 40 42
0.204837 0.520130 0.016668 141 142 133
0.016137 -0.183321 0.120055 50 62 64
0.013810 -0.019136 0.014243 83 102 90
-0.136303 0.008634 0.012576 51 63 55
0.104067 0.148603 0.042374 24 34 41
-0.028977 -0.202999 0.040959 140 159 161
-0.168831 -0.193879 0.015794 124 138 129
0.078242 0.169497 0.013427 111 126 121
0.026445 -0.228112 0.017736 85 93 90
0.063282 -0.020784 0.143208 76 98 101
0.301807 0.163359 0.118045 57 68 77
0.140636 0.039506 0.010603 26 38 40
-0.232435 -0.177415 0.011519 129 140 136
0.185588 0.033716 0.010292 30 40 43
0.270904 0.087268 0.018004 41 54 63
-0.188610 -0.225338 0.013463 131 142 138
-0.033077 -0.231337 0.051145 150 167 170
-0.238393 -0.156508 0.011585 128 140 132
-0.391117 -0.031863 0.316287 57 63 61
0.136343 -0.040205 0.009245 26 38 42
-0.224571 -0.109376 0.009875 118 129 125
-0.012474 0.345013 0.028541 133 144 142
-0.127156 -0.095953 0.069134 126 146 141
0.216792 0.158365 0.023289 18 28 31
-0.148901 -0.164882 0.081228 114 132 130
-0.031378 -0.270754 0.019810 52 63 61
0.292215 0.013760 0.052023 56 68 74
-0.259605 -0.213347 0.012343 144 153 146
-0.009299 -0.003415 0.014242 48 59 55
-0.046206 -0.272195 0.019026 125 133 130
0.289944 -0.221605 0.025370 132 132 126
0.351475 -0.225430 0.027425 133 131 123
-0.330728 0.109475 0.039983 156 164 149
-0.416483 0.087126 0.228706 149 161 165
0.124950 0.493960 0.015724 47 56 47
0.287683 -0.113277 0.071157 54 65 74
0.141778 0.412382 0.015308 111 113 104
-0.111473 0.340609 0.025793 112 123 119
0.060718 -0.271388 0.022460 135 142 136
0.143752 0.155052 0.031781 16 28 30
0.320746 0.085593 0.134790 81 97 105
-0.177664 0.433136 0.083513 164 168 163
0.063520 -0.226728 0.018923 119 128 121
0.073229 0.106962 0.014413 99 113 104
-0.252392 -0.286986 0.015600 124 124 118
0.146623 0.466311 0.015894 126 128 119
-0.185939 -0.272855 0.015174 141 144 143
0.292294 -0.218237 0.025280 126 127 116
0.175810 0.053221 0.012855 29 39 42
0.256926 -0.293091 0.026262 48 47 54
-0.242511 -0.093919 0.288106 30 44 46
-0.251635 0.308635 0.111734 160 168 167
-0.164277 -0.299927 0.016739 129 141 133
-0.036267 -0.252506 0.071039 141 158 159
-0.296739 -0.155270 0.013411 138 147 140
-0.142386 0.384557 0.024653 113 120 114
-0.021768 0.454439 0.123011 162 169 163
-0.158064 0.227334 0.005462 118 128 116
-0.054576 0.386637 0.027021 140 151 147
0.031247 -0.229937 0.018548 47 55 52
-0.064942 0.110492 0.009716 99 113 104
0.271372 -0.150678 0.119983 73 85 91
-0.392208 -0.104437 0.325798 100 111 109
0.236972 0.509274 0.016718 143 144 135
0.388577 -0.082888 0.018392 111 108 103
-0.297872 0.321126 0.018133 145 149 142
-0.335437 0.406788 0.006261 152 154 143
-0.288064 -0.156995 0.013323 139 145 143
0.028715 0.226009 0.104439 147 162 159
-0.238227 -0.107839 0.016599 113 127 118
0.296186 -0.133202 0.031834 105 114 107
-0.444312 0.013656 0.367747 156 156 152
-0.071481 0.222770 0.091027 137 151 142
0.006501 -0.296334 0.021002 114 121 115
0.077368 0.259458 0.011531 71 80 73
-0.350227 -0.098593 0.386262 134 170 178
0.390398 -0.225611 0.028103 136 137 131
-0.223935 -0.223392 0.012255 57 57 59
0.051450 0.424347 0.103737 177 184 178
-0.276221 -0.291900 0.017716 153 154 148
0.077943 0.024741 0.015327 83 96 95
-0.081241 -0.089873 0.040963 124 143 143
-0.321095 -0.126267 0.369031 114 153 160
-0.317755 0.443968 0.013459 144 144 144
0.149380 -0.036644 0.010281 25 37 39
0.010540 0.350319 0.028675 137 148 146
0.136285 0.055516 0.011876 24 36 40
0.378719 0.474121 0.027518 101 93 92
0.294272 -0.015916 0.066641 53 69 79
-0.499983 -0.032486 0.360872 58 64 64
-0.247856 -0.084556 0.293668 24 47 43
0.038874 -0.175221 0.016820 57 70 67
-0.393520 -0.033547 0.316520 55 61 59
0.198646 -0.074264 0.008167 28 40 42
0.297641 0.167500 0.111441 53 65 71
-0.309587 0.066675 0.038464 122 134 126
-0.120902 0.098483 0.011265 113 129 118
-0.088442 0.000552 0.013356 90 104 93
-0.438125 -0.069310 -0.000483 99 106 100
0.173083 0.082111 0.014099 27 38 38
-0.187177 -0.291887 0.015555 77 76 83
0.295695 -0.091554 0.090733 55 68 77
-0.169378 -0.052179 0.224203 33 39 39
0.046488 -0.048573 0.015265 81 94 89
0.300567 0.033460 0.086443 62 75 84
-0.260421 0.150121 0.010493 131 135 128
-0.023701 0.432461 0.072698 159 168 161
0.375849 -0.222213 0.027906 132 128 121
-0.056921 0.299320 0.025423 136 149 146
0.196703 0.086503 0.014183 24 35 35
-0.335543 -0.220312 0.005834 150 151 145
-0.272048 -0.169014 0.012575 135 142 136
0.017667 0.014798 0.014140 97 111 100
-0.344288 -0.116440 0.387452 136 175 182
-0.330523 -0.065692 0.027595 99 105 105
-0.369140 -0.125934 0.260673 127 134 126
-0.039303 -0.115097 0.029542 123 145 144
0.067571 -0.059737 0.014547 85 98 93
-0.071191 0.024969 0.012928 64 75 73
-0.148245 -0.247198 0.015579 126 135 128
-0.192708 -0.191606 0.013353 47 58 54
-0.209156 0.117287 0.011121 112 124 114
0.364899 0.455206 0.026783 120 120 116
0.156575 -0.181456 0.021093 79 90 88
-0.414175 -0.085480 0.303056 72 72 76
0.278509 0.021081 0.021562 53 70 75
-0.093184 0.325464 0.026254 131 144 139
-0.487708 0.037526 0.125345 148 152 147
0.079343 0.156227 0.122110 62 78 88
-0.024835 -0.272346 0.019666 123 132 125
-0.184967 -0.147002 0.015743 119 131 123
0.378774 -0.291115 0.032236 62 58 63
0.311410 0.107247 0.128371 79 95 105
0.282866 -0.077715 0.040716 55 68 77
0.199534 0.169960 0.033927 22 34 36
-0.086606 -0.126192 0.030377 123 145 146
0.203289 0.038049 0.010060 28 40 42
0.148178 0.298024 0.013612 93 94 90
-0.268972 -0.053191 0.034918 106 120 109
-0.243698 -0.126132 0.258696 17 25 24
-0.197415 -0.135677 0.013347 32 43 41
0.123217 0.103186 0.014100 21 33 35
0.247723 0.170685 0.084787 36 49 58
0.235389 0.165726 0.049225 33 47 53
-0.336963 -0.079428 0.024362 129 137 126
0.123170 -0.274831 0.023063 129 130 124
-0.062577 -0.270450 0.018332 79 90 90
0.177441 0.110575 0.017360 18 30 32
0.291410 0.123171 0.036181 61 77 87
-0.264926 -0.065860 0.033858 91 99 96
-0.319084 -0.077053 0.028344 124 133 126
-0.270488 0.243996 0.010683 147 160 147
-0.318583 -0.214476 0.009974 148 155 149
-0.245278 -0.231821 0.013124 136 143 137
0.058396 -0.243575 0.020715 118 125 117
0.056357 -0.129081 0.016531 75 86 82
-0.215782 0.326697 0.028990 126 133 125
0.211395 -0.152287 0.125025 137 159 162
