ply
format ascii 1.0
element vertex 1210
property float x
property float y
property float z
property uchar red
property uchar green
property uchar blue
end_header
-0.289483 -0.215552 0.334649 40 47 39
0.136793 -0.233590 -0.030819 121 126 116
-0.005291 -0.254677 -0.036880 125 133 122
0.081579 -0.084623 -0.024368 52 69 72
-0.197214 0.002117 -0.045418 106 116 104
-0.182511 -0.290936 -0.043585 113 117 112
-0.203368 0.200794 0.060968 126 131 121
0.066153 -0.257706 -0.033501 114 122 111
0.255275 0.053604 -0.001147 47 52 59
0.031253 -0.154414 -0.035217 96 101 91
-0.300137 -0.234686 0.344891 31 35 28
-0.351075 -0.074599 0.370894 60 61 57
0.164202 0.082718 -0.021704 40 54 60
0.330478 0.480646 -0.022303 140 142 129
0.128237 0.151407 0.004150 27 34 38
0.384063 0.386671 -0.016705 140 144 137
0.103176 -0.197658 -0.030791 103 107 100
-0.270533 -0.301161 -0.040175 120 121 112
-0.152810 0.140406 -0.041683 109 119 105
-0.349146 -0.076256 0.368048 58 60 51
-0.029024 0.473307 0.050625 144 149 139
-0.000755 0.300870 0.028562 175 187 177
-0.094707 0.047138 -0.040769 109 122 107
0.389519 -0.022626 -0.022507 140 141 132
0.267757 0.050865 0.067238 48 58 63
0.263062 -0.020494 0.037150 46 56 61
0.085152 -0.248467 -0.032718 111 120 111
0.261865 -0.127776 0.030178 42 49 57
-0.090916 0.321072 -0.042966 128 141 128
0.080224 0.125826 -0.025417 56 67 76
0.347991 -0.098056 -0.025997 136 137 124
-0.209886 -0.263641 -0.045046 123 124 115
-0.253343 -0.149386 -0.017530 116 127 123
0.333279 0.406872 -0.020853 140 141 130
-0.331487 -0.072787 0.353314 91 114 119
-0.305657 -0.132368 0.094599 16 16 16
-0.023985 0.469545 0.047269 150 152 143
-0.299431 -0.211439 -0.045478 109 109 103
0.275454 -0.012425 0.100131 80 94 100
-0.220848 0.029456 -0.045108 111 119 106
-0.294405 0.321235 -0.053224 123 124 115
0.398544 0.077191 -0.020309 144 145 132
0.092380 -0.212061 -0.031472 118 119 108
0.140678 -0.166422 0.088902 158 178 175
0.089130 0.100322 -0.025778 44 58 64
-0.351939 0.304387 0.052151 141 142 133
0.018727 -0.186210 -0.035856 117 119 110
-0.077772 0.327662 -0.040890 132 142 128
-0.177017 0.494076 0.052034 142 150 137
0.018423 0.264078 -0.041075 86 91 79
-0.213893 0.378016 -0.053334 112 120 107
-0.007331 -0.203653 -0.036720 122 127 117
0.336433 0.328187 -0.020560 140 142 133
-0.303157 -0.205486 -0.045678 40 42 33
0.153689 -0.188965 -0.028731 101 108 100
0.136708 -0.196881 -0.028282 101 114 99
0.201411 0.529879 -0.028829 139 141 130
0.085788 -0.103397 -0.023380 52 66 72
0.363883 0.228426 -0.022178 142 145 129
-0.186552 -0.282630 -0.043652 71 75 70
0.016740 -0.237231 -0.035568 129 130 121
0.341235 0.008186 -0.031043 105 107 96
0.213888 -0.211149 -0.028283 116 118 107
-0.107308 -0.201466 -0.041463 72 81 72
0.294215 0.407875 -0.023530 139 141 128
-0.197175 -0.210057 -0.047178 102 106 99
-0.297765 -0.120627 0.177050 26 35 26
-0.192697 -0.080337 -0.043373 128 140 132
0.358253 -0.057571 -0.027190 145 146 137
-0.335859 -0.168047 -0.044887 46 47 43
-0.024583 -0.245650 -0.038198 118 130 120
0.281508 0.073924 0.104628 100 106 104
-0.117369 -0.026779 -0.019188 118 133 128
0.371805 0.379135 -0.017242 119 120 109
-0.097014 -0.196564 -0.009112 62 62 58
0.010797 0.018433 -0.036767 107 112 102
0.354339 0.314002 -0.019162 141 142 131
-0.104155 -0.071518 -0.035587 133 151 147
0.090886 -0.158319 -0.028928 68 69 65
0.180047 0.299508 -0.029558 127 135 122
-0.007650 -0.282018 -0.036998 121 123 112
0.069248 0.184098 0.093293 84 94 97
0.048869 0.367847 -0.038089 129 134 120
-0.255869 -0.136092 -0.017677 114 123 116
-0.218578 -0.209281 -0.046511 112 114 105
0.126222 0.132784 -0.024376 50 64 70
0.031772 0.146635 0.070916 28 33 38
-0.012435 -0.273877 -0.037533 115 122 114
0.365597 0.113479 -0.025558 129 137 124
0.077904 0.114533 -0.025171 50 64 70
-0.211652 -0.307911 -0.043803 123 124 118
0.155578 0.076835 -0.021631 46 53 59
-0.307848 0.426789 -0.033223 132 133 122
-0.133533 0.432806 -0.039913 132 139 131
-0.252101 -0.246290 -0.045117 125 123 111
-0.319611 0.459055 0.042530 139 140 127
-0.378736 0.133724 -0.051533 119 120 114
-0.201818 0.209088 0.029168 124 129 117
0.065268 -0.202376 -0.033355 72 70 62
0.087411 -0.168591 0.082391 63 75 81
-0.296431 -0.209836 0.176503 9 12 11
0.029045 -0.049844 0.060368 44 54 59
-0.104047 0.073650 -0.039581 107 119 109
0.231700 0.139315 -0.019310 62 72 77
-0.154058 -0.095223 -0.042059 137 148 146
-0.222314 -0.062788 -0.032353 113 126 121
0.342585 -0.207384 -0.024794 98 95 90
-0.262670 -0.279798 -0.042312 63 50 54
0.052907 0.056257 -0.026715 38 50 54
0.246530 0.148643 0.037756 39 51 55
-0.161612 0.034588 -0.043228 117 125 112
0.174794 0.389622 -0.028737 118 128 116
0.147787 0.029841 -0.022571 50 62 68
-0.172467 0.118486 -0.041779 105 113 102
0.135070 0.136208 -0.023311 54 64 69
-0.122841 0.216185 -0.004143 120 128 117
-0.168328 0.157580 -0.042035 31 33 24
0.204586 -0.162507 -0.026750 61 62 58
0.086576 0.292113 -0.034770 124 126 113
-0.328869 -0.019648 -0.051867 107 112 100
0.334981 -0.220802 -0.025181 136 140 133
-0.330826 -0.047763 0.356864 102 123 129
-0.333646 -0.310563 -0.050324 74 75 71
-0.218020 -0.153465 -0.031229 123 135 127
0.194936 -0.089250 -0.019105 53 65 69
0.273921 -0.101737 0.093679 75 87 93
-0.029296 -0.222990 -0.039053 2 3 0
-0.006820 0.289493 0.009979 153 162 155
-0.064499 0.419698 -0.041226 150 157 149
-0.254576 -0.032837 -0.050374 115 120 108
0.109278 -0.263885 -0.031308 104 105 99
0.282394 -0.037793 0.095389 86 93 99
0.376752 0.024461 -0.025656 98 99 93
0.331042 -0.194059 -0.024692 140 142 131
-0.231415 0.371191 -0.053416 111 113 100
-0.153661 0.471465 0.041046 136 137 126
0.189980 -0.227482 -0.029296 128 124 115
0.239975 0.543246 -0.026750 141 147 130
0.126350 0.162076 0.045927 28 40 42
-0.072856 -0.095904 -0.031437 139 152 147
0.050300 0.543452 -0.035218 133 138 126
0.298962 0.539932 -0.023535 143 145 132
0.229601 -0.226669 -0.028691 125 126 120
-0.072704 0.333934 -0.040766 129 141 131
-0.291538 -0.218946 0.263187 81 86 74
0.250544 0.153697 0.082814 38 48 55
0.003960 -0.203266 -0.036422 25 30 18
-0.027690 -0.238397 -0.038683 86 84 74
0.332690 0.235819 -0.022803 140 145 131
-0.160770 0.046508 -0.042086 115 123 110
-0.211315 0.021194 -0.045053 110 115 103
0.382668 0.131494 -0.021232 137 142 130
0.095075 0.011086 -0.026053 50 66 74
-0.005073 -0.294636 -0.037911 119 126 120
-0.152791 -0.215654 -0.044024 80 88 77
0.193645 -0.217831 -0.028280 122 124 115
-0.075465 0.453156 0.002102 136 141 131
-0.274707 0.365533 -0.055610 110 115 103
-0.104085 -0.001971 -0.042882 116 126 114
-0.093951 0.394632 -0.045910 134 138 131
0.229363 0.060747 -0.019682 55 68 77
-0.251214 -0.229894 -0.046438 119 120 114
-0.273207 -0.018683 -0.050931 77 90 77
0.332815 -0.104324 -0.025813 135 140 130
0.038040 0.149845 0.044998 23 33 38
-0.296835 -0.246618 -0.044805 99 103 96
-0.189030 -0.122770 0.005229 124 134 122
0.160590 0.293581 -0.030822 109 114 104
-0.286629 -0.201685 0.238023 9 12 11
-0.232981 0.167909 -0.044386 114 119 107
0.345345 0.452473 -0.020722 140 141 128
0.171227 -0.173399 0.086559 151 174 170
0.332559 0.146191 -0.028951 137 139 128
-0.354733 -0.351667 -0.054938 124 121 116
-0.314595 -0.321178 -0.046530 25 22 19
0.218541 0.163500 0.101707 39 49 54
0.049058 0.024015 -0.014801 34 41 45
0.352771 0.136549 -0.026841 138 143 129
0.130544 0.489207 -0.031737 135 137 124
-0.356404 0.123381 -0.052637 0 0 0
-0.183605 0.466439 0.024691 129 137 124
0.240479 0.534801 -0.027037 138 140 127
0.028157 0.051750 0.075176 53 65 67
-0.346250 0.005308 -0.052585 101 106 94
-0.070197 0.026005 -0.041255 113 128 114
0.356356 -0.050919 -0.026889 145 146 135
0.168749 0.091473 -0.020928 43 55 59
-0.177454 -0.026995 -0.028727 116 132 123
0.277699 -0.141316 0.090295 83 90 96
-0.073967 0.099538 -0.036598 104 112 97
-0.005601 -0.220777 -0.036741 119 124 112
0.165541 0.009476 -0.020881 52 64 68
-0.067769 0.209423 0.075716 166 176 164
-0.252164 -0.269884 -0.044167 115 120 110
0.263919 -0.136241 0.051059 43 53 60
-0.287505 -0.155580 -0.049518 91 96 84
-0.033086 0.456212 0.015715 144 148 141
0.080194 0.044324 -0.027970 52 64 68
-0.197973 0.144661 -0.042534 116 118 107
-0.350129 -0.071486 0.370794 54 62 59
0.178922 0.158740 0.045766 29 34 39
-0.175410 0.338615 -0.050189 122 130 117
0.007081 -0.139906 -0.036869 119 121 110
-0.144407 -0.246163 -0.042542 105 107 98
-0.074429 0.442274 -0.016058 137 141 134
-0.358294 -0.064195 0.384543 67 67 67
0.098345 -0.231107 -0.031596 119 121 110
0.268675 0.540590 -0.025873 139 142 126
0.018229 -0.012228 0.077531 69 90 96
-0.216630 -0.272562 -0.044922 121 123 114
-0.308469 -0.108879 -0.051942 94 98 91
-0.079269 -0.066103 -0.027478 140 148 145
-0.118560 0.449199 -0.007850 132 140 129
-0.075701 0.204018 0.074579 141 150 141
0.334562 0.492677 -0.022122 140 142 129
-0.036318 0.098183 -0.035263 101 115 104
-0.304487 0.186042 -0.046152 59 64 54
-0.177737 0.448504 -0.016437 133 138 126
-0.015830 0.066323 -0.034305 115 123 110
-0.142423 0.340803 -0.049937 124 132 121
-0.008625 0.464616 0.061532 157 162 150
-0.035259 -0.170426 -0.040168 104 113 104
0.182450 0.079493 -0.019967 43 53 60
0.080957 0.148648 -0.012102 29 36 40
0.031500 -0.203447 -0.034641 14 17 16
0.168064 -0.168666 0.042321 36 38 44
0.263322 0.404806 -0.025345 138 140 127
-0.299093 -0.214843 0.137167 3 3 3
0.105473 -0.258496 -0.032057 112 114 105
0.113800 -0.170418 0.085242 155 175 172
0.386287 0.444811 -0.016220 132 134 123
-0.154528 0.164856 -0.041581 117 119 106
-0.256128 0.449752 -0.002408 135 137 126
0.215904 -0.215362 -0.028569 121 123 114
-0.202403 -0.138407 -0.031340 118 131 126
0.260961 -0.002847 0.018810 47 59 63
0.267643 -0.050397 0.063640 46 58 62
-0.358438 -0.128202 0.318530 31 32 28
0.024686 0.121004 0.089318 72 86 88
-0.229758 0.417744 -0.058416 120 125 115
-0.140842 0.218079 -0.036347 118 131 118
-0.028361 -0.021775 -0.042885 114 122 109
0.070294 -0.065246 -0.024743 55 69 75
0.066412 0.040024 -0.029027 53 65 71
0.341421 -0.051369 -0.028780 120 121 112
-0.289188 -0.213868 0.294646 6 2 5
-0.333865 -0.292669 -0.049465 72 69 64
-0.182253 -0.093165 -0.042818 145 158 153
-0.270393 0.426368 -0.050503 121 128 120
-0.063645 -0.263029 -0.039633 62 64 55
-0.130752 -0.290939 -0.042411 0 5 0
-0.014139 0.046404 -0.034682 89 98 89
0.370190 0.181231 -0.023160 139 140 127
-0.091381 0.201238 0.076500 145 147 138
0.036908 0.163325 0.094622 38 48 55
0.112144 -0.055083 -0.025446 55 65 70
-0.018217 0.437411 0.001047 145 149 144
0.203714 0.527226 -0.028527 138 143 131
0.056807 -0.248771 -0.033727 108 110 101
0.262612 -0.016550 0.026833 46 56 61
0.391848 0.112602 -0.021140 141 146 132
-0.241033 -0.010899 -0.049373 111 119 104
-0.287350 -0.281181 -0.042299 32 40 29
-0.230958 -0.137353 -0.030137 120 133 130
0.271160 0.364527 -0.024936 138 140 129
-0.230379 -0.229255 -0.046555 118 119 113
0.253921 -0.161513 -0.027194 93 97 90
0.261436 -0.040198 0.023127 47 57 62
-0.361007 -0.110226 0.355694 22 22 24
-0.128404 0.160445 -0.040030 116 118 107
0.115456 0.177419 0.093359 133 151 149
0.290035 -0.145987 -0.023745 84 85 81
-0.115301 0.473626 0.051077 139 141 132
-0.061222 -0.245813 -0.039388 96 98 87
-0.219413 -0.143282 -0.031665 123 131 128
-0.256183 -0.209600 -0.046856 116 120 113
-0.123462 0.382787 -0.049855 126 136 124
0.145114 -0.029795 -0.022037 53 64 73
-0.317183 -0.247664 0.147294 23 27 22
-0.198348 -0.043476 -0.035526 115 127 119
-0.252439 -0.305131 -0.041583 116 117 111
0.398497 0.449175 -0.014761 146 144 132
0.016775 -0.156871 -0.036077 117 118 105
0.305168 0.313205 -0.023231 131 133 122
-0.348565 0.069507 -0.052052 111 112 99
-0.317739 -0.037216 -0.051600 107 112 98
0.265211 0.011448 0.047736 47 57 64
0.238590 0.294204 -0.027818 84 86 75
-0.288688 0.442793 -0.009370 131 132 121
-0.188818 -0.301023 -0.043287 119 120 111
-0.147926 -0.215005 -0.010780 134 142 139
-0.120781 0.016153 -0.042198 105 118 101
-0.280119 0.175587 -0.047063 106 114 99
0.020888 0.316113 -0.039869 96 98 89
-0.343232 -0.097965 0.337019 31 35 28
0.135281 0.414932 -0.031671 129 134 122
-0.324073 -0.233166 0.257747 32 32 32
0.073233 -0.191600 -0.032314 83 91 80
-0.255623 -0.250121 -0.044939 125 123 113
-0.239639 -0.140096 -0.026996 122 133 129
-0.320252 -0.228260 0.135850 27 31 24
-0.319148 -0.305489 -0.047572 107 105 95
-0.244135 0.480351 0.051433 143 144 133
-0.004994 0.345129 0.006650 158 170 160
-0.151147 0.052510 -0.041832 39 47 44
-0.285329 -0.181984 0.182125 17 18 14
-0.286926 -0.206745 0.296234 16 19 18
-0.379706 0.096761 -0.050297 120 121 112
-0.114254 0.204092 -0.041974 96 101 89
-0.297998 0.190476 0.063733 126 134 119
-0.237997 0.044856 -0.045835 75 83 72
0.113169 -0.160575 0.081655 88 107 111
-0.291116 -0.304731 -0.040645 107 109 100
0.232282 -0.173071 0.083367 63 65 73
-0.169730 0.197888 0.069019 127 135 124
-0.020322 -0.281145 -0.037897 123 125 116
0.020542 0.319025 -0.040458 98 100 91
-0.019847 -0.066834 -0.043411 111 119 106
-0.338673 -0.214371 -0.043491 101 106 96
0.016247 -0.199721 -0.035149 131 133 122
-0.277241 0.183803 0.084173 131 136 126
0.263918 -0.121692 0.038395 45 55 60
-0.094257 0.419844 -0.046338 176 184 171
0.387859 0.244905 -0.018195 141 146 132
-0.302067 -0.223052 0.130400 1 1 1
0.232200 0.146539 -0.008848 40 52 56
0.373884 0.307427 -0.017424 145 146 137
0.210590 0.177526 0.102766 79 91 95
-0.047106 0.315336 -0.035801 140 150 138
-0.283060 -0.184868 0.224556 9 15 13
-0.197063 -0.184154 -0.027734 133 144 140
0.114095 0.154233 0.008820 28 35 39
-0.308524 0.206812 -0.046426 102 108 91
0.259454 0.091164 0.009000 37 49 53
0.368163 -0.038172 -0.026122 73 64 67
0.015135 0.355071 -0.038480 101 103 90
0.140648 -0.066691 -0.022871 54 64 71
-0.309294 -0.236868 0.318017 28 32 27
0.039022 -0.073994 0.011833 28 40 44
-0.262907 0.435876 -0.031172 128 133 123
0.391981 0.403027 -0.015371 143 144 131
-0.001234 0.180040 -0.030877 120 128 113
-0.199012 0.459898 0.013203 134 135 124
-0.041580 -0.240767 -0.039286 106 106 102
-0.192571 0.185710 -0.043809 103 108 94
-0.347823 -0.265430 -0.051354 105 110 100
0.076339 -0.083948 -0.024105 55 69 73
0.262418 0.008254 0.023722 47 57 62
-0.319763 -0.190419 -0.045146 98 99 93
-0.290337 -0.223959 0.380422 78 106 110
-0.180508 0.051481 -0.043593 110 117 109
0.024508 0.405939 -0.035860 105 107 98
-0.221833 -0.171129 -0.025750 126 137 135
0.093280 -0.207212 -0.031385 118 128 116
0.068520 0.024252 -0.028225 55 69 73
-0.329466 0.203249 -0.048027 98 100 87
-0.272862 -0.320789 -0.039661 100 96 89
-0.210800 -0.229137 -0.045466 110 111 102
-0.005528 0.304714 0.012929 153 167 158
0.170390 -0.168109 0.088226 161 176 173
-0.019229 -0.167850 -0.038686 110 114 107
0.101438 -0.230590 -0.031416 115 123 112
-0.211894 -0.162717 -0.030552 125 137 129
0.069834 -0.231251 -0.033356 127 132 122
-0.014852 0.289179 -0.008181 141 150 141
0.156175 0.052996 -0.022054 47 59 61
0.171831 0.057661 -0.020968 50 60 67
-0.185605 -0.237475 -0.044581 100 97 94
0.117359 0.016870 -0.024648 56 68 74
-0.029351 0.020939 -0.038326 117 122 110
0.259886 0.489668 -0.026162 141 146 136
-0.187625 -0.066589 -0.042763 128 142 133
-0.306379 -0.285898 -0.043400 96 97 86
0.351658 -0.022114 -0.029220 144 145 139
-0.112157 -0.158898 -0.031151 136 148 140
-0.183936 -0.130815 0.001853 33 44 40
-0.031440 -0.228149 -0.038768 122 127 115
0.201194 0.051363 -0.020286 47 56 66
0.161769 0.421937 -0.029338 112 113 107
-0.278293 0.176022 -0.047110 102 112 96
-0.258019 -0.306290 -0.040566 124 122 114
-0.340711 0.271591 0.024274 139 140 134
0.008367 -0.119155 -0.036479 105 115 103
0.261909 -0.163996 0.086446 75 85 90
-0.285985 -0.196043 0.217428 10 13 12
0.209361 -0.177500 -0.027792 102 104 95
-0.089288 -0.059926 -0.029507 138 146 145
-0.357742 -0.001130 -0.056641 1 1 1
0.375885 0.372287 -0.017108 144 146 137
-0.295863 -0.209482 0.183434 7 13 11
0.004102 0.284629 0.041358 151 167 156
-0.149208 -0.163510 -0.033414 140 151 147
0.055424 0.467383 -0.037156 49 47 39
-0.234428 -0.200592 -0.046970 6 8 0
-0.328241 0.467172 0.059422 140 141 132
0.361724 0.508100 -0.019401 132 140 127
0.026946 -0.223028 -0.035384 122 120 110
0.040650 0.481169 -0.037331 128 133 119
-0.245338 0.005197 -0.047269 108 113 101
-0.327175 -0.077483 0.324492 75 94 94
-0.188351 0.176539 -0.042608 89 91 82
-0.001832 0.248478 -0.035570 84 93 75
-0.280094 0.476746 0.054180 138 146 133
0.256253 0.431227 -0.026892 137 142 128
0.233047 0.120994 -0.020144 64 73 83
0.148622 0.378770 -0.029358 52 53 47
-0.368795 0.367399 0.052394 137 148 146
-0.104984 0.467759 0.031654 135 140 130
0.018547 0.055562 0.081874 72 86 88
0.089353 -0.255206 -0.032968 112 121 112
-0.181555 0.196569 0.078914 136 144 133
-0.195413 0.473782 0.047775 133 135 124
0.076484 -0.166931 0.085142 73 87 91
-0.360355 -0.306509 -0.065662 113 113 107
-0.303695 -0.087125 -0.053284 100 98 88
-0.101368 0.179182 -0.038682 110 120 108
-0.301340 0.046618 -0.046525 105 110 100
-0.332055 -0.220134 0.125593 67 71 64
-0.259036 -0.325562 -0.040058 109 114 104
-0.296400 -0.230695 0.342538 39 39 33
0.325486 -0.170022 -0.024308 133 134 123
-0.361487 0.335933 0.051472 133 151 147
-0.309112 -0.219371 0.207375 4 7 6
-0.067460 -0.204111 -0.040475 105 109 102
-0.140213 0.170154 -0.041408 108 116 103
-0.082968 0.434978 -0.028801 134 138 131
0.216100 0.503893 -0.028307 61 62 56
0.337396 0.421341 -0.021189 82 90 79
-0.196398 -0.327104 -0.043742 71 78 70
-0.176418 0.005922 -0.044512 120 127 119
-0.336707 0.336878 -0.008715 140 142 133
0.045065 0.317367 -0.037579 124 129 119
0.213962 0.163891 0.099540 37 47 54
0.340455 0.068516 -0.031636 133 135 124
0.274462 -0.039535 0.095858 86 93 99
0.267254 -0.100520 0.065962 44 56 60
-0.001648 0.027211 -0.035447 113 120 112
-0.038882 0.462326 0.022429 142 143 137
-0.011043 0.435302 0.014192 149 159 147
0.011215 -0.144153 -0.037123 117 125 112
0.264723 -0.206926 -0.027258 77 72 68
-0.325281 0.431418 -0.004171 140 137 132
-0.203292 -0.129666 -0.031970 116 127 123
0.336883 0.470507 -0.021672 140 142 126
0.303189 0.467004 -0.023676 136 144 129
-0.011892 -0.171528 -0.038454 116 117 108
-0.299969 -0.192097 0.403824 101 120 122
0.368161 -0.089265 -0.025671 137 139 128
-0.101451 0.463241 0.020030 134 142 129
0.326829 0.306739 -0.021045 136 138 129
0.018077 0.362794 -0.037404 93 101 88
-0.298462 -0.255025 -0.043833 89 81 78
0.302873 0.388107 -0.022583 141 142 129
0.113819 0.152119 0.001355 28 33 38
-0.201469 -0.254441 -0.044719 116 118 109
-0.080455 0.211986 -0.039095 87 95 80
-0.004977 0.381181 -0.005291 158 170 160
0.322624 -0.221290 -0.026291 140 142 131
0.088621 -0.165210 -0.029318 75 84 77
-0.031567 0.092262 -0.034238 79 83 76
-0.353536 -0.090383 0.370775 51 58 52
-0.312568 -0.118036 0.171747 20 29 22
0.372679 0.110310 -0.024533 138 139 133
-0.243614 0.434677 -0.037027 130 131 120
0.368004 -0.087693 -0.025262 140 141 130
0.133522 0.362409 -0.029624 129 127 117
-0.347303 -0.057666 0.372224 103 125 126
-0.352592 -0.041022 0.369937 86 110 110
-0.347145 0.240826 0.056090 144 145 136
-0.077198 -0.026979 -0.044470 110 118 105
0.354758 -0.107045 -0.025736 140 142 131
-0.189484 -0.218829 -0.045367 105 109 102
-0.250006 0.403231 -0.057101 116 117 108
0.367943 0.353322 -0.017881 141 146 134
-0.285652 0.334975 -0.054504 117 119 108
0.281079 0.003785 0.101055 83 90 94
-0.339598 -0.003638 -0.052233 66 66 60
0.238886 -0.156021 -0.027716 86 87 83
-0.315132 -0.190306 0.059065 115 114 114
-0.137726 0.194377 -0.042198 97 107 93
0.148663 0.073595 -0.022062 42 54 58
-0.200288 0.201160 -0.044820 8 13 3
0.024409 0.029471 0.080300 72 84 90
-0.322369 -0.243398 0.096568 7 15 12
-0.046600 -0.232396 -0.039000 118 120 111
0.344448 0.236035 -0.022768 143 145 136
0.147303 0.087803 -0.022423 45 55 60
-0.084115 0.085037 -0.037318 103 108 96
0.062506 -0.185510 -0.032357 98 106 95
-0.032013 -0.058136 -0.043377 2 6 1
-0.113362 -0.160773 -0.031260 137 151 142
0.210882 0.445998 -0.027910 143 151 138
-0.078536 -0.126880 0.019862 28 35 29
-0.243054 -0.116863 -0.025336 120 128 125
0.226215 -0.076279 -0.019319 59 69 76
-0.374988 0.146012 -0.051507 114 116 107
-0.265310 0.023699 -0.047827 107 115 104
0.002308 -0.159267 -0.037150 8 0 0
-0.004530 0.141934 -0.031867 111 118 110
-0.353750 0.260880 0.053291 143 148 138
-0.220104 -0.074084 -0.040064 115 126 122
-0.077922 0.351573 -0.041375 134 139 127
-0.069301 -0.080504 -0.027494 136 147 145
-0.366311 -0.351644 -0.080401 112 118 116
-0.337738 0.079720 -0.047027 93 98 86
-0.365767 0.130618 -0.049385 7 16 9
0.185636 0.535198 -0.029188 110 112 103
-0.006742 0.045861 -0.034619 103 110 102
-0.076624 0.416614 -0.044202 162 167 157
0.220730 0.155328 0.038361 27 37 42
-0.254262 -0.015296 -0.049951 115 117 106
0.205927 0.038845 -0.020963 48 65 70
-0.328850 -0.326237 -0.048932 105 109 102
0.008565 -0.060133 -0.041616 115 119 114
-0.355712 -0.129811 0.220112 82 83 79
0.090724 0.360472 -0.033111 129 131 118
-0.340524 -0.245357 -0.050205 105 106 97
-0.017807 -0.247671 -0.037341 123 127 120
0.260469 0.136791 0.080824 39 49 54
0.217487 -0.166580 0.093215 71 85 91
-0.359303 -0.080459 0.387166 56 60 55
0.381278 -0.083750 -0.024364 133 137 130
0.170532 0.502906 -0.029830 132 135 119
-0.243713 0.120878 -0.045437 108 113 101
-0.237475 -0.318445 -0.042921 120 121 112
-0.292140 -0.181013 -0.047879 105 103 95
0.253466 -0.069334 -0.008499 45 55 60
-0.193913 -0.151620 -0.033349 116 129 126
-0.028650 0.017205 -0.038530 113 122 113
-0.319808 -0.278229 -0.047824 67 68 64
0.135449 0.162231 0.045437 29 39 44
-0.311014 -0.139640 -0.047767 97 99 90
-0.281561 0.028840 -0.048375 107 112 100
0.044850 -0.196441 -0.033728 109 113 106
-0.232031 0.373773 -0.053405 109 114 102
0.043288 -0.157647 -0.033496 81 85 80
0.116658 -0.166828 -0.028373 82 87 75
0.081349 0.336139 -0.034563 110 117 109
-0.353154 0.372505 0.048471 140 136 129
-0.299618 -0.177790 0.134203 15 15 15
-0.222617 0.029169 -0.045261 107 115 102
-0.040198 -0.162539 -0.041841 108 116 105
0.168873 0.333694 -0.028493 133 141 128
-0.343555 0.324610 0.017916 141 142 133
0.113667 0.339669 -0.032854 51 58 50
-0.281893 -0.234205 -0.045288 112 116 109
0.089363 0.392678 -0.034085 131 133 117
0.089959 0.037892 -0.027000 52 66 72
0.014732 -0.276747 -0.036156 122 129 121
-0.092207 -0.182959 -0.045199 64 61 56
-0.332517 -0.064989 0.356037 92 118 120
0.277965 0.066978 0.105888 89 96 102
0.160783 0.098175 -0.021096 40 54 58
-0.332193 0.434438 0.016607 138 136 128
-0.150395 -0.082121 -0.041101 130 145 142
0.021793 -0.176003 -0.035298 117 122 112
-0.175563 -0.309007 -0.043255 122 123 119
-0.330329 0.308217 -0.022362 142 140 132
0.198522 0.084836 -0.019999 39 51 55
0.186323 0.152024 0.017015 26 36 39
0.394419 -0.132675 -0.020176 138 143 129
0.272230 0.051766 0.104672 87 99 105
0.314430 0.331676 -0.021940 138 142 135
0.398822 0.479315 -0.014769 143 144 131
-0.296950 -0.122083 0.108456 9 12 11
0.252357 -0.236344 -0.028079 124 125 116
0.033971 -0.288238 -0.035052 62 77 72
0.107602 0.546014 -0.032548 126 127 114
-0.336643 -0.093858 0.337236 35 39 32
-0.112224 -0.074325 -0.037170 135 148 145
-0.332071 0.203345 0.077513 146 148 139
0.063436 0.300331 -0.036153 122 127 117
-0.068778 -0.226794 -0.039910 113 118 106
-0.003355 0.343474 0.012232 154 166 156
0.124868 -0.118008 -0.024538 57 71 73
-0.331477 0.059724 -0.047303 103 108 98
0.189059 0.000191 -0.019320 54 64 71
-0.086082 0.131910 -0.036958 82 90 79
-0.240746 0.202803 0.034962 126 134 121
0.004533 -0.272553 -0.036461 60 61 52
0.077670 -0.116859 -0.023820 61 73 77
0.081753 -0.161026 0.083690 75 92 97
0.276212 -0.023579 0.098740 83 93 98
-0.372354 0.138735 -0.050046 112 119 111
-0.339569 0.133404 -0.048356 11 9 1
0.161860 -0.162160 -0.026891 70 78 67
-0.243123 0.111848 -0.044948 105 113 98
0.253200 -0.020709 -0.004848 47 57 60
-0.245907 0.202133 0.037340 125 133 120
-0.117300 0.126720 -0.039476 112 120 107
-0.293076 -0.225578 0.340100 38 42 37
0.127186 0.024620 -0.024533 52 64 70
-0.296938 0.442361 -0.008109 132 133 122
0.035430 -0.270243 -0.035565 110 115 105
-0.275226 -0.283764 -0.041309 106 114 101
-0.340121 -0.013477 -0.052887 43 44 40
-0.131042 -0.301360 -0.042252 43 50 42
0.034471 -0.153412 0.084173 55 69 75
-0.208909 -0.029269 -0.016587 109 122 121
-0.378131 0.195849 -0.056403 83 84 75
-0.160916 -0.174626 -0.031544 138 150 142
-0.019538 -0.086870 -0.043222 110 115 105
0.313569 -0.193907 -0.025547 129 134 124
0.059280 0.076215 -0.027280 41 55 57
-0.347979 0.243339 0.055703 139 140 134
-0.312965 -0.144660 0.089847 14 20 18
-0.019272 -0.192517 -0.038557 122 123 112
0.187833 -0.221750 -0.029300 124 129 119
-0.066250 -0.148457 -0.014780 141 157 148
-0.194327 -0.323857 -0.043747 44 47 50
-0.320366 0.417773 -0.032955 137 138 127
0.233929 0.157462 0.067373 30 42 46
-0.183399 -0.210329 -0.042530 95 96 90
-0.047237 0.217733 -0.019237 118 128 114
-0.213808 0.307098 -0.048133 117 119 110
0.148851 -0.032923 -0.021594 57 64 70
0.015916 0.252754 -0.039563 85 90 78
0.051254 -0.104483 -0.013553 43 55 59
0.286828 -0.233428 -0.027277 123 125 116
-0.075354 0.060248 -0.038426 113 118 106
-0.191811 0.485921 0.053394 144 149 137
-0.293567 -0.204974 0.401086 89 119 122
0.205583 -0.176980 0.073337 54 49 47
-0.326687 -0.166089 -0.045527 100 102 91
-0.229994 0.339494 -0.050624 112 117 107
-0.213419 -0.247063 -0.045437 115 117 106
-0.088181 -0.147369 -0.026422 145 151 149
-0.299742 0.091349 -0.045612 98 100 89
0.316335 -0.226953 -0.026018 133 134 125
-0.310918 -0.144927 -0.047722 92 97 85
-0.054420 -0.303027 -0.039295 120 128 117
0.356594 -0.087718 -0.026633 138 143 131
-0.044762 0.113543 -0.035252 111 119 106
0.108572 0.164365 0.053015 31 39 40
0.106754 -0.107728 -0.024471 52 64 68
-0.296331 -0.229798 0.335044 38 38 34
-0.225842 0.458123 0.013967 137 138 125
-0.133008 -0.211105 -0.009126 140 151 149
-0.296761 0.211163 -0.022072 119 124 110
0.202384 -0.098287 -0.018816 53 63 70
0.222319 -0.233932 -0.029140 128 130 121
-0.180808 -0.242924 -0.044526 114 116 107
-0.254042 -0.176578 -0.050032 110 112 103
0.276463 -0.189441 -0.026424 29 33 28
-0.312424 0.071316 -0.045554 102 104 93
-0.310446 -0.230206 0.269975 52 53 49
-0.356603 -0.348799 -0.057148 122 119 114
0.078440 0.044049 -0.028144 57 67 72
0.102378 0.312241 -0.033539 125 127 116
0.079167 -0.054172 -0.025552 53 65 71
-0.321236 -0.244296 0.147012 76 84 73
-0.194866 0.471138 0.044997 132 134 123
-0.073182 0.372427 -0.042715 137 142 130
-0.052146 0.466445 0.023490 140 145 135
0.070183 -0.243402 -0.033516 118 119 113
-0.336183 0.313733 -0.009077 145 143 133
0.002596 0.323294 0.038383 154 163 156
-0.360318 0.219739 -0.060365 63 28 25
-0.101659 -0.097635 -0.037202 136 149 144
-0.289573 -0.154296 -0.049333 33 33 27
-0.165126 0.033946 -0.043392 122 127 115
0.109887 -0.119218 -0.024202 55 68 77
-0.344086 -0.096828 0.339220 36 36 36
0.266394 0.097717 0.082534 47 57 60
0.039545 -0.051403 0.003969 28 40 42
-0.289577 -0.283254 -0.041540 92 97 85
-0.224395 -0.185515 -0.018075 122 135 130
-0.266407 0.448899 -0.001245 132 134 125
-0.290127 -0.217539 0.333566 39 43 36
0.367583 0.101655 -0.025779 139 141 130
-0.337971 -0.234652 0.127828 4 12 9
-0.342288 0.284446 0.026270 143 144 135
-0.096749 -0.270176 -0.041003 0 2 0
-0.082646 0.210305 0.033028 126 131 121
0.260464 0.122909 0.048649 34 44 51
0.336460 -0.096507 -0.027023 135 137 128
-0.153895 0.446567 -0.017225 133 137 130
0.281650 -0.095253 0.092710 81 91 96
0.059168 0.523844 -0.034329 137 139 126
0.197524 -0.160206 0.083001 82 84 94
-0.337797 -0.326468 -0.048169 107 114 106
0.208490 0.352381 -0.027796 38 43 33
-0.300353 -0.124678 0.090346 12 18 16
0.396640 0.457262 -0.015239 139 141 130
-0.077765 -0.229834 -0.040649 109 114 104
0.178694 -0.195543 -0.028654 109 111 100
0.047815 -0.165146 -0.033280 74 88 77
-0.239304 0.022584 -0.047140 115 122 114
-0.261067 0.337378 -0.053661 115 120 110
0.010853 -0.043824 -0.039412 92 101 94
-0.245795 -0.143512 -0.020479 117 128 124
-0.356619 0.196405 -0.057206 0 0 0
0.319487 -0.221824 -0.026394 144 145 136
-0.106793 0.467024 0.029114 135 140 130
0.262117 0.122744 0.060443 35 47 53
0.029085 0.048309 0.071354 46 53 57
-0.229340 -0.206309 -0.046698 112 113 107
0.121017 0.129925 -0.025071 57 64 72
-0.219729 -0.163126 -0.028587 123 136 131
0.062944 0.404185 -0.035938 131 136 122
0.014618 -0.004682 0.067662 87 101 105
-0.267545 -0.335788 -0.039350 122 120 112
-0.287329 -0.201008 0.342382 50 52 43
-0.327510 -0.077925 0.322898 81 92 92
-0.233824 0.217762 -0.041633 120 128 115
-0.288492 -0.213932 0.267842 95 95 89
0.347196 0.274932 -0.020632 145 143 131
-0.087616 -0.268665 -0.040388 125 127 116
-0.067309 -0.121116 -0.021277 139 150 146
-0.147003 -0.193674 -0.024655 145 156 152
-0.032547 -0.253136 -0.038522 127 131 124
0.368088 0.207142 -0.022832 140 142 131
0.064683 -0.229125 -0.033156 117 118 112
-0.302359 -0.224510 0.107892 1 2 0
0.246231 0.337537 -0.027066 64 61 58
-0.104175 -0.308602 -0.040571 124 124 118
-0.221135 0.182379 -0.044750 105 110 100
-0.174419 -0.313123 -0.043731 120 128 117
-0.286505 -0.118749 -0.052964 111 113 102
-0.328362 0.412050 -0.022986 144 145 136
-0.298164 -0.230054 0.323722 35 39 34
0.253705 -0.154907 -0.027879 88 93 83
-0.049922 -0.239184 -0.039181 123 128 116
0.016156 0.292647 -0.040280 92 98 81
-0.136680 0.217415 -0.023752 123 124 118
0.088612 0.089796 -0.025800 49 61 65
-0.358025 0.031117 -0.059283 15 16 12
0.384876 -0.015702 -0.023991 137 139 128
0.341736 0.384851 -0.020259 139 141 128
0.234775 -0.192010 -0.027405 119 119 113
0.345954 -0.215898 -0.024907 88 83 79
0.023078 0.026820 0.081305 70 84 90
-0.061903 -0.228700 -0.039900 63 63 57
-0.364834 -0.139026 0.302064 90 108 106
0.156304 -0.264589 -0.030946 128 126 118
0.293561 -0.211184 -0.026407 124 129 119
-0.148708 0.182163 -0.041456 106 114 99
0.302486 0.326850 -0.022418 133 135 124
-0.282270 0.464544 0.038266 139 137 125
0.096899 0.112276 -0.025408 48 62 68
0.172179 0.319656 -0.028943 98 106 95
-0.349224 -0.296294 -0.052781 113 113 107
0.013327 -0.114309 0.076730 79 91 97
-0.171645 0.429892 -0.050021 132 141 132
0.063731 -0.031404 -0.025535 51 63 69
-0.067357 0.211432 0.020219 126 131 119
-0.154581 0.466922 0.028591 134 139 127
-0.092389 -0.235770 -0.039911 107 115 104
0.383439 0.034802 -0.024281 135 140 128
0.330044 -0.093926 -0.028285 136 137 128
-0.295862 -0.267017 -0.043888 100 104 97
0.257338 0.500794 -0.026564 138 140 127
-0.238150 -0.088539 -0.026573 119 128 121
-0.119831 -0.260466 -0.041681 120 121 110
-0.032310 0.215430 0.069485 165 172 166
-0.162961 -0.204307 -0.020026 139 152 149
0.026307 -0.068452 0.071003 55 69 73
0.275505 -0.170639 -0.026360 1 1 1
-0.180829 0.082805 -0.043170 108 113 103
0.138477 0.376925 -0.029995 136 138 127
-0.354740 0.177580 -0.057036 11 11 5
-0.002678 -0.267836 -0.036558 125 125 119
-0.086306 0.210798 0.028007 128 130 121
0.167090 0.031090 -0.021041 52 62 69
-0.274913 -0.301942 -0.040154 119 117 109
0.219378 -0.180480 -0.027758 98 100 91
0.255121 -0.107216 -0.000916 38 48 53
0.119630 0.172805 0.092237 63 70 76
-0.124190 -0.231506 -0.042616 101 102 93
0.331314 -0.124933 -0.025070 57 58 54
0.092137 -0.073312 -0.025540 56 68 72
0.106711 -0.052211 -0.026249 51 65 69
-0.302208 0.319344 -0.053144 113 120 112
-0.335055 -0.160944 -0.045021 100 101 97
-0.025228 0.216955 -0.000691 122 130 117
-0.262938 0.471936 0.046746 140 138 126
-0.008352 -0.255188 -0.037064 123 124 118
0.033924 0.153300 0.074238 26 36 41
-0.173940 -0.238629 -0.044073 58 53 49
-0.272421 0.209933 -0.016087 123 128 118
-0.149911 -0.091007 -0.041471 135 148 145
-0.287950 -0.209898 0.333185 44 45 41
-0.283948 0.114762 -0.045971 104 112 99
-0.356913 -0.117368 0.334663 42 42 38
0.121497 0.469993 -0.031822 131 133 120
0.249977 -0.224723 -0.027908 129 129 123
-0.208399 -0.236803 -0.044881 119 124 114
-0.139050 0.470378 0.042926 136 138 129
-0.244275 -0.105723 -0.022523 116 124 123
-0.292685 -0.224422 0.392040 76 105 106
0.113475 0.403197 -0.033479 131 132 119
0.058295 0.479220 -0.036821 130 135 121
-0.174980 0.212317 0.017345 124 129 117
0.270462 0.491545 -0.025418 144 145 134
-0.179372 0.456253 0.001669 137 139 128
-0.253315 -0.198802 -0.048194 106 116 104
-0.336926 0.119509 -0.046895 103 103 97
0.307444 0.462027 -0.023140 111 112 103
-0.018311 0.216819 0.008455 118 128 114
0.117415 0.380955 -0.031254 92 97 87
-0.351203 0.462534 0.060830 146 139 131
0.114063 -0.229934 -0.031105 121 123 114
-0.032982 -0.123653 -0.041582 97 107 95
0.393976 -0.191335 -0.020640 139 141 132
0.349782 -0.053657 -0.027806 139 142 126
-0.314447 -0.303618 -0.045027 106 104 94
-0.155680 0.055962 -0.042292 121 129 114
0.016490 0.531430 -0.037650 135 143 128
0.081363 -0.233901 -0.032845 111 119 108
0.091693 -0.057172 -0.025610 54 64 69
-0.290284 -0.132606 -0.051368 95 96 85
-0.172490 0.463279 0.019292 138 136 126
-0.284820 -0.198079 0.302762 10 10 12
0.144449 0.143465 -0.017318 47 54 60
0.274278 0.075139 0.106513 88 95 101
0.274793 -0.151207 -0.027257 10 10 6
-0.282751 -0.240866 -0.044808 107 112 102
-0.295641 -0.199224 0.402039 95 118 123
-0.208703 -0.041133 -0.028216 120 126 124
-0.143967 0.045541 -0.041458 115 120 108
-0.379482 0.124344 -0.051357 116 120 113
-0.360375 0.178696 -0.053558 4 10 8
0.235469 0.548796 -0.027527 86 87 83
0.294600 0.473922 -0.024395 144 145 134
0.007596 -0.170051 -0.036644 121 123 114
-0.213746 -0.049857 -0.032250 140 152 144
-0.308597 0.211056 -0.009353 122 127 115
0.255510 -0.149249 -0.029703 86 91 81
0.109970 0.158224 0.029189 27 32 37
-0.195557 0.463706 0.021612 135 137 128
-0.153007 0.183889 -0.041990 107 112 98
0.055835 0.157931 0.038312 24 34 37
-0.001726 0.092153 -0.034226 110 120 108
0.262695 -0.123338 0.032053 39 51 57
0.136207 -0.118334 -0.021974 61 68 74
-0.316445 0.147750 -0.045063 109 110 97
-0.042849 -0.292368 -0.038474 123 127 120
0.029753 0.022513 0.070761 38 48 51
-0.301079 -0.209695 0.141704 0 1 0
-0.004731 0.077099 -0.034675 110 115 105
0.382170 -0.117859 -0.022620 140 141 128
0.174395 0.047983 -0.020400 49 56 62
-0.299496 -0.216942 0.213051 4 10 8
0.018774 0.261848 -0.041266 78 88 76
0.019092 -0.133245 0.084330 69 81 85
-0.327493 0.278502 -0.019711 143 144 133
-0.287574 -0.205166 0.370363 88 113 106
0.264295 -0.097533 0.049487 41 51 58
0.117154 -0.039551 -0.025296 53 65 71
-0.140154 0.077099 -0.040436 108 113 101
0.298056 0.419336 -0.023436 118 126 113
0.212860 0.042154 -0.020871 56 68 74
0.268147 0.028256 0.068529 46 56 63
0.075331 0.176776 0.093588 73 87 91
0.268201 0.095354 0.098097 67 77 84
-0.012732 -0.272420 -0.037648 117 118 114
-0.176085 -0.149912 -0.033452 118 131 126
-0.224461 -0.158705 -0.029336 123 134 130
0.230192 -0.061584 -0.018806 62 76 80
0.273827 -0.030070 0.096977 82 92 99
-0.035579 -0.021367 -0.042702 122 127 117
-0.139183 0.366059 -0.050499 122 130 119
0.078103 -0.212899 -0.032275 118 120 109
0.218864 0.492844 -0.028020 137 142 132
0.277696 0.001015 0.101869 84 94 99
-0.300157 0.177699 -0.046333 117 119 110
-0.064569 0.052425 -0.038930 37 37 33
0.379436 -0.091038 -0.024044 135 137 126
0.266753 0.094318 0.071012 47 54 58
-0.151453 -0.200111 -0.021779 144 155 151
0.384430 -0.078195 -0.023636 138 140 129
0.273368 0.472546 -0.025416 137 142 128
-0.078810 0.368669 -0.043013 134 142 127
-0.185633 -0.259377 -0.044573 122 123 114
0.382899 0.107130 -0.022095 139 141 130
-0.112362 -0.151625 -0.032995 132 144 136
-0.242568 -0.280285 -0.044778 37 28 31
0.028268 0.071520 0.077600 49 63 69
-0.247339 0.316855 -0.050518 114 119 109
-0.011894 0.445127 0.026974 151 158 150
-0.358164 -0.119355 0.335221 38 39 35
-0.347835 -0.333810 -0.049909 125 121 112
-0.272018 -0.132033 -0.053125 42 39 34
-0.137637 -0.124700 0.009853 45 48 47
0.332543 0.237890 -0.022480 139 141 128
-0.092348 0.079877 -0.038783 98 111 96
-0.161687 0.452713 -0.004829 136 138 129
-0.331224 -0.248292 0.136032 19 16 13
-0.031576 -0.265099 -0.038531 132 139 131
0.004658 0.001543 -0.036820 117 126 117
0.232586 0.330224 -0.028170 136 138 125
-0.221134 0.468728 0.043644 133 135 124
-0.200489 -0.268203 -0.044591 87 92 82
0.120463 0.349868 -0.030694 127 132 120
0.017022 0.006725 0.075065 77 91 95
0.006772 0.293481 0.040083 150 162 152
0.195578 -0.118454 -0.018197 55 65 70
-0.294286 -0.228065 0.342680 36 40 33
-0.019765 -0.039430 -0.042035 111 119 106
0.377856 0.448358 -0.016361 143 144 133
-0.078149 0.199658 -0.037420 98 106 93
0.109981 0.353741 -0.032134 96 98 89
0.073291 0.054889 -0.027807 45 62 67
-0.133686 -0.204722 -0.016043 139 152 147
0.388109 -0.171947 -0.021729 140 142 133
-0.157370 0.110727 -0.041747 105 113 102
0.170348 0.014085 -0.020461 52 64 68
0.175894 -0.028361 -0.019699 53 65 71
-0.287341 0.011410 -0.048659 113 120 112
-0.305597 -0.131114 -0.048838 75 83 72
0.389310 -0.178182 -0.020773 144 145 134
-0.114314 0.011566 -0.042386 17 16 16
-0.294322 -0.234720 0.368434 78 103 108
0.196810 0.015308 -0.019971 49 63 69
0.032074 -0.260421 -0.035277 114 119 109
-0.378860 0.145600 -0.052176 115 119 112
0.182117 0.149940 0.004291 26 36 39
0.063503 -0.161109 -0.031312 59 59 53
0.144923 -0.184316 -0.028119 89 93 86
0.281609 0.035125 0.102078 85 92 96
0.386236 -0.166117 -0.020996 84 74 72
0.065122 0.111250 -0.024053 43 55 59
-0.024387 0.073190 -0.034997 110 120 106
0.053376 0.139235 -0.020998 36 46 51
0.347090 0.075065 -0.029847 136 144 131
0.386546 0.458805 -0.016681 95 96 90
0.368814 0.132262 -0.024296 143 148 138
-0.019274 0.128974 -0.033818 75 84 75
-0.241802 0.215918 -0.024710 124 126 115
0.014716 0.527032 -0.036652 102 104 93
-0.112285 0.121030 -0.039185 104 113 104
0.268235 0.043183 0.071886 53 60 64
-0.360763 -0.114151 0.343207 42 46 41
0.158997 -0.234373 -0.029937 122 124 115
0.153143 0.151715 0.009050 26 32 34
0.066761 0.407921 -0.036085 133 138 126
0.294820 -0.235023 -0.027281 119 126 120
-0.217282 -0.255519 -0.045752 112 117 107
0.166737 0.157508 0.036493 29 37 38
0.119884 0.106266 -0.024913 52 59 67
0.009788 -0.283515 -0.036133 125 122 117
0.189832 0.165506 0.085593 35 42 48
-0.319561 -0.063958 0.338760 75 101 103
-0.371542 -0.012873 -0.054980 11 12 6
0.191614 0.057256 -0.020046 45 55 60
-0.303068 -0.205348 0.083954 113 110 107
0.257868 0.148273 0.104122 45 57 63
-0.060311 0.471302 0.036451 138 143 131
-0.253114 0.079460 -0.045327 106 111 99
0.075815 0.347581 -0.034330 79 81 72
0.236434 0.333421 -0.027915 134 139 127
-0.030867 -0.215451 -0.038693 86 94 81
-0.053761 0.131642 -0.035989 30 23 15
0.172754 0.443339 -0.028909 132 134 121
0.266373 -0.042853 0.056370 50 55 62
-0.010489 0.067351 -0.034158 114 126 116
-0.294483 -0.215849 0.406979 87 115 119
0.357528 0.405177 -0.018252 141 139 127
-0.035607 -0.296996 -0.038183 124 125 119
-0.217880 -0.205972 -0.046150 109 114 104
-0.334115 -0.280222 -0.050630 72 69 66
-0.124458 0.214539 0.010780 127 132 120
-0.304737 -0.222724 0.145038 8 11 10
-0.167541 -0.132388 -0.034585 135 144 137
-0.326615 0.287352 -0.024099 143 141 133
-0.305581 0.370540 -0.054023 115 123 110
-0.287136 -0.146632 -0.049949 100 105 93
0.313672 0.292985 -0.022940 122 123 117
0.149518 0.138074 -0.021181 46 58 62
0.176645 -0.206830 -0.028867 28 24 25
-0.038003 0.138674 -0.034743 112 122 110
-0.066359 -0.172371 -0.042019 94 102 91
-0.119527 -0.181355 -0.027169 142 155 150
0.173379 0.549670 -0.028823 131 135 128
-0.328877 -0.061911 0.352998 89 115 117
-0.253302 0.121078 -0.045502 105 110 100
-0.244561 -0.244882 -0.045269 123 125 116
0.040752 -0.046278 0.000707 24 36 40
0.250742 -0.036930 -0.011391 47 57 64
-0.258158 -0.315109 -0.040756 124 126 117
-0.121872 -0.259086 -0.042781 120 121 112
0.217898 -0.157923 -0.028996 74 75 66
-0.253710 0.366710 -0.054358 117 118 109
0.273571 0.142690 0.118680 86 98 104
0.372389 -0.116160 -0.023294 136 138 127
-0.013303 -0.045913 -0.041415 114 119 107
-0.246855 -0.125362 -0.023356 118 129 125
0.316616 0.419912 -0.022102 49 49 43
0.111154 0.085857 -0.025177 46 58 64
-0.340779 -0.350774 -0.043802 119 117 109
-0.291808 -0.219872 0.394256 79 104 111
-0.290031 -0.216304 0.322664 36 43 37
0.184191 0.125637 -0.020244 50 60 63
0.110114 0.004267 -0.025606 56 68 74
0.015182 -0.109349 0.081771 70 84 88
0.096000 -0.063565 -0.025628 56 70 76
-0.273639 0.059055 -0.047086 117 122 110
0.189470 -0.254586 -0.029470 119 121 112
-0.076363 -0.013994 -0.042856 111 119 106
-0.186923 0.430407 -0.051528 129 136 128
-0.344439 -0.057391 0.370872 99 125 127
0.367641 -0.120185 -0.024001 137 141 134
-0.240458 0.130249 -0.045006 109 114 102
-0.053869 0.142285 -0.035379 110 118 105
0.108597 -0.155064 -0.028868 53 65 57
0.132868 0.464218 -0.031792 70 62 59
0.187418 -0.218874 -0.028631 123 125 116
0.185138 0.169893 0.102711 47 63 71
0.345096 0.443472 -0.019759 143 145 136
-0.283859 0.459874 0.028686 136 138 127
-0.347762 -0.141754 -0.041873 115 111 102
0.101565 0.517803 -0.032568 136 141 127
0.058175 0.533112 -0.034931 132 140 127
0.268202 0.037787 0.098316 70 80 85
0.090489 0.497670 -0.032672 131 136 122
-0.319362 0.038970 -0.047099 110 112 101
0.331493 0.546371 -0.021940 113 118 108
0.097408 0.108193 -0.025475 49 61 65
-0.335670 -0.291588 -0.048870 36 37 31
-0.357119 -0.100211 0.368072 52 56 51
-0.045548 0.159337 -0.034809 111 121 107
-0.120789 0.433095 -0.036826 133 140 132
0.247956 0.152455 0.056616 37 47 50
0.247566 -0.127377 -0.011239 54 64 71
-0.101287 -0.193138 -0.044203 58 62 57
-0.211560 -0.129769 -0.031213 101 116 111
0.154654 0.174139 0.098680 101 115 119
-0.292255 -0.020809 -0.050423 112 113 100
-0.262033 0.427737 -0.049783 125 133 122
-0.209893 -0.248029 -0.045280 114 122 111
0.136986 0.160267 0.038845 27 37 40
-0.087801 0.140483 -0.037117 102 112 98
0.269576 -0.130141 0.072017 44 56 60
-0.289544 -0.139762 -0.050790 101 103 94
-0.284065 -0.042149 -0.051506 115 117 106
-0.061525 0.211905 0.014877 122 128 111
-0.328731 -0.276480 -0.049120 117 121 114
0.176134 -0.127562 -0.016597 81 91 96
0.277185 -0.129490 0.090805 77 87 92
-0.004392 -0.036610 -0.041515 117 127 113
-0.157067 0.069774 -0.041248 104 114 102
0.189688 0.142331 -0.017461 43 55 59
-0.039947 0.438699 -0.015254 140 148 137
0.328176 0.346739 -0.021185 141 140 125
0.218853 0.056829 -0.020107 54 64 71
0.227459 0.007910 -0.019657 67 74 82
0.395156 0.256975 -0.016490 143 144 131
0.208326 0.354921 -0.027813 59 60 51
-0.298178 0.475200 0.053959 142 144 133
-0.062613 0.216768 -0.019388 115 128 115
-0.166951 0.041518 -0.042888 84 89 79
-0.003866 -0.292872 -0.038605 122 126 119
0.183042 0.145594 -0.014248 33 45 47
-0.270668 0.128584 -0.045623 8 13 3
-0.083383 0.472271 0.038162 138 143 131
-0.020769 0.094352 -0.033924 106 114 103
-0.317563 0.411283 -0.043504 135 137 126
0.194365 0.321853 -0.028519 129 134 122
0.010295 -0.099994 -0.040380 96 106 94
0.268798 0.095580 0.101375 82 89 93
0.345980 -0.217404 -0.024919 92 89 86
-0.034302 -0.267088 -0.038522 122 126 119
-0.221448 0.429847 -0.050690 124 129 119
-0.366484 0.028912 -0.050606 16 17 13
0.346149 0.179715 -0.025618 136 141 129
-0.072822 0.394550 -0.043146 147 152 140
-0.127545 0.459242 0.011743 133 141 130
-0.257026 -0.011942 -0.049846 110 115 103
-0.285032 -0.198569 0.286771 80 81 75
-0.058875 -0.191220 -0.040312 104 112 101
0.060005 0.279897 -0.036389 114 123 114
-0.004736 0.215491 -0.033407 95 97 86
-0.176816 0.152879 -0.041100 112 117 107
-0.350328 -0.111626 0.314551 32 39 33
-0.351778 0.366803 0.046474 139 135 128
0.267480 0.088648 0.074714 46 56 59
-0.002361 -0.292649 -0.038325 122 126 119
-0.289768 0.414963 -0.058779 121 129 116
-0.018785 0.453248 0.022493 147 155 142
-0.126043 0.385138 -0.050129 126 130 123
-0.154977 -0.129479 -0.036102 139 151 143
0.233604 0.411573 -0.025785 133 142 124
-0.235843 0.321047 -0.049140 115 116 110
-0.147101 0.166286 -0.041285 116 118 105
-0.292589 -0.190525 0.384715 99 114 109
-0.266584 -0.040794 -0.051014 109 114 104
0.252979 0.358220 -0.025473 136 139 123
-0.372932 0.099833 -0.049307 114 121 113
0.391678 0.270773 -0.017379 143 145 134
-0.207920 -0.081639 -0.042962 127 135 134
-0.169310 0.097418 -0.041896 21 25 20
0.163831 0.422303 -0.029195 123 124 118
-0.337109 0.394760 -0.012877 146 144 134
-0.052220 0.185728 -0.035747 109 114 100
0.357556 0.473462 -0.019387 142 144 133
-0.237370 0.200050 0.083736 148 157 148
0.000877 0.448600 0.052304 152 157 147
0.205287 0.166315 0.099201 46 58 60
-0.296482 -0.212474 0.195110 5 13 10
0.263625 -0.238843 -0.028213 120 127 119
0.147631 0.345309 -0.030047 126 131 119
0.351222 -0.232874 -0.025679 133 140 134
0.200612 0.012240 -0.019974 53 63 68
0.393698 0.164895 -0.019915 144 146 137
-0.129976 -0.167116 -0.031689 141 154 151
0.171572 -0.111025 -0.018466 54 64 71
-0.069479 0.481517 0.051926 144 149 139
0.297087 0.457476 -0.023912 139 147 132
0.006956 -0.148387 -0.036928 120 125 115
0.260874 -0.001040 0.018817 47 57 62
-0.042606 -0.228577 -0.038853 123 125 116
0.343112 0.086188 -0.029467 94 101 93
-0.027933 0.486594 0.059912 148 156 145
0.027227 0.419209 -0.037827 117 119 103
0.086954 0.375431 -0.033196 130 135 121
-0.096816 -0.065400 -0.033425 138 149 145
0.196520 0.505879 -0.029359 73 78 66
-0.017008 0.216678 0.015711 117 127 113
0.037119 -0.051224 0.011431 36 47 47
0.260415 0.144974 0.107131 46 56 59
-0.040330 0.401828 -0.039436 161 169 158
-0.343905 -0.246938 -0.052813 105 110 100
0.024588 0.068775 0.084454 69 86 89
0.269741 0.400848 -0.025157 136 142 125
0.267695 -0.108253 0.065494 44 56 62
-0.359014 -0.100779 0.374037 53 57 50
-0.281622 0.080456 -0.046351 98 103 93
0.043015 -0.286653 -0.035151 47 44 41
-0.005129 0.268971 -0.034656 96 101 87
-0.318410 0.005477 -0.049590 101 106 96
0.145178 0.156176 0.027481 29 39 42
0.018765 0.033145 0.081677 78 90 96
-0.354911 -0.087682 0.376084 57 58 52
0.024837 -0.220350 -0.035043 124 126 117
-0.344695 0.318302 0.024636 146 144 136
0.167817 0.426105 -0.029367 131 136 122
-0.113488 -0.302819 -0.041381 125 126 120
-0.002567 0.334585 0.017084 157 169 159
-0.110382 -0.043504 -0.029782 127 140 135
-0.204706 0.059220 -0.044062 107 116 107
0.389681 -0.205591 -0.022297 148 148 142
-0.336919 0.344768 -0.008693 143 144 135
0.246563 0.293170 -0.027277 120 125 115
0.264654 0.121912 0.090864 45 55 62
0.268598 -0.006167 0.086288 51 61 68
-0.304233 -0.229954 0.291235 22 29 21
-0.310149 0.334143 -0.050788 125 133 120
-0.285141 -0.199647 0.277501 63 59 50
-0.250699 -0.269597 -0.044283 114 119 109
-0.341603 -0.053841 -0.055576 3 4 0
0.140826 -0.228419 -0.030114 11 15 10
-0.152496 0.216611 -0.044944 91 92 83
-0.341220 0.144742 -0.048790 55 60 50
-0.032752 0.119675 -0.033952 8 13 1
0.196550 0.319838 -0.028511 130 135 123
0.048096 0.039766 -0.011120 26 36 41
-0.223716 -0.071273 -0.035017 117 130 125
-0.199651 -0.045382 -0.036118 120 128 125
0.018786 0.159433 0.091364 73 83 86
0.361467 -0.208788 -0.023832 35 41 41
0.179771 -0.173614 0.087824 155 173 171
0.212387 0.047852 -0.020636 54 64 71
0.063244 0.158376 0.036767 23 33 38
-0.270043 -0.244974 -0.044453 115 120 108
0.366483 -0.073966 -0.025900 141 139 129
0.024498 0.018770 0.079625 72 84 90
0.233414 0.465199 -0.027913 77 82 72
-0.110402 0.148192 -0.039461 112 120 107
-0.171330 -0.143397 -0.034893 126 137 137
-0.017393 -0.210145 -0.037266 119 120 114
-0.159402 -0.144405 -0.035410 127 135 132
-0.298226 -0.006673 -0.049243 104 106 93
0.182929 0.336638 -0.028157 57 64 56
0.138569 0.103213 -0.023659 45 57 63
0.398744 0.460349 -0.015084 84 79 75
-0.378936 0.180443 -0.055194 113 121 110
0.246935 -0.247642 -0.028684 119 119 115
-0.175971 -0.125648 -0.033479 118 130 122
0.053989 -0.165538 0.086448 75 85 92
-0.007509 0.137342 -0.032614 108 121 108
0.143110 -0.246059 -0.031022 62 61 61
0.051218 0.466735 -0.037563 62 60 50
-0.103809 0.477686 0.052699 137 142 130
-0.301025 -0.220578 0.081805 25 28 31
-0.143247 -0.082821 -0.040399 131 144 143
0.100769 0.139839 -0.023454 51 63 69
-0.079253 -0.163606 -0.016763 135 150 145
-0.172591 0.403769 -0.055756 125 133 122
-0.332183 -0.088639 0.339300 72 98 100
-0.298019 -0.225654 0.304434 38 39 33
-0.064414 -0.173667 -0.042046 2 2 0
0.179863 0.168631 0.096580 49 63 67
0.157974 -0.020099 -0.021412 51 63 69
-0.242113 -0.168295 -0.015035 117 129 119
-0.113050 -0.192173 -0.018820 142 151 144
-0.279484 -0.114881 -0.054869 112 117 105
-0.055520 0.100942 -0.035983 105 115 103
0.024482 -0.117204 0.077432 63 75 81
0.385717 0.324080 -0.016549 140 142 129
-0.301288 0.323170 -0.054321 116 120 113
0.084752 -0.162274 0.084749 78 90 96
0.073906 -0.175743 -0.030634 87 94 86
0.017995 0.489965 -0.040281 120 128 113
0.186388 0.076249 -0.019987 41 51 56
-0.273071 -0.128679 -0.053095 93 95 86
-0.157214 0.412640 -0.055302 136 140 133
-0.377031 0.180749 -0.055022 110 118 107
-0.041415 0.215720 0.069323 191 200 193
-0.334095 -0.063787 0.359735 92 115 120
0.133070 0.347464 -0.030508 123 128 116
