ply
format ascii 1.0
element vertex 1221
property float x
property float y
property float z
property uchar red
property uchar green
property uchar blue
end_header
-0.307376 -0.081743 0.333035 80 81 75
-0.152471 0.131615 -0.034394 113 114 101
-0.139563 -0.251784 -0.041185 101 106 96
0.309658 0.166392 0.004053 43 55 61
0.201085 0.189400 0.021074 15 21 21
0.022809 -0.200756 -0.005079 146 157 155
-0.245848 -0.248966 -0.042193 127 130 129
0.035013 0.249095 -0.028034 96 106 94
-0.073622 0.447274 -0.039907 131 135 128
0.225076 -0.085314 -0.018997 20 26 28
-0.068337 -0.085055 -0.029301 107 122 119
0.327017 0.019758 0.101611 52 64 70
0.126896 0.137177 -0.020404 17 25 26
0.364787 -0.162176 -0.020341 98 105 97
0.141995 0.166357 -0.016391 15 21 21
0.301568 0.057726 -0.006955 40 50 53
0.077439 -0.103937 -0.037722 66 70 65
0.277878 0.393441 -0.023389 105 110 100
0.094416 -0.236232 -0.032510 109 113 106
-0.005913 -0.241648 0.012495 131 135 130
-0.278254 0.235219 -0.042644 137 138 127
-0.206543 0.253758 -0.035709 132 133 122
0.030137 -0.188601 -0.004379 145 158 155
-0.252613 -0.115372 0.233601 6 9 8
0.246439 -0.209156 -0.024349 10 2 1
0.095905 -0.107545 -0.031706 91 95 88
0.315878 0.341197 -0.020828 115 120 110
0.093243 -0.134719 0.103590 59 68 78
-0.251622 -0.260852 -0.042564 129 134 122
-0.300261 -0.074161 0.321959 73 77 70
-0.297981 -0.318587 -0.044472 128 130 121
0.337003 -0.110795 0.106709 67 74 82
0.092206 -0.232038 -0.032482 112 120 109
0.239679 -0.247977 -0.024790 108 109 105
0.207088 -0.136029 -0.025719 96 96 96
0.376204 0.363936 -0.012578 122 124 113
0.033707 -0.161664 -0.006941 150 165 162
0.145566 -0.229259 -0.029253 11 3 2
0.167669 -0.228488 -0.028700 110 111 107
-0.254593 -0.212045 -0.042719 118 126 115
0.075961 -0.249980 -0.033374 12 3 10
-0.240296 0.361806 -0.026067 159 164 152
0.289994 -0.010308 -0.013438 34 39 44
0.046060 -0.066796 -0.038563 60 66 64
0.195057 -0.044075 -0.021528 19 25 27
0.268329 0.381894 -0.024819 99 104 92
-0.098088 0.020617 -0.033455 91 99 88
0.197834 -0.232623 -0.026557 109 113 106
0.212115 -0.196379 -0.025876 28 28 22
0.074088 0.034435 -0.026465 86 93 85
-0.093310 -0.147316 0.013032 68 78 81
0.043094 -0.017183 -0.033573 70 75 63
-0.230032 0.485309 0.011798 153 151 139
0.199305 -0.012096 -0.021146 22 28 28
-0.271594 -0.228525 -0.041188 133 131 121
-0.198178 -0.232221 -0.042912 124 126 117
0.198202 0.111353 -0.019520 15 21 21
-0.355366 -0.129902 0.324727 78 97 99
0.119279 0.131994 -0.006335 21 27 29
0.390705 -0.141662 -0.019360 91 96 86
-0.038808 -0.023838 -0.038321 71 78 70
-0.161991 0.092032 -0.033440 74 74 68
0.283318 0.412808 -0.022890 121 122 116
-0.065501 0.047228 -0.033000 89 93 88
-0.067577 -0.300448 -0.042864 113 117 112
-0.104390 0.482999 -0.030628 139 141 132
0.252191 -0.178759 -0.022907 98 100 91
0.302100 0.203782 0.112399 68 74 76
-0.344763 -0.121371 0.347277 96 120 122
0.309531 -0.054258 0.015086 41 51 54
-0.051779 0.248048 0.086048 140 145 133
-0.261960 -0.112921 0.253056 7 10 9
0.309545 -0.056015 0.015172 40 47 53
0.153222 0.195893 0.097165 36 42 44
0.321916 0.532695 -0.019104 112 117 105
-0.128805 0.492738 -0.010819 144 146 135
-0.012359 0.503260 0.064061 150 151 140
0.274100 0.194715 0.113560 55 62 68
-0.162330 -0.202494 -0.038916 121 129 118
0.301237 0.170691 -0.010664 36 46 49
0.219587 -0.052441 -0.020195 21 24 25
0.100219 -0.152965 -0.030166 90 91 87
0.211462 0.189845 0.030996 22 34 36
-0.154244 0.074895 -0.034045 100 110 98
0.274197 0.490587 -0.023309 121 123 110
0.320253 -0.126971 0.083482 59 66 72
0.056635 -0.247029 -0.035203 107 115 100
0.006441 -0.265829 -0.039010 105 109 104
0.311997 0.583532 -0.019115 109 111 102
-0.320247 -0.243212 -0.043789 134 139 127
-0.165700 -0.127627 -0.037318 137 146 137
0.228023 -0.236487 -0.025647 108 109 103
-0.052539 0.144227 -0.030714 98 106 95
0.228971 0.059883 -0.017968 21 24 25
-0.076802 0.392620 -0.041978 129 133 126
0.131003 0.342674 -0.028205 101 106 92
0.152106 -0.060775 -0.023250 18 24 26
-0.142953 -0.127817 0.034602 114 122 119
-0.109405 0.006585 -0.033819 91 98 92
0.253543 -0.023047 -0.018062 18 21 22
-0.210254 -0.321094 -0.041984 129 126 121
0.197701 0.414549 -0.026555 37 33 24
-0.063148 0.053787 -0.032895 0 1 0
0.288098 -0.143206 -0.023187 86 90 85
-0.052758 0.187440 -0.031411 111 113 97
-0.178725 -0.049355 0.204942 17 20 19
0.311061 -0.205855 -0.021563 110 110 104
-0.037839 -0.067799 -0.016158 127 135 132
-0.271808 0.412862 0.084418 156 164 161
0.318784 0.566464 -0.018316 111 112 101
-0.015478 0.042499 -0.031363 80 81 72
0.026223 0.245906 0.030497 124 129 119
-0.166189 -0.303190 -0.041747 118 119 113
0.183731 -0.201289 -0.026787 100 105 93
0.041007 -0.067678 -0.038829 20 23 22
-0.219600 -0.063384 0.211750 15 22 16
0.378469 0.354832 -0.013215 69 71 60
-0.096690 -0.070216 -0.002570 123 131 128
-0.261849 0.412240 0.084845 155 163 152
-0.032668 0.037231 -0.031900 79 88 79
-0.227743 -0.198780 -0.043015 79 75 68
-0.005946 0.050566 -0.031456 90 97 89
0.332516 -0.116184 0.106704 62 72 77
-0.012046 -0.138833 -0.023967 125 137 129
-0.131298 -0.305896 -0.041623 112 117 107
-0.162236 0.511252 0.071593 158 160 149
0.173424 0.606574 -0.027741 123 124 111
0.309419 -0.018164 0.012763 40 50 55
-0.187444 0.513889 0.076356 157 162 152
-0.352803 -0.084588 0.361051 127 155 159
-0.094053 -0.287546 -0.041828 111 112 108
0.007409 0.251319 0.004139 118 126 113
0.035452 0.248494 0.084999 138 147 138
0.261073 0.545235 -0.023366 99 104 94
-0.226121 -0.032275 0.202927 52 56 49
-0.367872 -0.008141 0.277283 63 67 62
0.203351 -0.188538 -0.025807 100 102 93
-0.041070 0.486037 -0.014486 143 148 138
-0.091725 0.150065 -0.032249 104 101 96
0.187101 -0.118558 -0.017476 55 55 57
0.087746 0.173597 0.114259 60 65 72
0.227180 -0.186067 -0.024637 99 100 91
0.309228 -0.129393 -0.023458 94 94 90
0.001939 0.194473 -0.027331 116 118 107
0.255551 0.190838 0.107025 43 46 47
0.000930 0.488847 0.008233 143 148 138
-0.214698 -0.087439 -0.040923 113 117 110
-0.214621 -0.187940 -0.043400 118 126 115
-0.017140 0.236275 0.085148 133 141 130
0.319283 -0.050238 0.053480 40 51 60
-0.341068 -0.204459 -0.045087 131 136 126
0.311613 0.442370 -0.021364 127 128 115
0.146059 0.196314 0.081819 27 37 42
-0.324264 -0.115426 -0.047595 116 126 112
-0.369912 0.122407 -0.045026 113 122 115
-0.127034 0.236854 -0.034779 47 36 27
0.324878 0.306426 -0.021222 94 97 98
-0.306346 -0.136315 -0.044605 128 126 116
-0.112314 -0.106100 -0.014250 103 106 105
0.092826 0.012279 0.076908 33 39 39
0.071652 0.324175 0.020331 149 156 150
-0.229180 0.381719 -0.042766 138 136 126
0.198679 -0.223277 -0.027068 106 111 101
0.232109 -0.122006 -0.023315 70 74 67
-0.280498 -0.249360 -0.040589 130 131 125
0.100077 -0.130356 0.103568 59 67 68
-0.100543 0.395703 -0.045780 108 113 103
-0.110863 0.394178 -0.046861 105 103 93
0.062828 0.247238 -0.026766 81 82 78
0.334093 0.304269 -0.018623 87 90 91
-0.258618 -0.277607 -0.042013 114 120 118
-0.160700 0.513461 0.075176 157 159 150
0.369695 -0.161286 -0.020373 98 105 97
-0.029988 -0.088753 -0.028259 115 130 129
-0.019877 0.645571 -0.035840 132 132 126
0.048773 0.175860 -0.024870 105 113 102
-0.316747 -0.329919 -0.049228 125 133 130
0.091445 0.013751 0.084458 33 43 46
0.250399 -0.246190 -0.024211 103 104 98
0.192728 0.585628 -0.026663 92 88 81
-0.120920 -0.233140 0.046130 108 119 115
-0.229778 0.485007 0.017764 154 153 138
-0.060960 0.410691 -0.039456 127 131 126
-0.226363 -0.089370 -0.041842 115 115 109
-0.053296 -0.287863 -0.041448 103 103 97
0.213491 0.467736 -0.026632 90 91 82
-0.232199 -0.074605 0.251284 86 18 24
0.083013 0.332718 0.061703 147 157 145
-0.217835 0.164781 -0.034491 121 125 118
0.291623 -0.150778 -0.022890 100 102 91
0.022887 -0.002224 -0.033128 104 111 103
0.142451 0.451751 -0.030938 104 106 95
0.303763 0.498831 -0.021413 131 133 122
0.329400 0.153369 0.117722 56 74 70
0.211166 -0.257036 -0.027175 117 122 112
-0.015798 -0.070078 -0.003564 132 147 142
-0.140178 0.224204 -0.034637 112 117 105
-0.110836 0.225418 -0.033843 113 118 108
0.070300 -0.065539 -0.039169 72 72 66
-0.214317 -0.293750 -0.042592 94 97 96
0.166615 0.467057 -0.029034 111 109 99
-0.073108 0.419522 -0.040193 122 129 121
0.160423 0.194390 0.050686 14 21 27
-0.055652 0.416888 -0.038764 122 127 117
-0.284498 -0.260996 -0.040721 131 136 124
-0.320450 -0.140413 -0.045711 128 130 121
-0.120134 0.131265 -0.033283 101 106 96
0.301938 -0.085248 0.000144 45 55 58
0.137799 -0.166446 -0.027395 91 96 86
0.064975 0.255287 0.029643 99 101 85
0.295986 0.533622 -0.020636 123 128 118
0.113916 0.564912 -0.028647 123 123 117
0.256505 0.051471 -0.017677 13 24 24
0.042723 0.251070 -0.028415 92 97 85
0.082943 -0.233554 -0.033206 106 115 106
0.323496 -0.069118 0.086212 50 60 65
-0.332517 0.014878 0.281688 39 36 33
0.231557 -0.032741 -0.018229 19 25 27
0.234610 -0.024685 -0.018617 23 26 29
0.140000 -0.170853 -0.027637 111 119 108
-0.140096 0.513486 0.072147 153 157 150
-0.226585 0.473569 -0.033929 149 151 140
0.186899 0.510290 -0.027234 110 115 105
-0.240308 -0.179412 -0.043208 117 125 114
0.125376 0.166491 -0.018920 25 36 34
0.243618 0.182450 -0.003079 21 27 27
-0.087077 0.036946 -0.033487 97 104 96
-0.218560 0.436899 -0.045152 126 124 112
-0.045951 0.384769 -0.040133 129 133 126
0.050701 -0.258581 -0.035627 102 104 93
-0.003095 0.433276 -0.033604 133 137 130
0.243074 0.336618 -0.030256 20 21 17
-0.092598 -0.098402 -0.025131 112 123 121
-0.202838 -0.095280 0.205462 20 26 24
-0.358105 -0.089985 0.359129 126 149 154
0.227698 0.482040 -0.026246 105 107 91
0.016849 0.148308 -0.027437 110 119 112
0.008595 0.189287 -0.027694 122 123 110
-0.369876 0.053771 0.248153 121 143 146
-0.225731 -0.051457 0.229932 1 1 0
0.082762 0.089412 -0.023375 92 99 91
-0.230838 0.169865 -0.036082 62 67 55
-0.238803 0.465086 -0.007694 164 166 155
0.273132 0.186429 0.057915 29 34 39
-0.054898 -0.108356 -0.031519 113 128 125
0.335380 -0.146456 -0.021139 105 106 102
-0.098178 -0.289774 -0.041711 69 63 65
-0.321699 -0.328064 -0.047959 133 135 126
0.089642 0.361946 0.081435 135 148 143
-0.252561 0.358515 0.053121 163 164 153
0.158316 -0.216390 -0.028437 108 109 103
0.021344 -0.158695 0.025870 60 59 59
-0.358751 0.055679 0.244538 117 147 152
-0.248853 -0.249523 -0.042145 118 118 112
-0.318567 -0.091924 -0.048621 115 119 112
0.268842 -0.185171 -0.023178 98 105 97
0.138323 0.400576 -0.029736 105 107 94
0.285105 0.113376 -0.012682 35 42 48
0.221377 -0.080767 -0.019083 14 22 23
0.227100 0.089823 -0.018221 15 23 24
-0.055415 -0.271723 -0.042083 92 99 93
-0.016344 0.254471 -0.017787 120 128 113
0.132103 -0.236226 -0.029171 117 118 109
0.280295 0.148519 -0.013548 32 42 49
0.221747 0.060532 -0.018233 18 21 24
-0.231502 -0.274152 -0.042611 129 137 126
0.078550 -0.224848 -0.034470 67 60 54
0.324268 -0.154793 -0.021773 106 106 102
-0.284571 -0.116973 0.272981 74 78 71
0.288382 0.178153 0.016858 24 31 37
0.276891 -0.124131 -0.021870 12 18 18
0.005088 -0.108612 -0.012059 131 139 138
0.143825 -0.255292 -0.028505 107 114 106
-0.270787 -0.096516 0.292216 241 248 240
-0.001097 -0.259576 -0.039296 105 110 100
-0.325868 -0.082228 0.348418 119 142 147
-0.155904 -0.196273 -0.039433 122 127 117
0.212204 0.450007 -0.025763 97 99 83
-0.294753 -0.193530 -0.041370 100 104 99
-0.304099 -0.288389 -0.044100 126 133 125
0.160681 0.097826 -0.020451 21 24 27
0.214958 0.190284 0.045301 25 33 34
-0.240209 -0.119832 -0.045029 110 114 109
0.271013 0.115972 -0.015379 24 31 37
-0.297557 -0.101653 -0.046152 101 108 102
-0.201729 0.209105 -0.036100 123 124 113
0.388230 0.567242 -0.013676 60 60 54
0.150980 -0.066361 -0.023254 21 24 27
-0.081187 0.245352 0.063340 131 139 128
0.341887 -0.235077 -0.021484 103 107 102
0.215080 0.355591 -0.030069 110 112 103
-0.321548 -0.137124 -0.045608 129 134 124
0.193648 0.541473 -0.027484 73 73 67
-0.278356 0.152098 -0.038907 116 118 109
-0.221114 -0.182581 -0.043024 118 126 115
-0.300450 -0.101795 0.322848 79 83 76
0.109762 -0.162831 -0.029823 16 20 15
-0.179264 0.197146 -0.035497 117 122 110
0.244296 0.076991 -0.017966 21 24 27
-0.219101 -0.077840 0.229593 3 3 3
0.027193 -0.250403 -0.037059 53 53 53
-0.108371 0.034568 -0.033430 92 97 85
-0.263491 -0.277003 -0.041776 135 133 123
0.137536 0.110681 -0.022320 16 22 22
-0.135941 -0.047663 -0.036515 94 99 89
-0.307584 -0.161563 -0.042960 123 128 116
0.083014 0.079136 0.107963 56 70 74
-0.275621 -0.106626 0.288230 155 159 154
-0.309758 -0.114704 0.322570 58 64 62
0.266107 -0.135837 -0.022787 84 88 81
-0.293683 -0.330881 -0.045029 80 81 75
-0.191073 -0.118457 0.192890 0 1 0
-0.290159 -0.129328 -0.045481 124 126 117
-0.183482 -0.024175 0.142768 23 23 19
-0.205462 -0.144231 -0.041698 114 122 111
-0.272086 -0.173488 -0.043462 121 126 114
0.346757 -0.150985 -0.020550 4 4 4
-0.329218 -0.097487 0.351280 116 145 146
0.339260 -0.190229 -0.020667 106 113 105
-0.242009 -0.285220 -0.042223 130 131 122
0.173972 0.396419 -0.027521 103 104 93
0.265348 -0.083209 -0.018007 23 33 38
0.318174 0.180911 0.102081 43 54 54
-0.330613 -0.102955 0.350785 124 147 152
0.121469 -0.016132 -0.025952 28 36 35
0.131125 0.042478 -0.027506 21 24 27
-0.326616 -0.077797 0.347916 117 145 149
0.257819 0.026478 -0.017693 15 23 22
-0.140562 -0.317560 -0.042546 120 121 112
0.102181 -0.200657 -0.032414 100 107 99
0.135207 -0.145782 -0.026561 97 98 94
0.196401 0.154876 -0.018095 12 20 21
0.063724 0.306188 0.022047 144 153 146
0.095770 -0.027733 0.047742 29 31 39
0.157687 0.445801 -0.029501 111 109 97
-0.174307 0.510135 0.069781 155 160 150
-0.178906 -0.064883 -0.038102 98 103 93
0.107936 0.021875 0.007467 23 34 34
-0.192998 -0.233034 -0.042185 81 72 65
-0.124923 0.478332 -0.040233 123 128 118
-0.235822 0.003812 -0.032233 97 98 89
-0.305991 -0.123124 0.281075 43 44 40
-0.260275 0.079252 -0.014249 79 81 70
-0.154795 -0.293868 -0.041315 111 111 105
0.311796 0.034092 0.012262 42 54 58
-0.145528 0.236685 0.090098 139 148 139
0.331644 -0.120393 0.105067 66 80 86
-0.217446 -0.268582 -0.042549 126 127 118
0.324220 -0.126575 -0.023709 1 0 0
-0.139956 0.022113 -0.033563 95 100 90
-0.282546 -0.196059 -0.041970 123 127 120
-0.021324 0.243659 -0.031387 107 112 100
0.337344 -0.162157 -0.021241 97 99 90
-0.276045 -0.248503 -0.040782 135 140 130
-0.012403 -0.077688 -0.010013 135 146 142
-0.093169 -0.103475 -0.026113 114 127 122
-0.129278 0.256654 -0.015920 125 135 121
0.142591 0.398311 -0.029015 100 98 90
-0.220029 0.486599 -0.001227 145 150 136
-0.163979 0.233487 -0.034904 129 131 118
0.071433 -0.027889 -0.035375 58 62 57
0.098129 0.466364 0.064406 129 127 115
-0.154157 -0.023259 -0.035236 94 98 91
-0.055456 -0.129776 -0.030170 122 133 129
-0.216589 -0.271453 -0.042744 131 132 126
-0.078393 0.252257 0.012048 132 134 125
0.188532 -0.046895 -0.022238 17 25 26
-0.232241 -0.066553 0.250506 29 21 18
-0.182561 0.055483 -0.032291 105 110 100
-0.011919 0.255033 -0.023986 106 111 99
0.282136 0.509277 -0.022971 128 133 119
0.326148 0.425305 -0.019399 125 126 115
0.023594 -0.107548 0.005628 134 142 141
0.023519 0.396565 -0.034671 129 134 124
0.393850 -0.096852 -0.017769 84 84 78
0.029360 -0.226843 -0.037528 79 84 74
0.372511 0.428702 -0.013517 124 126 113
0.044105 0.129173 -0.025793 96 100 93
-0.307768 -0.093748 0.336108 89 90 84
-0.115717 -0.140688 -0.015758 73 74 68
0.166182 0.557155 -0.029100 121 119 109
-0.242327 0.493606 0.071298 156 154 142
0.051802 0.483512 0.000064 147 152 142
0.357025 -0.177627 -0.021098 105 106 100
0.084150 0.124531 -0.025457 90 96 98
-0.014855 0.486179 0.001050 145 150 140
0.292051 0.114143 -0.011359 32 39 45
-0.098253 -0.137132 -0.011225 62 59 56
0.165697 -0.057989 -0.023737 22 28 30
0.112322 -0.146239 -0.028289 95 96 92
0.287243 0.180837 0.037231 26 32 34
-0.240065 0.378027 -0.025979 158 163 149
-0.354590 -0.006501 0.237951 48 53 43
-0.163799 -0.289544 -0.041097 112 112 106
0.001101 -0.254625 -0.039364 103 105 96
0.302442 -0.065152 -0.003369 47 59 65
0.031914 -0.213633 -0.038498 78 83 73
-0.028474 0.461089 -0.036816 126 133 125
-0.169358 -0.114021 -0.037902 118 118 112
0.105881 0.165068 0.047628 21 27 27
0.021783 -0.121595 -0.004335 139 150 146
-0.054000 -0.284887 -0.042339 112 112 112
0.007569 0.112331 -0.028678 105 117 109
0.225882 0.512684 -0.025848 108 110 101
-0.219333 -0.188787 -0.043515 118 126 113
0.060397 0.439613 -0.020363 162 166 159
0.092914 0.316937 -0.029166 103 101 91
-0.167930 -0.141236 0.174292 138 140 131
0.299108 0.648317 -0.019161 126 128 115
0.147578 0.388430 -0.028524 109 114 104
0.258488 -0.249182 -0.024424 106 106 100
-0.323487 -0.110043 0.343153 112 140 144
0.293796 -0.205660 -0.022653 104 106 97
0.324401 -0.159576 -0.021821 102 103 97
-0.248688 0.237492 -0.039953 137 138 125
0.013161 0.100511 -0.028240 103 110 104
-0.054636 0.105344 -0.032000 85 93 82
-0.348303 0.045162 0.242739 54 69 68
-0.139766 -0.161598 0.025062 101 113 105
-0.103058 0.104180 -0.032865 98 106 95
0.183268 -0.196689 -0.026716 110 110 104
0.023868 0.045646 -0.029572 98 105 97
0.398847 0.562911 -0.012575 135 129 116
0.271580 0.507652 -0.023995 124 126 110
-0.305601 -0.195522 -0.041522 124 125 121
-0.180332 -0.143841 0.178176 128 136 123
-0.218710 -0.328336 -0.042069 125 126 122
0.045270 0.023741 -0.028767 76 85 78
0.221470 0.038893 -0.018421 23 23 25
0.356604 0.448839 -0.016407 124 126 113
-0.225371 -0.268488 -0.042465 121 118 113
0.320936 -0.087516 0.072233 50 57 63
-0.011181 -0.210432 -0.023964 137 145 142
-0.167394 0.091152 -0.033906 112 114 103
-0.187427 0.422983 -0.046579 100 101 95
0.021069 0.372742 -0.039030 123 135 125
-0.117533 0.395702 -0.047280 102 103 94
-0.111433 -0.236298 -0.038890 121 122 116
-0.321446 -0.249535 -0.044805 132 129 126
-0.012578 -0.063129 0.007795 111 129 123
-0.087433 0.495480 0.008467 149 154 144
-0.287858 -0.180234 -0.042227 128 130 119
-0.095600 -0.154103 -0.003534 82 86 81
-0.101718 -0.028041 -0.035408 91 96 84
0.166743 -0.114834 -0.026012 61 69 66
0.133472 0.459386 -0.032532 56 53 48
0.018502 0.002572 -0.032818 105 106 100
0.289002 -0.170656 -0.022310 69 73 68
-0.075963 0.187244 -0.031839 109 114 102
0.008832 0.395881 -0.034752 126 128 119
-0.160466 -0.256996 -0.041632 42 49 41
0.175113 -0.067021 -0.023430 19 27 26
-0.217808 -0.011227 0.214821 21 25 18
0.226780 0.207120 0.113756 124 142 140
-0.343486 -0.064787 -0.048961 120 121 112
-0.336064 0.065626 0.089973 98 95 79
0.137402 -0.163295 -0.027258 95 104 97
0.312650 0.159140 0.006723 51 56 61
0.006601 0.240302 -0.027902 13 21 10
-0.246584 0.429452 0.006233 162 164 153
0.108375 0.180810 0.073421 22 28 30
0.080148 -0.134639 -0.037205 72 73 69
0.104316 -0.271949 -0.032548 111 112 106
-0.191284 -0.164193 -0.040626 119 120 109
0.124824 -0.127307 -0.027644 66 66 66
0.257245 0.103554 -0.016890 20 23 26
-0.228805 -0.267586 -0.042381 107 112 102
-0.108950 0.490991 -0.012931 141 146 136
0.124227 0.190225 0.051531 12 22 25
-0.074362 0.064041 -0.033328 87 95 84
0.295949 -0.182062 -0.022256 110 111 105
-0.145883 0.430682 -0.047146 101 103 92
0.236117 0.003191 -0.017773 17 25 26
0.109854 0.132606 0.015138 19 26 30
0.259980 0.015143 -0.016965 21 24 27
0.023435 0.129722 -0.026856 103 113 101
0.238021 0.150235 -0.017262 14 17 20
0.253913 -0.057063 -0.018760 16 22 24
0.060409 -0.151598 -0.031790 58 58 54
-0.231857 0.130277 -0.034788 95 96 87
0.186320 0.036903 -0.021044 19 27 28
-0.253659 0.278145 0.069272 162 163 150
0.189105 -0.206517 -0.026999 98 106 95
0.354940 -0.136454 -0.020835 88 90 81
-0.203270 0.175666 -0.035684 117 118 105
0.071533 0.242631 0.079774 116 118 109
-0.199535 -0.116979 -0.040985 107 116 107
-0.342572 -0.204766 -0.045002 131 136 126
-0.068608 -0.099842 -0.033096 121 132 130
-0.033830 0.223690 -0.030617 104 114 102
0.290194 -0.122588 -0.005744 56 64 63
-0.137588 0.099465 -0.033654 103 105 94
0.364901 -0.154088 -0.020738 104 104 98
0.188434 -0.200498 -0.026522 103 105 96
-0.070948 0.038071 -0.033158 79 88 81
0.237418 0.181735 -0.007865 17 17 19
-0.321182 -0.338067 -0.048545 131 138 130
0.160283 -0.039217 -0.023359 23 29 31
0.351038 0.599082 -0.015828 128 126 118
0.001580 -0.240699 -0.039676 78 86 75
0.303953 -0.132316 -0.022245 91 93 84
-0.140343 0.487401 -0.023188 137 139 128
0.183561 -0.215216 -0.027144 109 111 102
0.339753 -0.213070 -0.020957 97 96 96
-0.079792 0.249099 -0.033695 100 110 96
-0.341100 0.011866 0.261026 99 127 131
-0.153829 0.129242 -0.034611 110 115 103
0.271351 0.174040 -0.012392 37 43 45
0.250481 0.096416 -0.017723 15 23 24
-0.097100 -0.294034 -0.041632 99 113 102
0.380386 0.421487 -0.012163 106 100 102
-0.297106 -0.182064 -0.041950 31 24 16
-0.017400 -0.287590 -0.040770 110 110 104
0.045600 0.379921 -0.040847 124 128 123
0.049752 -0.204070 -0.038470 84 86 77
0.331703 0.082502 0.115219 94 106 110
0.222852 -0.074991 -0.019862 21 29 30
-0.110913 0.159678 -0.032720 107 114 106
0.158362 0.138586 -0.018735 16 22 22
0.031827 0.443696 -0.032768 135 140 130
-0.332508 -0.076719 0.352529 120 144 146
0.040548 -0.023012 -0.034473 50 53 52
0.191041 -0.017303 -0.021511 14 27 26
-0.016240 -0.157236 0.013144 45 45 41
0.240846 0.338451 -0.029994 92 100 89
0.237615 0.156534 -0.017116 17 20 21
-0.017275 0.492878 0.031373 151 153 144
-0.163404 0.500202 0.030499 150 151 142
-0.243263 -0.304937 -0.041893 136 137 128
-0.298813 0.257681 -0.045773 61 62 56
0.010035 -0.217080 -0.004755 140 146 144
-0.134376 0.013580 -0.034217 90 99 90
-0.225084 -0.254436 -0.042849 129 131 122
0.314091 0.145654 0.008795 52 62 69
0.342310 -0.188209 -0.020268 110 115 105
-0.202449 0.005557 -0.034034 94 102 89
-0.054011 0.486351 -0.015119 144 146 137
0.219902 0.190102 0.047288 29 35 37
0.316630 0.392138 -0.020326 129 127 117
-0.233639 -0.089618 -0.044885 110 119 110
0.161739 -0.053439 -0.023475 19 27 28
-0.381933 0.002006 0.274970 62 62 56
-0.009083 0.247775 0.020192 126 131 121
-0.031849 0.487490 -0.001667 142 150 139
-0.170685 -0.041779 -0.035462 21 19 11
-0.179061 -0.213262 -0.040572 122 124 113
-0.360520 -0.123003 0.348646 115 136 144
-0.146273 0.252450 -0.035430 108 107 92
0.217096 0.352834 -0.029201 101 103 92
0.263297 0.019595 -0.016938 21 23 29
-0.268338 0.143390 -0.039656 120 124 119
0.175849 -0.248365 -0.027369 105 105 101
0.217339 -0.221749 -0.025617 102 106 99
-0.208293 -0.134758 0.198373 7 6 6
-0.225846 0.500697 0.060990 155 157 141
-0.325372 -0.092917 -0.049491 122 123 110
-0.307100 0.258389 -0.045898 138 140 129
0.093821 0.345700 0.078431 132 139 131
0.012572 0.240648 0.088332 142 149 141
-0.346325 -0.096084 -0.047284 120 121 110
-0.188163 -0.120596 -0.039602 104 111 103
0.196090 -0.073951 -0.022509 22 28 30
0.316516 0.062990 0.022364 43 55 59
0.266276 0.189600 0.106188 39 41 47
0.206000 -0.217506 -0.026412 110 108 100
0.376268 -0.185210 -0.020585 106 110 103
0.208182 -0.189333 -0.025383 98 107 98
-0.207336 -0.087408 0.200212 60 67 59
-0.083493 -0.298881 -0.042503 114 115 111
0.318397 0.179084 0.092031 37 47 50
-0.152623 0.514294 0.073716 149 157 146
-0.144875 -0.017631 -0.035002 89 93 86
0.263854 0.534550 -0.023784 118 119 106
-0.160024 0.487733 -0.019544 139 141 130
0.288039 -0.043121 -0.014256 32 42 47
0.128317 -0.254764 -0.030271 105 106 102
-0.184808 0.371942 -0.047729 107 112 100
0.004096 -0.237147 -0.039734 82 86 79
0.069120 0.099418 -0.027992 88 92 87
0.120053 0.530210 -0.031529 115 117 108
0.099670 -0.205848 -0.032402 107 117 105
-0.241120 -0.228934 -0.042807 126 128 119
-0.092114 -0.186615 -0.025137 124 127 126
-0.253905 0.269297 0.082088 158 160 151
-0.337088 -0.129705 0.324187 81 96 93
0.150932 0.195884 0.099503 38 40 46
0.084270 0.038944 0.100029 58 68 71
0.033500 0.202509 -0.025535 14 14 10
0.079369 -0.009557 0.109165 59 71 77
0.191819 0.631429 -0.026030 128 121 113
0.325760 -0.129751 -0.023105 98 99 88
0.283585 0.166808 -0.014270 38 45 51
-0.104149 -0.195526 -0.018152 113 121 120
0.329106 0.129401 0.105041 55 63 64
-0.059647 0.246969 0.037375 128 136 125
-0.242559 0.015663 -0.030701 96 100 93
0.173490 0.195831 0.078853 29 39 42
0.393887 -0.166573 -0.019746 99 105 103
0.072293 -0.012148 -0.031754 0 3 0
-0.196639 -0.058387 0.208637 1 8 2
0.189540 0.537803 -0.027799 119 120 107
-0.019800 -0.276103 -0.041071 111 112 106
0.079461 0.344457 0.052615 157 162 152
0.068270 -0.157743 -0.034479 57 58 54
0.214728 0.445403 -0.026129 29 27 17
0.167894 -0.047050 -0.022823 19 25 25
-0.217707 0.098828 -0.032188 111 112 101
0.002060 0.205933 -0.027189 122 123 117
0.186795 -0.183477 -0.026416 98 100 91
0.037765 0.643349 -0.032098 128 133 121
-0.050551 0.252209 -0.032253 97 105 92
-0.059661 -0.252899 -0.041096 114 115 109
-0.233001 -0.033446 0.210635 3 7 2
0.208805 0.191822 0.054309 24 34 37
0.253120 -0.212530 -0.024605 91 95 90
0.007270 0.173286 -0.027950 101 109 98
-0.123228 0.068602 -0.033669 91 101 89
0.154487 0.139944 -0.018783 14 20 20
0.306996 0.132011 -0.007745 48 54 65
0.018321 -0.170854 -0.019725 148 154 154
-0.033665 -0.299028 -0.042158 98 108 96
0.186657 -0.165986 -0.025862 96 97 93
0.223577 0.373378 -0.027111 99 92 84
0.249972 0.464117 -0.025312 33 34 30
-0.282443 -0.252890 -0.040424 30 27 22
-0.257035 0.300470 -0.042605 136 141 127
0.009315 0.160608 -0.028485 110 110 104
-0.113431 0.255491 -0.006228 129 131 120
-0.110848 0.187225 -0.032924 103 111 98
-0.107263 0.249109 0.038739 125 138 125
-0.238674 -0.328803 -0.042984 133 134 128
0.164061 -0.137208 -0.026188 93 97 90
0.163439 0.015296 -0.022035 20 26 28
0.056715 0.159523 -0.024512 81 82 76
-0.187400 -0.115106 0.196921 18 21 20
-0.056681 0.495755 0.021585 148 152 145
-0.175655 0.165360 -0.035261 103 96 88
-0.309425 0.273598 -0.046650 128 136 123
-0.173069 -0.032585 -0.035771 97 105 94
-0.107918 0.220680 -0.032936 108 116 105
0.336972 -0.000453 0.116721 67 72 79
0.382499 0.393502 -0.012562 102 103 94
-0.322217 0.194402 -0.043363 132 133 120
-0.184119 0.184636 -0.035861 118 120 109
0.320453 0.163693 0.067327 48 53 60
0.166998 0.544859 -0.028555 108 113 101
-0.290426 -0.143724 -0.044877 119 127 116
0.301647 -0.037035 -0.003613 52 59 63
-0.336036 -0.267530 -0.046394 132 134 125
0.049332 0.032018 -0.027799 86 90 83
-0.222502 -0.075386 0.237611 27 28 24
-0.142234 -0.241536 -0.040430 113 118 108
0.320352 0.057155 0.036698 39 49 54
-0.197154 -0.014765 0.189633 2 2 2
-0.042463 -0.213947 -0.026603 123 131 128
-0.252022 -0.099380 0.266581 22 29 23
-0.329805 -0.175557 -0.044590 119 126 120
0.005723 0.376595 -0.038334 122 129 121
-0.143556 -0.023109 -0.035120 91 96 86
0.019170 0.019702 -0.031477 100 104 97
0.191964 -0.202911 -0.026909 102 106 99
0.352357 -0.223001 -0.020300 102 106 101
-0.057068 0.023104 -0.033692 84 92 81
-0.229783 0.402509 -0.041402 138 143 131
-0.045077 -0.001095 -0.035793 73 73 67
-0.312163 -0.246842 -0.042354 131 135 128
0.048207 -0.112482 -0.039279 57 61 56
-0.241497 0.248543 -0.039388 121 129 118
-0.284079 0.316729 -0.044753 143 144 133
0.319244 0.635394 -0.016943 130 131 120
-0.305321 -0.116725 0.311464 53 57 52
0.282192 -0.090750 -0.010972 46 44 51
0.205369 -0.065523 -0.021228 18 24 26
0.295839 0.104294 -0.010649 34 41 45
-0.118407 -0.097956 0.003265 119 127 124
-0.219753 -0.187265 -0.043286 115 123 110
0.059618 -0.184757 -0.037782 68 77 68
-0.357412 -0.129614 0.325761 75 94 96
0.325900 0.168324 0.118140 57 63 65
0.313267 0.371382 -0.021276 29 33 26
0.384458 0.388609 -0.012330 119 121 110
-0.256117 -0.067284 0.273424 17 21 14
0.394359 0.400122 -0.010883 121 126 114
-0.236641 -0.113578 0.224988 2 5 4
-0.189664 0.484364 -0.023605 146 144 132
-0.220561 -0.154993 0.219202 3 4 0
0.318102 0.054829 0.028327 45 55 60
0.297781 -0.065678 -0.009935 42 49 53
-0.083264 -0.157462 0.004322 36 40 33
-0.346611 -0.105802 0.359888 109 139 144
-0.247731 -0.243042 -0.042065 121 125 120
-0.141525 0.248922 -0.035836 90 91 85
0.240176 0.141692 -0.016464 13 16 19
-0.264785 -0.072606 0.283826 199 208 199
0.150263 0.094438 -0.022095 20 22 28
0.208042 0.588290 -0.025497 128 130 121
-0.275428 0.148374 -0.039213 118 119 108
-0.184319 0.469231 -0.046012 119 117 105
-0.117178 -0.276726 -0.041513 112 114 105
-0.222481 0.000740 -0.032545 98 103 91
-0.167651 -0.319472 -0.041877 112 113 109
0.062916 0.249727 0.082742 140 147 139
-0.008544 0.496585 0.041156 150 152 143
-0.262687 0.252420 -0.041094 40 33 25
-0.181074 0.163926 -0.034872 59 50 43
0.017711 -0.250386 -0.038063 39 45 47
-0.249075 -0.135646 -0.045275 114 122 111
0.288416 -0.229365 -0.022568 109 110 101
-0.168848 -0.315343 -0.041801 108 115 109
0.124424 -0.150760 -0.027816 90 92 83
0.051639 0.242886 -0.027516 107 112 100
-0.117756 -0.124864 -0.013183 85 91 91
-0.204969 -0.209294 -0.043065 59 59 61
-0.215745 -0.017205 0.217094 36 36 36
-0.014357 0.142525 -0.028940 93 100 92
-0.387052 -0.006293 0.277765 43 49 47
0.198025 -0.059825 -0.021178 18 26 27
0.328881 -0.067931 0.108767 80 85 92
0.167417 0.427791 -0.028233 107 109 96
-0.190735 -0.165928 -0.040157 29 20 15
-0.225493 -0.110626 -0.042782 110 111 100
-0.107943 -0.079237 0.001108 120 133 128
-0.059680 -0.017339 -0.036327 72 76 69
-0.188437 -0.264947 -0.042372 133 131 123
-0.069977 0.024371 -0.033495 79 91 81
-0.289684 -0.241471 -0.040984 131 133 124
0.374573 -0.173065 -0.020342 113 110 105
0.320119 -0.111321 0.066510 43 54 63
-0.140817 -0.184770 0.032651 107 115 112
0.118401 0.137266 -0.004679 23 29 29
-0.259820 0.260895 0.092774 164 172 161
0.324036 0.131050 0.043402 40 54 60
-0.138607 0.448464 -0.045953 100 102 93
0.106790 0.402605 -0.031383 108 110 97
-0.349135 -0.083150 0.360201 117 147 152
-0.101721 0.054340 -0.033515 93 97 90
0.324305 0.317826 -0.020200 117 119 108
0.221299 0.013566 -0.017872 20 26 26
-0.341136 -0.084436 0.358647 122 148 150
-0.118772 0.073513 -0.033286 93 103 91
-0.174575 -0.257898 -0.042073 124 128 121
-0.145975 0.017001 -0.033819 98 102 95
0.054187 0.386793 -0.033669 144 148 141
0.268685 0.326099 -0.025041 100 105 95
-0.039505 -0.067946 -0.016627 127 135 132
0.180460 -0.215723 -0.027391 116 111 107
-0.043308 -0.090131 -0.031633 114 129 126
-0.032990 0.503591 0.064176 151 153 142
0.374287 -0.138125 -0.019507 90 91 87
-0.297066 -0.330022 -0.045032 125 126 117
-0.160291 -0.296356 -0.041081 102 106 99
0.014304 -0.184408 -0.020209 147 155 156
-0.341912 -0.273210 -0.046610 131 132 126
0.281095 0.123034 -0.012894 34 41 45
0.297228 -0.049965 -0.009894 34 48 54
-0.288771 -0.067806 0.305208 77 74 69
-0.212673 0.410927 -0.046205 115 116 103
-0.190854 0.510634 0.073283 161 163 154
-0.187812 0.105977 -0.033502 108 114 97
-0.031531 0.122174 -0.030264 27 24 19
0.300892 0.187568 0.111396 30 43 42
-0.191895 -0.185856 -0.041645 119 120 109
-0.394210 0.028188 0.293531 78 76 68
-0.207915 -0.121444 0.175517 15 21 19
-0.246630 -0.216935 -0.043268 119 124 114
0.281199 0.644887 -0.020227 129 131 115
-0.081085 -0.008585 -0.035217 84 89 79
-0.125761 -0.237061 -0.040106 0 2 0
-0.024703 0.236689 0.088193 133 145 135
-0.117796 -0.188717 -0.005127 88 96 95
0.079295 -0.139663 -0.037999 61 62 58
-0.102424 0.509888 0.071119 155 156 145
0.236241 -0.078258 -0.018100 16 22 24
-0.202110 -0.322565 -0.042012 128 129 125
0.263123 0.060448 -0.017129 15 23 24
-0.020120 -0.289512 -0.040940 103 103 105
-0.333568 -0.106588 0.351165 117 146 147
-0.086409 0.171468 -0.032198 103 108 98
0.086694 -0.226764 -0.033016 111 118 112
-0.174478 -0.188238 -0.039298 117 122 112
0.388974 0.455525 -0.012015 64 60 53
-0.345834 -0.129244 0.296774 38 42 37
0.159056 0.079827 -0.022126 15 23 24
-0.183463 -0.265621 -0.042210 124 129 117
0.260743 -0.183409 -0.023523 98 99 93
-0.288206 -0.094949 -0.049233 112 113 107
-0.305532 0.198906 -0.041063 129 134 120
0.200071 0.109359 -0.018943 17 25 24
-0.110526 0.495015 0.003177 139 149 135
-0.336850 0.019348 0.261427 100 126 124
0.010351 -0.285791 -0.040081 33 23 21
-0.036791 0.011474 -0.033904 74 83 74
-0.331591 0.250552 -0.049564 57 50 42
-0.083555 0.176540 -0.032031 107 112 102
0.233943 0.444115 -0.025736 108 110 94
-0.236582 0.452797 -0.024070 165 167 156
0.108687 0.319397 -0.027649 15 13 1
0.081064 0.490708 0.066265 160 167 161
0.170818 0.408816 -0.027235 104 105 94
0.125655 -0.002945 -0.028431 21 26 31
0.032070 -0.035265 -0.036286 70 74 67
0.049723 0.077848 -0.026264 91 94 93
0.177621 0.191621 0.040627 13 21 22
0.290985 0.197748 0.114603 64 66 74
0.028787 0.640221 -0.031343 138 140 124
-0.064060 -0.136506 -0.030322 115 128 123
0.084681 -0.167925 -0.034453 96 103 97
-0.049934 0.005281 -0.034757 82 90 79
-0.172384 0.244238 -0.035605 126 131 121
0.002989 0.516158 0.074442 144 149 139
-0.014638 0.079448 -0.031118 80 92 82
-0.303100 -0.216612 -0.041002 131 133 122
0.006934 -0.292222 -0.040307 35 39 51
-0.183519 -0.161819 0.202962 23 26 25
-0.291786 -0.103874 0.308802 77 77 73
0.262631 -0.058907 -0.018888 21 24 27
0.323240 0.026861 0.072165 47 57 64
-0.139025 0.200729 -0.034566 111 121 107
-0.233279 -0.238599 -0.043027 127 132 122
0.087710 0.313695 0.068360 145 153 140
-0.249305 -0.085617 -0.048837 108 115 107
-0.231496 -0.101743 0.244000 11 14 13
0.092246 -0.140124 -0.033716 94 101 93
-0.124994 -0.049400 -0.036165 102 98 91
0.206528 -0.060146 -0.020684 21 27 27
0.038062 -0.284240 -0.037677 105 109 102
0.057649 -0.162259 -0.037412 62 62 58
0.320916 -0.011542 0.056729 49 56 62
0.259006 -0.031400 -0.017309 14 22 23
0.069366 0.018860 -0.028937 85 85 79
-0.166927 -0.222130 -0.041207 118 119 115
-0.019682 0.498230 0.045179 150 155 145
-0.215295 0.358385 -0.043422 117 119 110
0.242004 0.496304 -0.025659 111 107 96
0.340241 -0.108477 0.106093 65 75 80
0.227313 0.409963 -0.025606 104 105 94
-0.286393 -0.109643 0.294375 58 60 51
0.303883 -0.050686 0.001285 48 48 52
0.168239 -0.144619 -0.026669 95 99 92
-0.248206 0.473149 0.059757 174 167 157
0.177899 -0.191348 -0.026760 20 24 17
0.037420 0.504509 0.047531 148 153 143
-0.020970 -0.247617 -0.040654 92 89 84
0.398820 -0.146676 -0.019217 97 98 92
0.356985 -0.199442 -0.020498 108 109 103
0.148753 0.192369 0.046529 11 21 24
-0.198705 0.405962 -0.046291 110 108 96
0.274671 -0.144240 -0.022303 89 93 88
-0.172334 0.043576 -0.033054 103 108 98
0.394830 -0.049672 -0.018970 88 79 74
-0.203544 -0.154730 0.213462 23 23 25
0.324448 0.102155 0.052950 48 55 63
-0.308495 0.150040 -0.038876 124 125 114
0.325626 -0.033261 0.096981 53 65 69
-0.278435 0.207431 -0.041156 121 126 116
0.151335 -0.053782 -0.023079 18 26 27
-0.078504 0.121877 -0.031999 19 12 4
0.088090 0.134790 0.108270 56 68 72
0.260412 -0.203665 -0.023932 102 106 99
-0.108174 0.402332 -0.045990 102 104 95
-0.067057 -0.058856 -0.002847 122 135 132
0.098846 -0.136217 0.106808 60 70 75
0.307411 -0.011339 0.007988 42 47 54
0.274141 0.044152 -0.015227 38 45 49
0.039130 0.485994 -0.002820 145 149 142
-0.074575 -0.178686 -0.030406 129 140 138
-0.042421 0.120025 -0.030546 67 67 63
0.298453 0.138028 -0.010611 43 45 53
0.009241 -0.280169 -0.039487 97 98 92
-0.360468 0.063157 0.248227 121 145 147
-0.228919 -0.111006 -0.043564 75 68 58
-0.354913 -0.000131 0.263850 68 69 65
0.301321 -0.104536 0.014081 54 59 68
-0.191814 0.243259 0.096772 148 157 148
-0.292159 -0.191407 -0.041263 119 120 116
-0.089088 0.513922 0.075844 154 156 145
-0.248430 -0.250964 -0.042363 45 37 36
-0.386000 0.002560 0.279526 74 74 70
-0.333892 -0.101218 0.353240 119 144 149
-0.054070 0.035427 -0.033058 82 92 78
0.209915 -0.245586 -0.025981 112 115 118
-0.141197 0.497503 0.010403 145 147 138
-0.097517 0.499473 0.022067 148 153 143
0.202598 -0.031895 -0.020917 15 23 24
0.235469 0.190420 0.110337 48 56 57
0.127540 0.317153 -0.029037 96 104 89
-0.074230 -0.120735 -0.031716 120 128 125
-0.080171 -0.210062 -0.025314 118 124 126
-0.055919 0.255060 -0.017573 121 134 121
-0.313342 -0.116364 0.324032 60 64 59
-0.069103 0.486888 -0.016530 143 145 136
0.189622 -0.244466 -0.027312 112 112 108
0.125049 -0.115320 -0.027736 74 75 71
0.280881 0.090652 -0.014019 39 45 47
-0.070585 -0.189203 -0.031101 128 136 135
0.093454 0.169374 0.104149 40 48 49
-0.323051 -0.115104 0.338436 106 132 134
-0.356562 -0.128185 0.332583 82 101 103
0.329883 0.085975 0.111461 66 76 83
0.244497 -0.159308 -0.023132 0 1 0
0.325777 0.541329 -0.017975 75 70 66
0.258236 -0.140436 -0.023359 88 89 83
-0.016977 0.496861 0.041604 148 153 143
-0.291264 -0.165366 -0.042857 114 121 113
0.229099 0.190645 0.059708 32 38 40
0.065285 0.485157 0.019632 161 161 161
-0.181522 0.357214 -0.045354 145 150 140
-0.188034 0.251568 0.014603 136 141 131
0.379328 -0.120786 -0.019587 56 51 49
0.085833 -0.116958 -0.035452 86 90 85
0.037315 -0.055683 -0.038534 64 73 64
0.056061 0.206568 -0.024182 107 114 106
-0.194358 -0.153017 -0.040005 35 19 24
-0.255724 -0.104025 0.265711 7 11 6
-0.322866 -0.064095 0.331755 69 76 70
0.099726 -0.161269 -0.030322 103 105 96
-0.080244 -0.060485 -0.000775 122 135 130
0.333095 -0.132503 0.101168 61 66 73
0.248352 -0.140569 -0.023512 84 91 85
-0.337124 -0.136459 -0.045972 124 126 115
0.003986 0.399867 -0.034400 127 132 120
-0.319047 -0.095710 -0.048639 117 119 110
-0.047823 -0.158038 -0.033056 118 126 125
-0.351952 0.001175 0.232739 54 60 58
0.003892 0.429013 -0.033184 131 136 126
-0.164991 0.081109 -0.034083 18 18 12
-0.239873 -0.110304 0.240237 1 4 3
-0.129951 -0.239404 -0.040016 113 121 110
-0.261077 -0.097643 -0.047523 114 115 109
-0.244216 -0.003160 -0.029592 102 107 97
0.328565 0.057177 0.106148 58 68 73
0.306087 0.178299 0.051704 26 33 41
-0.183710 -0.253493 -0.041393 119 124 112
0.091154 0.326062 -0.025013 91 89 81
-0.069619 -0.062775 -0.007901 122 133 129
-0.352498 -0.119300 0.355976 114 131 136
0.029040 0.220935 -0.026835 112 114 105
0.026701 -0.281732 -0.038224 105 106 97
0.349227 0.545049 -0.015825 117 122 112
0.376955 0.546596 -0.013353 131 132 119
0.317602 0.160248 0.040220 46 56 61
0.245875 0.188368 0.052182 25 35 40
-0.093099 0.494757 -0.000953 145 147 134
0.222048 -0.242085 -0.025231 107 107 107
0.384459 -0.109821 -0.019775 82 83 79
-0.116069 -0.184787 -0.012398 86 94 93
0.147380 0.187985 0.029147 13 19 21
0.376317 -0.227681 -0.020903 108 105 100
0.165079 0.054833 -0.022124 25 28 31
-0.299222 0.177779 -0.039235 114 116 107
-0.321705 -0.063211 0.328798 79 78 63
0.115614 -0.136190 0.111915 61 71 76
0.278481 0.064367 -0.014563 36 43 49
-0.104749 0.121163 -0.032892 55 57 48
0.279276 0.088517 -0.014474 36 46 49
-0.132570 0.135999 -0.034568 112 113 107
0.074955 0.514368 0.074624 145 150 140
-0.068873 -0.152600 -0.030636 119 127 124
0.059034 0.477343 -0.000558 155 155 149
0.230727 0.580822 -0.024572 132 134 123
0.108739 0.109652 0.025900 21 26 31
-0.046998 0.252464 0.084787 141 149 138
-0.294205 -0.110296 0.304617 64 68 61
-0.287340 -0.004401 0.319784 37 29 26
0.313509 0.135453 0.000250 54 61 67
-0.152092 0.429344 -0.047323 102 103 94
-0.024519 0.242796 0.053512 129 134 124
0.214684 0.059285 -0.018630 20 26 28
0.032083 0.245849 0.029195 121 129 116
-0.099440 -0.242699 0.021567 103 110 104
0.305400 -0.223482 -0.021927 103 110 102
-0.136351 -0.060579 -0.037188 105 106 100
0.276562 0.485525 -0.023329 124 126 113
0.374737 -0.174521 -0.020779 110 107 104
-0.218702 0.245614 0.052316 139 142 126
0.391613 0.506159 -0.012261 129 131 120
-0.173953 0.102806 -0.034151 112 114 103
-0.050350 -0.228440 -0.016903 121 130 123
-0.337390 -0.340732 -0.049686 132 132 126
0.160032 -0.018852 -0.023582 20 25 30
0.228249 -0.128702 -0.026014 83 92 85
0.308448 0.138217 -0.007012 54 64 71
-0.140052 0.412320 -0.047062 101 103 94
0.213083 0.331255 -0.032198 96 97 88
0.293877 0.183988 0.055400 26 37 37
-0.132233 0.481459 -0.036184 132 134 123
-0.262059 -0.335891 -0.042017 87 94 86
0.250987 -0.038032 -0.018330 15 21 23
0.019925 -0.219044 -0.038040 81 83 74
-0.051640 0.493805 0.016175 146 154 143
-0.062396 0.394448 -0.040113 128 132 125
0.080082 0.171862 -0.025631 103 111 100
0.122384 -0.118707 -0.029551 78 85 77
-0.166814 -0.094838 0.058606 106 114 103
-0.288431 0.243053 -0.043036 140 142 131
-0.117517 0.258340 -0.034597 94 92 82
0.308831 0.170402 0.011798 38 40 48
0.335349 0.163747 0.128620 70 73 76
-0.346716 -0.109171 0.358829 115 138 145
0.315994 0.305172 -0.018717 104 104 104
0.072807 0.518692 0.072717 146 148 139
0.392667 -0.108423 -0.019324 92 89 86
0.355644 -0.217856 -0.020762 109 110 104
0.067759 0.255968 -0.027441 85 90 80
0.318142 0.006988 0.040306 45 52 60
0.059900 0.454183 -0.014964 157 162 152
0.238277 -0.027651 -0.018591 20 26 28
-0.117280 -0.127383 -0.015629 85 93 90
-0.290947 -0.320407 -0.043697 113 107 109
-0.248911 -0.118451 0.133035 33 40 34
0.076670 -0.096118 0.099993 60 71 80
0.058954 0.171093 -0.024472 100 110 98
0.319295 0.177815 0.094361 43 53 56
-0.025933 0.487913 0.002363 145 150 140
-0.060102 0.227754 -0.031220 25 26 20
-0.102759 0.148061 -0.032864 96 106 94
0.279474 0.084573 -0.014595 36 44 45
-0.186839 -0.135153 0.178914 6 6 6
0.247063 0.480286 -0.025398 106 107 98
-0.095374 -0.024750 -0.035667 10 14 7
-0.146988 0.516705 0.075475 155 157 148
-0.189897 -0.140836 0.183901 13 13 13
-0.315941 -0.278106 -0.045070 123 124 115
-0.044593 0.071900 -0.032569 80 87 79
-0.147389 0.061498 -0.033709 93 101 90
-0.150633 0.254115 -0.035702 117 115 103
-0.179011 -0.122679 -0.038705 103 105 96
-0.027160 -0.056781 0.007097 119 137 133
-0.289040 -0.261772 -0.040938 132 140 129
-0.013675 -0.267674 -0.040224 109 113 106
0.225349 0.143472 -0.017603 20 23 22
-0.134285 -0.210447 0.046437 104 115 113
0.107948 -0.172669 -0.030991 87 94 86
-0.029714 0.112228 -0.031069 0 4 0
0.251015 0.190494 0.070732 25 35 38
-0.122390 -0.231616 -0.040643 114 119 109
0.174875 0.181011 0.000416 11 17 19
-0.162300 -0.215070 -0.040364 111 109 101
-0.293038 -0.090487 -0.048903 109 113 108
-0.238012 -0.192307 -0.043404 119 127 114
0.184976 0.391417 -0.028024 108 110 99
-0.193312 0.005132 -0.033400 103 105 96
-0.040157 0.242684 0.064074 129 134 124
0.158626 0.083680 -0.021828 21 24 27
-0.207205 -0.083779 0.208141 19 26 20
0.108521 0.167214 0.041760 21 27 29
-0.108435 -0.029557 -0.034997 86 95 86
0.097362 0.109583 0.071222 27 35 34
-0.179425 -0.119226 0.186645 0 1 0
0.126128 -0.139465 0.070029 55 63 60
-0.097987 0.036943 -0.033919 84 91 85
0.029906 0.243016 -0.027790 98 102 95
0.074657 -0.023529 0.100008 81 95 101
0.001281 0.478612 -0.016959 141 149 138
0.003076 -0.211371 -0.015248 147 153 153
-0.291106 -0.111182 -0.046502 115 116 107
0.156273 0.071245 -0.022372 18 26 25
0.246066 0.454697 -0.025099 110 111 98
-0.064507 0.239403 0.081691 129 137 124
0.278534 -0.153190 -0.022771 1 1 0
-0.328682 -0.264929 -0.045087 67 64 59
0.235735 -0.017305 -0.018055 22 25 28
-0.393462 0.019764 0.293646 79 77 69
-0.211753 0.245921 0.045126 138 143 133
0.047512 0.244776 -0.028142 62 63 52
0.328955 -0.155719 -0.021014 105 105 101
0.293487 -0.017286 -0.012629 31 41 44
-0.259462 -0.270161 -0.041734 87 84 79
0.253248 0.188040 0.051845 28 33 38
0.282724 0.131939 -0.013268 33 40 44
-0.183333 -0.117692 0.191387 21 17 20
0.130017 -0.182226 -0.028115 101 106 96
0.155718 0.343469 -0.028553 103 104 91
-0.210901 -0.131232 -0.041896 121 125 118
0.148231 0.193043 0.048654 11 22 22
0.195549 0.009387 -0.020114 20 25 30
0.290181 -0.140342 0.105979 67 72 77
0.277309 0.135586 -0.014340 32 40 41
0.290027 0.524511 -0.021780 127 132 122
0.143858 -0.176743 -0.027037 49 46 41
0.137379 0.557257 -0.030340 124 126 113
-0.231955 0.181518 -0.036547 117 125 112
-0.280761 -0.117552 0.267697 74 75 69
-0.222247 -0.090970 -0.040350 112 116 109
0.192599 0.003256 -0.020489 20 28 29
-0.287818 0.299975 -0.044461 140 142 129
0.002715 -0.139142 -0.019283 129 142 139
-0.252715 0.241837 0.095092 173 178 168
-0.195005 0.018609 -0.033083 39 40 29
0.319603 -0.066698 0.057702 48 53 62
0.343649 -0.120021 -0.022350 89 90 81
-0.259646 0.279058 -0.042187 153 154 141
-0.004221 0.126673 -0.027995 96 104 93
0.325828 0.332532 -0.019542 44 39 35
-0.105487 0.248032 0.052741 132 139 131
-0.162084 -0.121876 -0.036703 112 124 116
0.276853 0.322668 -0.024631 51 44 36
0.262600 0.070218 -0.016981 17 20 23
-0.214068 0.238594 0.096072 153 157 150
-0.349004 -0.338430 -0.049597 127 134 126
0.194369 0.191510 0.039713 28 33 38
-0.007597 -0.169420 -0.030920 135 146 144
-0.378503 0.033323 0.273008 71 72 68
-0.239953 -0.090007 0.259663 26 32 30
-0.230596 0.370543 -0.039724 138 140 131
-0.199171 -0.155699 0.214490 19 25 23
0.057976 0.239096 -0.026854 103 108 96
-0.044618 -0.021455 -0.037638 74 75 69
0.298544 0.124973 -0.009630 30 44 50
0.217967 -0.075689 -0.020581 21 27 29
-0.316131 -0.114844 0.331705 65 68 67
0.088138 0.158902 0.111730 59 67 68
0.249219 0.187460 0.041037 26 31 36
0.080698 0.065448 -0.025571 91 97 95
-0.007677 0.009274 -0.033415 91 93 84
0.169188 -0.154400 -0.026397 103 104 95
-0.192921 -0.130079 0.184863 7 13 11
-0.163971 -0.299918 -0.041339 118 120 111
0.108873 0.077425 0.025804 22 32 35
0.121569 0.064003 -0.017881 34 41 45
-0.325201 -0.118652 0.334685 103 129 131
-0.063719 -0.082599 -0.028647 111 124 123
-0.249371 0.124655 -0.035423 110 112 103
0.122861 0.319916 -0.027402 101 106 94
0.018737 -0.039427 -0.037127 0 3 4
-0.159339 -0.072803 -0.036458 105 105 99
0.176155 0.031175 -0.021537 22 25 26
0.084669 -0.062663 0.076862 57 67 70
0.017483 -0.290446 -0.039884 76 75 75
-0.141980 0.493082 -0.005654 144 145 134
0.061382 -0.256861 -0.034637 103 108 98
0.238872 0.189560 0.121876 91 102 98
0.045568 -0.179137 -0.038015 62 64 55
-0.062594 -0.063797 -0.010989 126 134 131
-0.211868 0.475308 -0.041054 140 141 128
0.343752 0.624042 -0.015012 100 95 91
0.204142 0.188409 0.016656 18 18 20
-0.230469 0.491617 0.044277 154 152 142
-0.251715 0.432816 0.040874 169 167 155
-0.181606 -0.115770 0.187961 50 47 44
0.105069 -0.139753 0.107382 56 68 72
-0.301750 -0.257695 -0.041621 132 133 124
-0.090460 0.249102 0.043755 132 140 129
-0.055597 0.494794 0.011310 148 153 143
-0.219221 -0.114463 0.210080 21 24 23
0.321718 -0.238498 -0.022121 104 111 103
-0.327292 -0.121494 0.331972 98 127 135
-0.036138 0.169499 -0.029717 98 107 98
0.012683 -0.240529 -0.038240 84 85 81
0.284930 0.316386 -0.023685 117 125 122
0.147854 -0.140056 -0.026774 88 92 87
-0.076734 0.171220 -0.032073 103 108 96
0.075815 -0.217583 -0.034343 80 84 77
-0.242491 0.177135 -0.036952 115 120 108
-0.117871 0.165379 -0.033392 92 97 87
0.035970 -0.186554 -0.001942 131 137 137
-0.289678 -0.119059 0.251003 65 57 56
0.224281 -0.048187 -0.019494 18 24 26
0.209632 0.194048 0.083879 33 40 44
-0.019229 0.248111 0.026197 127 132 122
-0.346351 -0.122516 -0.049815 118 126 115
0.381038 -0.223893 -0.020815 94 85 88
0.318801 -0.057738 0.050552 42 47 52
0.143349 0.059789 -0.025034 20 28 27
0.256400 0.593904 -0.022088 117 122 112
-0.309233 -0.121623 0.304255 44 47 46
-0.282380 -0.172188 -0.042969 127 125 117
-0.115965 0.398590 -0.047001 102 104 95
-0.258319 -0.086691 0.280169 43 48 38
-0.056433 0.207762 -0.031831 116 117 111
-0.037608 -0.251871 -0.041978 103 111 96
0.261497 -0.065958 -0.019621 21 24 25
0.163009 0.038581 -0.022129 19 27 28
0.322231 0.012975 0.070700 53 58 63
0.120297 -0.265027 -0.030550 108 110 101
0.215256 0.545528 -0.026169 112 109 106
-0.342555 -0.128160 0.293667 29 41 33
0.072505 0.335272 0.019198 148 155 149
0.300129 -0.206120 -0.022370 104 112 101
0.076286 -0.106529 0.102223 57 69 75
-0.286621 -0.300743 -0.041834 123 132 125
-0.220798 -0.115063 -0.042873 118 119 108
-0.374400 0.014635 0.267423 69 70 66
0.244963 -0.049752 -0.019051 17 20 23
-0.247004 0.441019 0.011558 163 164 153
-0.289566 0.177828 -0.039598 132 135 119
-0.347789 -0.172023 -0.044931 102 107 95
-0.229260 0.455858 -0.040481 147 148 137
0.244886 0.064920 -0.017594 15 22 26
0.198055 0.362018 -0.030080 110 108 96
-0.069328 0.172769 -0.031977 104 112 101
0.050716 0.109129 -0.025711 93 97 90
0.263496 0.088454 -0.016835 16 22 22
-0.024656 0.435608 -0.035770 127 128 119
0.060745 0.231995 -0.025910 106 111 99
-0.180630 0.194620 -0.035677 122 127 115
0.115035 -0.271753 -0.031104 110 110 106
0.208069 0.052198 -0.019067 26 26 28
-0.234644 -0.171309 -0.044124 122 127 115
-0.231929 -0.035970 0.212497 8 12 5
0.290027 -0.225989 -0.023157 108 112 107
0.315635 0.337959 -0.019882 117 121 114
-0.285441 -0.167744 -0.042672 111 113 104
0.080739 0.196265 -0.024747 103 108 98
0.182621 0.176501 -0.015141 15 21 21
-0.193187 -0.029492 -0.034528 106 101 97
-0.253652 0.379327 0.055844 158 156 146
0.118080 0.389328 -0.028277 106 111 97
0.323546 0.018059 0.076010 51 61 66
0.228765 0.192610 0.073081 28 34 36
0.088009 0.078134 0.098340 58 68 71
-0.200153 -0.219866 -0.042572 118 126 115
0.279759 -0.244212 -0.022920 78 77 77
0.351549 -0.151814 -0.020150 92 99 91
-0.274722 -0.335124 -0.042735 38 29 24
0.057252 -0.231669 -0.034876 96 103 95
0.098727 -0.175562 -0.032736 108 115 109
0.328199 0.089663 0.089572 57 62 69
0.241295 0.584878 -0.022931 82 81 81
0.256161 0.091265 -0.017340 16 22 24
-0.174896 0.154055 -0.035099 113 114 103
