ply
format ascii 1.0
element vertex 1226
property float x
property float y
property float z
property uchar red
property uchar green
property uchar blue
end_header
0.388234 0.423315 0.019927 100 97 94
-0.133122 0.460103 0.098052 167 171 166
0.028736 -0.181179 0.034076 128 142 144
0.019640 -0.238579 0.002656 98 107 100
-0.098367 -0.284279 0.004187 120 127 119
-0.113427 -0.090989 0.016459 127 145 143
0.099694 0.261189 0.023738 107 114 106
-0.052167 0.180204 -0.003248 109 121 111
-0.031292 0.022700 0.004632 76 93 79
0.299386 0.325203 -0.004240 136 140 133
-0.138445 -0.206956 0.029004 116 130 132
-0.435734 -0.115220 0.269905 115 134 134
-0.140798 0.239285 0.068946 137 152 147
-0.304650 0.503815 0.026984 155 153 143
0.036781 -0.069686 0.010091 71 84 79
-0.383943 -0.000872 0.305994 90 98 95
0.132741 -0.087835 0.025598 24 36 40
0.308666 -0.007683 0.051842 53 69 79
-0.228744 0.342849 0.023932 148 155 149
0.270522 0.162134 0.029294 31 45 49
-0.038085 0.339502 0.011763 125 138 133
-0.295370 -0.174738 0.000491 70 73 74
-0.201074 0.090168 0.005371 38 46 47
-0.158699 -0.124346 0.147387 43 56 55
0.035638 0.063909 0.014868 98 113 110
-0.089602 -0.270925 0.000746 128 134 132
-0.188953 -0.214519 0.009564 103 116 111
-0.136217 0.245136 0.022155 135 147 139
-0.113747 -0.246224 0.028045 131 139 136
0.148927 0.382978 0.009140 60 64 59
-0.171876 0.423063 0.040978 150 157 151
-0.310312 -0.261693 -0.002937 144 148 141
0.311145 0.123783 0.099882 65 78 89
-0.028957 0.421750 0.035993 152 163 159
-0.165709 0.237174 0.074911 139 155 146
-0.384626 -0.118684 0.332784 104 115 115
0.179998 -0.192064 0.007239 115 119 112
-0.341115 -0.133959 0.317098 51 63 55
-0.203667 0.236989 0.026192 143 155 147
-0.211926 -0.153051 0.222852 27 35 34
0.050552 0.329745 0.056330 160 171 169
0.031122 -0.281859 0.007142 121 125 120
-0.147478 0.043860 0.010863 98 114 103
-0.150906 -0.019844 0.004272 93 111 105
0.209647 0.110723 0.013394 19 31 33
-0.122927 -0.182370 0.017761 114 127 126
0.306696 0.003696 0.052665 55 68 77
-0.336347 -0.042421 0.000122 119 131 121
0.157498 0.288132 0.013806 114 116 107
-0.247307 0.316553 0.038699 165 171 169
-0.255688 -0.237048 0.005824 67 70 69
0.053263 -0.248274 0.010225 124 131 123
0.096961 -0.178961 0.010751 112 118 118
-0.102048 0.451800 0.081913 164 168 163
-0.327571 -0.292410 -0.001223 150 152 143
0.125339 0.039487 0.019536 27 37 40
-0.328685 -0.114800 0.367234 122 161 168
-0.302617 -0.280815 -0.004979 150 151 145
0.028423 0.089510 0.010009 94 110 101
-0.283022 -0.083072 0.330460 86 98 90
-0.305406 0.214446 0.004802 147 155 142
0.074793 0.152636 0.003324 109 125 114
0.045152 0.415733 0.101710 172 178 176
0.112443 0.404080 0.041001 119 127 116
0.117899 0.084431 0.021468 19 33 37
0.347650 -0.165937 0.008074 125 126 120
-0.109023 -0.182593 0.011469 125 142 143
-0.400710 -0.098238 0.312008 93 97 92
0.235286 0.008085 0.003929 27 37 40
-0.301793 -0.124567 0.328213 62 74 66
0.151685 0.114619 0.013401 19 31 33
-0.260861 0.391214 0.111657 170 183 180
0.377753 -0.223887 0.019552 133 128 124
-0.348546 -0.131653 0.341113 92 125 129
0.327075 -0.133969 0.092939 88 95 101
0.053102 -0.041405 0.011627 76 88 80
0.157127 0.180242 0.125780 58 76 85
-0.347749 -0.137027 0.314359 56 63 55
0.016009 -0.200113 0.020451 157 174 175
0.159679 -0.298170 0.006865 132 134 125
-0.042835 0.174814 0.002258 114 128 117
-0.336172 0.305459 -0.002339 168 166 154
-0.237443 0.402651 0.084607 174 175 171
-0.268101 -0.074336 0.309611 130 144 135
0.084961 -0.294252 0.015189 124 134 122
-0.106141 0.386654 0.006213 122 129 123
-0.226249 -0.124725 0.235593 11 19 18
-0.092958 0.006138 -0.004999 90 106 95
0.037842 0.388597 0.042503 166 177 177
0.340313 -0.247171 0.019684 134 131 126
0.119570 0.371808 0.022888 57 63 61
-0.042659 0.074367 0.005159 89 103 92
0.390655 -0.104533 0.015931 106 106 100
0.211865 0.311378 0.006459 116 125 116
-0.304148 -0.108266 0.344556 89 107 105
0.216227 0.174021 0.071758 34 48 54
-0.053513 0.417659 0.024495 144 155 151
0.264617 0.275251 0.016665 141 153 155
0.041964 -0.269102 0.007902 117 124 118
0.200340 -0.268661 0.013042 133 134 130
0.141423 0.409399 0.015689 115 120 108
0.118218 -0.041734 0.023435 24 36 40
0.273856 0.478075 0.020890 147 148 139
-0.035606 -0.245971 0.007425 114 122 123
0.033404 -0.007148 -0.000626 80 95 90
0.182454 0.255507 0.054570 110 117 111
0.072403 0.250042 0.080598 142 155 152
0.204348 -0.227528 0.013557 126 127 121
-0.047364 0.422198 0.080871 161 170 163
-0.013761 -0.246119 0.008037 99 107 104
-0.109794 -0.105472 0.009829 123 142 142
0.169279 0.041625 0.010865 27 37 40
-0.275896 -0.130606 -0.004841 133 142 135
-0.416903 0.007313 0.334158 217 218 214
-0.038641 0.200231 0.009808 86 98 90
-0.155770 0.179446 0.004206 106 121 107
0.059328 0.249244 0.030161 86 92 90
0.262786 0.363010 0.006703 137 141 134
-0.121387 0.539278 0.055826 150 152 143
-0.075383 0.079740 0.011054 101 115 106
0.304337 -0.173711 0.010829 124 126 115
-0.274527 -0.273314 -0.001715 149 156 150
-0.342482 -0.000060 0.285594 35 42 46
0.299262 -0.057497 0.066981 56 68 74
0.051639 -0.095142 0.007531 67 80 75
-0.002992 0.030107 0.006756 101 116 111
-0.305371 -0.163017 -0.004296 139 148 141
-0.300118 -0.087480 0.356566 90 103 100
0.042685 0.222334 0.009390 43 55 57
0.149093 0.457136 0.010564 114 118 111
0.168693 0.205849 0.107164 137 156 160
-0.352798 -0.117269 0.366436 138 174 182
-0.266895 -0.234876 0.012004 141 148 142
0.061845 -0.008281 0.007457 86 98 90
-0.264248 -0.227658 0.008825 142 149 143
0.273828 -0.193381 0.012860 130 130 124
0.240463 0.406800 0.014255 123 128 118
-0.139922 0.046305 0.005616 95 111 100
0.004175 -0.292617 0.004604 87 89 95
0.309022 0.144078 0.090504 56 69 80
0.293553 0.158196 0.040316 53 65 71
-0.106043 0.058876 0.010317 57 75 69
-0.449950 -0.037977 0.337424 63 66 65
0.069919 0.401405 0.126710 168 174 172
-0.322248 -0.118493 -0.002853 133 140 134
0.206111 -0.146426 0.105440 138 157 159
-0.031882 0.011871 0.006194 83 97 86
0.306702 -0.071028 0.126020 79 92 101
0.040287 0.329868 0.029584 154 167 164
0.041022 0.099540 0.007347 95 110 105
-0.259763 -0.273109 -0.003366 142 149 141
0.282667 -0.129477 0.089232 77 91 97
-0.002484 -0.080192 0.029357 111 131 128
0.141238 0.134609 0.016865 20 30 33
-0.033349 -0.115045 0.005548 122 144 143
0.367718 0.222490 0.054904 129 133 126
0.050095 0.402753 0.090304 175 181 179
-0.329686 -0.111901 0.369656 127 166 173
-0.176144 -0.043337 0.190075 26 34 31
0.055822 0.292130 0.057742 156 169 166
0.177047 0.416942 0.013690 112 116 111
0.316820 0.372207 0.009358 124 126 117
0.084508 -0.226174 0.015970 127 134 126
-0.300097 -0.101607 0.342265 93 106 103
-0.224901 0.428919 0.069639 166 167 161
-0.217268 0.178799 -0.003529 128 138 122
-0.406920 -0.110992 0.288220 91 95 90
-0.423553 -0.083635 0.276161 70 74 69
-0.027932 0.450277 0.102273 166 170 165
0.383687 0.405831 0.018267 145 144 144
-0.265406 -0.122050 0.274240 81 97 88
0.005910 -0.078928 0.020275 75 93 91
-0.295528 -0.216867 0.005150 99 107 106
0.283486 -0.141955 0.055861 116 111 107
-0.046423 0.341446 0.012409 132 145 140
0.180642 0.299380 0.008729 105 113 102
0.134699 -0.177889 0.013529 110 122 114
0.068750 0.174111 0.013133 106 120 109
-0.275850 -0.211349 0.002814 139 146 138
0.277311 0.069125 0.024827 49 65 73
0.037433 -0.001352 -0.000009 82 100 94
0.037784 0.477230 0.094799 163 170 164
-0.406620 -0.007658 0.325302 250 254 249
0.327354 -0.134280 0.088389 84 94 101
-0.321334 0.212747 0.003515 143 151 138
0.387309 -0.282306 0.025758 138 134 135
-0.159319 0.422264 0.057550 151 158 152
-0.335598 -0.056972 -0.002215 57 63 61
0.078417 -0.297184 0.013620 123 127 120
-0.248238 0.311646 0.051835 165 171 169
-0.183624 -0.146442 0.000594 117 131 122
-0.333654 0.480121 0.006222 162 158 147
0.340289 0.270876 0.028021 83 83 79
0.213598 -0.148335 0.008780 106 115 108
0.298024 -0.284155 0.006666 129 131 118
0.141957 0.175984 0.118911 38 56 63
0.382172 0.192444 0.044677 116 117 111
0.097637 0.253733 0.031238 106 113 105
0.218273 0.331240 0.007078 80 88 77
-0.071934 0.129963 0.005852 42 58 47
-0.031781 0.330019 0.007545 134 147 142
-0.249141 0.311697 0.038588 164 170 168
-0.235901 -0.147147 0.003051 129 141 133
-0.397590 0.007518 0.310578 112 113 109
0.361828 -0.298152 0.026415 143 140 137
-0.129321 -0.083175 0.015188 127 145 141
-0.209719 0.407713 0.023825 136 143 137
-0.381487 0.108824 0.004020 120 133 130
0.129794 -0.274541 0.010313 59 59 55
0.297867 -0.054297 0.058496 56 67 76
-0.229828 0.283265 0.044714 154 163 156
-0.038136 -0.092417 0.026968 127 149 148
0.377435 0.493005 0.015619 151 147 138
0.258597 -0.227895 0.015076 125 121 122
-0.494764 -0.014219 0.360330 54 50 51
0.086941 -0.127688 0.005617 106 115 106
-0.239782 -0.075315 0.283554 33 44 42
0.119630 0.362307 0.018467 68 81 68
0.279151 -0.144803 0.015778 113 117 110
0.378364 0.161120 0.044320 102 106 101
-0.112525 0.415729 0.078036 154 163 156
0.117977 0.248146 0.046927 91 102 102
-0.068074 0.040631 0.000799 86 102 91
0.054998 -0.212541 0.007052 90 101 97
-0.141720 -0.119694 0.014352 118 137 137
-0.233861 -0.111078 0.269296 19 27 24
-0.039665 0.277427 0.029162 141 156 151
0.004356 0.165817 0.002851 111 124 119
-0.271819 -0.094338 0.019896 115 127 119
0.277031 -0.039617 0.019438 50 63 72
0.228041 -0.287279 0.007445 92 92 86
-0.071590 0.426176 0.045552 153 162 155
0.389383 0.138382 0.021940 92 100 97
0.030747 0.540512 0.049003 121 129 118
0.350114 -0.110740 0.074676 54 53 62
0.135007 0.172606 0.100570 36 50 56
0.241701 -0.253944 0.012354 117 126 119
0.349322 0.458306 0.022866 96 96 96
-0.079432 0.424218 0.071984 160 167 161
-0.322859 0.491879 0.012032 82 79 74
-0.252086 0.239781 0.013845 147 157 145
0.076000 -0.198309 0.019850 111 122 118
0.266806 0.133915 0.016041 45 58 67
-0.475487 0.003235 0.369056 190 196 196
0.247577 -0.141409 0.016374 98 105 99
-0.108866 -0.295101 0.014271 122 133 129
-0.055820 -0.173374 0.016315 138 157 159
0.182807 0.179011 0.118283 42 58 68
0.285464 0.151494 0.032530 53 65 71
0.238949 -0.012867 0.000910 29 41 43
0.091843 -0.011966 0.040885 60 81 87
0.281309 -0.040710 0.022373 59 73 79
0.141515 0.362595 0.004937 119 123 118
-0.076130 0.210337 0.007827 110 124 113
-0.136473 -0.087620 0.017309 130 148 144
0.102371 0.212955 0.078611 64 82 91
-0.452486 -0.015154 0.360108 168 168 168
0.072622 0.299656 0.111427 154 165 165
-0.073035 -0.274373 0.001864 129 136 130
0.240089 0.418473 0.013057 117 122 112
-0.254895 0.294941 0.111164 170 176 174
-0.056608 0.046521 0.001692 86 100 89
-0.191983 0.227412 0.012166 119 128 119
-0.028551 0.260699 0.032756 134 148 139
0.128891 -0.129133 0.064738 64 82 89
0.228237 0.295306 0.008315 106 113 105
-0.169305 -0.152867 0.017912 123 137 128
-0.023762 0.167593 0.007215 113 127 116
-0.104313 0.346041 0.001709 123 134 130
0.304447 -0.100791 0.102162 66 77 88
-0.063839 0.082271 0.010385 94 108 97
-0.045440 -0.251654 0.002265 85 92 86
0.142660 0.158208 0.037827 16 26 29
0.193192 -0.146049 0.115145 141 160 162
0.304937 -0.048303 0.100129 62 75 84
-0.290812 -0.124229 0.317678 63 72 65
-0.285944 -0.230752 0.007812 151 152 148
-0.058249 0.222887 0.014227 103 115 107
-0.225475 -0.088482 0.265731 62 29 28
-0.168235 -0.102471 0.011612 109 125 116
0.228393 -0.245329 0.010433 119 119 115
-0.338321 -0.133195 0.318644 51 62 58
-0.493058 -0.002123 0.377049 183 178 174
0.053193 0.328373 0.064601 160 171 169
-0.175922 -0.296820 0.004760 131 139 128
0.072187 0.051908 0.113045 92 111 113
-0.232437 0.420227 0.076393 168 169 165
-0.055724 -0.222568 0.015486 130 144 146
0.341440 0.124465 0.084591 84 93 103
-0.001598 0.020008 0.006512 102 116 107
0.156437 0.395757 0.009806 62 64 55
0.175828 -0.207855 0.008585 119 123 116
-0.342721 -0.097220 0.372774 94 123 133
0.256694 -0.288280 0.002354 110 112 120
0.207808 0.133357 0.016149 22 33 33
-0.073877 0.129976 0.005798 66 82 71
-0.216535 0.263110 0.063332 157 170 165
-0.083380 -0.052041 0.002422 124 144 139
-0.230112 0.239662 0.049786 146 158 150
0.218521 0.080427 0.009498 29 41 43
0.009066 -0.225067 0.010824 96 107 105
0.272920 -0.095260 0.020992 49 65 73
0.303766 -0.086305 0.060331 54 65 74
-0.011234 -0.187921 0.012036 138 157 159
0.055391 -0.196146 0.002558 86 95 88
0.246784 0.308396 0.000642 107 118 114
-0.231933 0.260281 0.063742 160 174 165
-0.052939 -0.103646 0.010244 120 142 141
0.271545 0.534648 0.008533 152 150 142
-0.051807 -0.284307 0.003418 124 131 125
0.137826 0.028961 0.001783 26 38 42
-0.339864 -0.126927 0.349101 102 138 144
0.383700 -0.162496 0.008592 122 122 116
-0.152200 0.240356 0.032674 136 150 141
-0.284336 -0.080706 0.331520 86 98 88
-0.024641 0.420413 0.077437 159 168 161
0.368641 -0.198711 0.013333 133 133 127
0.026598 -0.250964 0.007039 42 49 55
-0.207506 0.190558 0.000042 123 135 125
0.389630 -0.101896 0.019333 102 106 99
-0.102358 -0.199522 0.010416 125 142 145
0.055405 0.358721 0.088730 167 178 176
0.297686 0.022880 0.031521 61 73 79
-0.264108 0.546925 0.045007 154 155 142
0.312073 -0.014041 0.110785 70 83 92
0.267260 0.454794 0.025295 80 84 79
0.187030 0.235862 0.073154 139 154 153
0.314107 0.076923 0.075952 60 76 84
-0.177829 -0.285243 0.001262 133 140 134
-0.177717 0.193962 0.002555 119 131 121
-0.400068 0.007019 0.311372 218 219 206
0.167066 -0.161535 0.004496 110 116 114
0.119282 0.127731 0.025117 22 32 35
-0.155641 -0.134825 0.016806 118 138 135
0.150289 0.342331 0.004605 101 108 102
0.028403 -0.199529 0.017798 38 48 51
-0.211204 0.115213 0.006784 110 124 113
-0.260154 -0.107893 0.303065 158 173 168
0.057320 0.426717 0.118238 177 184 178
0.307381 -0.041392 0.105630 66 79 90
-0.080976 -0.038648 -0.002302 82 96 87
0.089902 -0.297262 0.013942 128 133 123
0.300100 0.139490 0.046158 49 65 73
-0.341156 0.196617 -0.004612 174 172 162
-0.279911 -0.134533 0.280115 61 69 66
0.204500 0.077907 0.010095 25 37 39
0.145054 0.173248 0.082422 29 41 45
0.340514 -0.279149 0.004803 142 135 129
0.172913 0.121257 0.009429 21 33 35
0.265132 0.204521 0.087481 59 72 81
-0.478900 0.014256 0.368563 73 75 85
-0.169369 -0.013236 0.002360 35 43 44
0.241997 0.535047 0.001177 145 143 133
-0.153669 -0.175597 0.032094 118 133 132
0.231961 0.399102 0.010406 122 124 115
-0.236189 0.370489 0.053121 173 176 175
0.146689 0.502882 -0.000215 129 130 117
0.088060 -0.174442 0.013681 107 120 115
-0.104289 -0.121003 0.000564 118 140 139
0.179591 0.100348 0.012041 23 33 36
-0.240293 -0.061338 0.270182 59 67 66
-0.327060 0.403541 0.003880 146 147 143
0.306488 0.146387 0.068327 50 66 76
-0.333848 0.542549 -0.000033 166 160 147
-0.009425 -0.047671 0.012279 90 102 94
0.294227 -0.126555 0.090953 62 71 81
-0.377854 0.414867 -0.004568 199 149 155
-0.191946 0.113337 0.006510 108 122 111
-0.159490 -0.297062 0.006263 134 134 130
0.361276 -0.243348 0.016599 134 132 124
-0.192806 0.152808 0.002789 116 128 118
0.368053 -0.247985 0.014652 139 136 131
-0.233415 -0.056686 0.253803 35 43 40
-0.350568 -0.131603 0.337763 88 121 123
0.244624 0.476208 0.022420 145 143 135
-0.233886 -0.246153 0.001161 142 151 144
0.322173 0.206496 0.099006 85 97 103
-0.357784 0.267381 -0.000877 165 115 121
0.175624 0.175976 0.089059 32 49 54
0.178138 -0.100259 0.030057 28 40 44
-0.443043 -0.050574 0.316326 165 166 160
0.244244 0.535031 0.001240 146 144 134
0.059151 -0.124395 0.012906 22 28 28
0.016387 -0.257161 0.004939 121 129 126
0.213094 -0.291706 0.004918 82 88 86
-0.059898 0.423461 0.026997 148 156 153
0.254956 0.076704 0.008900 44 58 64
0.195122 -0.216078 0.015289 112 113 107
0.042432 0.210358 0.006014 109 121 111
-0.192687 0.241379 0.068304 142 156 147
0.308149 0.121658 0.077832 54 70 80
-0.045461 -0.182786 0.012256 140 159 161
-0.347410 -0.115940 0.369430 134 170 180
0.038910 0.113353 0.001573 101 115 106
0.197759 0.531089 0.004577 137 138 129
-0.124074 -0.087704 0.017656 127 145 143
0.342837 0.434728 0.018309 147 147 141
0.259425 -0.006238 0.004634 41 55 59
0.196623 -0.139703 0.010063 102 106 99
0.395962 -0.096468 0.019850 97 104 98
0.236265 -0.099165 0.021343 34 44 49
0.356214 -0.297441 0.021053 142 140 132
-0.132436 0.020100 0.004684 87 103 92
0.069335 0.090001 0.018134 103 117 108
-0.249968 -0.176250 0.006719 111 124 119
0.211738 -0.130200 0.091099 132 149 152
-0.189466 0.084848 0.007670 107 121 110
-0.021162 -0.219851 0.010103 157 171 175
-0.014887 0.327326 0.004611 135 148 143
-0.148813 0.416753 0.033242 141 150 143
-0.175336 0.239538 0.071298 143 157 148
0.390938 0.237082 0.029316 131 132 126
-0.218920 0.167328 -0.003403 127 136 127
-0.128412 -0.237142 0.022988 33 46 45
0.245497 -0.291650 0.003747 119 119 115
-0.173671 0.369992 0.012905 112 119 113
-0.258403 -0.116701 0.279156 111 126 123
-0.480613 -0.003764 0.365638 77 72 84
0.156249 -0.130061 0.038674 59 69 72
-0.017730 0.501631 0.082359 165 169 162
-0.472884 -0.019800 0.347378 121 124 125
-0.236753 0.271478 0.054459 165 177 169
-0.026685 0.246896 0.028595 132 146 137
0.093659 0.259402 0.022718 107 114 106
-0.282571 -0.188510 -0.000004 140 147 141
0.159500 0.249231 0.056450 108 115 107
-0.135942 0.149035 -0.001609 23 38 35
0.305843 -0.065936 0.094156 65 76 85
-0.258285 -0.150949 0.003893 56 63 57
0.095392 0.176710 0.096832 33 44 53
0.133762 -0.172449 0.012722 50 50 52
-0.218980 0.235119 0.035879 145 159 150
0.045710 0.038282 0.012079 92 108 99
0.323432 -0.220441 0.019464 132 133 122
-0.093157 0.243082 0.040197 137 151 142
-0.119948 0.410224 0.050965 149 158 151
0.378233 0.343911 0.010237 133 134 128
-0.104989 0.120442 0.002596 29 40 36
0.293436 0.318473 -0.002041 100 104 97
-0.111619 -0.083935 0.017592 127 145 143
0.263467 -0.248807 0.011010 136 136 138
-0.278020 -0.125114 0.288973 84 100 89
0.194643 0.012929 0.015952 34 44 47
0.165190 -0.261545 0.009742 130 134 127
-0.235304 -0.207902 0.002372 136 143 137
-0.070132 0.208486 0.007152 96 104 101
-0.037881 -0.098178 0.022087 127 149 148
-0.004699 -0.271811 0.005186 126 133 127
-0.198142 0.243161 0.078895 151 164 159
0.019364 -0.167591 0.034592 163 182 182
-0.310360 -0.254109 0.000592 135 139 134
-0.188039 0.226656 0.009730 119 128 119
0.135854 -0.128957 0.016482 88 100 92
-0.357232 -0.123748 0.359971 133 172 179
0.146741 0.469169 0.006162 120 124 119
-0.300153 -0.258894 -0.000214 142 149 141
-0.270070 -0.100269 0.311822 31 42 42
-0.033210 -0.091807 0.030716 132 154 153
-0.171895 0.408769 0.023288 127 134 128
-0.113013 0.097933 0.004006 106 121 107
0.181905 0.439766 0.012329 121 123 114
-0.135076 -0.232583 0.024903 131 140 133
0.198658 0.342004 0.005960 114 119 109
0.101191 0.149014 0.037772 59 73 79
-0.151597 -0.239645 0.010065 131 138 132
0.196178 0.506415 0.009593 98 99 93
0.170255 -0.217040 0.011860 117 126 119
0.099019 -0.162591 0.008504 105 112 106
0.106116 -0.181685 0.007561 118 125 119
-0.237513 0.255054 0.064445 160 172 164
0.293658 -0.142024 0.056146 117 109 106
-0.177423 0.544111 0.049709 153 154 145
0.349759 0.389308 0.015035 82 78 79
0.309206 0.142017 0.093965 58 71 82
-0.113845 -0.243609 0.031467 132 140 137
0.305237 -0.131777 0.128591 90 101 112
-0.081749 0.466969 0.091815 165 169 164
-0.286808 0.349778 0.083834 114 115 111
0.290124 -0.110624 0.057412 53 64 73
-0.324100 -0.104438 0.371097 126 165 170
-0.156159 -0.057615 0.011905 82 96 87
-0.390709 0.015114 0.308811 97 98 94
-0.382881 -0.139259 0.280224 55 73 67
0.232366 0.139270 0.021874 26 36 39
-0.240002 0.225194 0.007430 139 151 141
-0.010730 0.070686 0.008854 90 101 97
0.015617 0.109986 -0.000720 40 51 49
0.197920 -0.232869 0.015284 130 131 125
0.392983 0.306377 0.009775 133 134 123
-0.338729 0.230377 0.001249 165 163 153
0.034438 -0.203104 0.010804 84 91 85
0.271331 -0.292100 0.006549 111 119 116
-0.451639 -0.004058 0.364197 202 198 199
0.398911 -0.122224 0.013469 109 109 103
0.055886 -0.103476 0.010404 74 82 79
-0.251675 0.399554 0.108102 174 177 176
0.284723 0.140675 0.024160 93 107 111
-0.293522 0.405403 0.065381 146 147 141
0.173175 -0.184347 0.003997 112 119 111
-0.230554 -0.241603 0.003383 142 149 143
-0.031302 0.424395 0.084601 161 167 165
-0.085846 0.466997 0.091700 165 169 164
0.254847 0.094088 0.016989 40 54 58
-0.083549 -0.056357 0.003718 126 146 143
0.314045 0.086824 0.080559 65 76 85
0.058748 -0.060987 0.012618 60 71 67
-0.083723 -0.254517 0.019603 76 90 81
-0.273020 -0.156078 0.009874 131 140 133
0.182995 -0.268064 0.009469 136 136 130
0.022197 -0.158082 0.031383 52 64 66
-0.412511 0.003084 0.333429 251 255 250
-0.191541 -0.264174 0.000712 40 51 47
0.197089 0.426556 0.015480 117 125 114
-0.128103 -0.253825 0.006403 51 62 58
-0.228060 -0.079582 0.273105 51 34 36
-0.270998 -0.207873 0.002377 140 147 141
0.350326 0.317047 0.004585 113 112 114
-0.335588 0.358971 -0.002789 155 153 143
0.161271 -0.019757 0.007420 29 39 42
-0.265057 0.254517 0.009266 95 106 104
0.099499 0.303709 0.032492 113 120 112
0.236085 0.099127 0.011026 24 34 37
-0.272552 -0.224752 0.011023 147 156 149
-0.100313 -0.162713 0.015478 178 182 196
-0.025918 -0.170538 0.011946 141 160 160
-0.162721 0.072567 0.007200 113 123 111
0.066864 0.384629 0.114391 173 181 178
-0.185131 0.439888 0.121229 172 173 169
-0.018425 0.237099 0.022084 130 144 135
-0.401990 -0.126973 0.288658 66 75 68
0.243522 0.066352 0.003724 31 41 44
0.280251 0.190377 0.092403 42 56 62
-0.038045 0.092197 0.003672 91 106 103
-0.029243 -0.171836 0.010135 141 160 160
0.328261 0.013135 0.105182 86 95 107
0.127104 -0.214076 0.014102 45 44 46
-0.043333 -0.278046 0.004390 128 132 127
-0.349632 -0.008498 0.294685 47 55 52
-0.235080 -0.027746 0.230809 62 74 66
-0.195627 0.197688 0.003732 127 136 127
-0.315163 -0.125723 0.337190 66 77 77
0.006764 -0.198714 0.014193 154 171 172
0.336381 0.432817 0.017218 148 149 140
-0.309635 -0.075494 0.007627 124 133 124
-0.334840 -0.131269 0.324063 57 70 69
0.031816 0.002070 0.001409 75 93 87
0.126957 -0.000266 0.003286 23 37 41
-0.311502 -0.110007 0.351241 116 155 164
0.118128 0.230462 0.066286 70 83 92
-0.090123 0.214052 0.009120 104 118 107
-0.185310 -0.241180 0.000576 136 142 140
0.305212 -0.196737 0.020000 131 132 126
-0.044802 0.518987 0.060904 165 169 164
-0.276946 -0.077112 0.321285 80 92 84
-0.089918 0.419004 0.074747 160 167 161
-0.459619 -0.021930 0.343490 120 127 121
-0.392929 0.014084 0.310470 98 99 95
-0.272529 -0.068761 0.026263 107 123 112
-0.290100 -0.057806 0.016470 118 127 118
0.391547 0.287568 0.015319 140 137 132
0.311451 -0.244906 0.016529 134 132 124
-0.051430 0.383111 0.011786 135 146 142
-0.030536 0.258902 0.031857 135 149 140
-0.282186 0.069363 0.020745 125 134 125
-0.162937 -0.282485 0.004114 134 141 135
-0.106068 0.035021 0.003624 93 107 96
0.193695 0.120180 0.011782 19 31 33
0.292168 -0.062761 0.051067 52 63 72
0.266795 0.135681 0.016862 45 58 67
0.138305 0.179302 0.120342 42 60 67
0.138635 -0.294071 0.012532 126 127 123
0.374788 0.132973 0.035519 86 93 97
0.257901 0.037605 0.011756 41 58 61
0.057816 0.246124 0.013213 97 106 99
-0.331747 0.517777 0.005052 162 159 145
-0.152974 0.413052 0.028079 134 143 136
-0.017195 0.005933 0.006094 95 109 98
-0.335275 -0.113818 0.370796 124 165 173
-0.320796 0.420841 0.012130 142 146 139
0.309833 -0.006690 0.085446 63 76 85
0.339427 -0.065095 0.092283 85 98 107
-0.281426 0.466170 0.074185 80 75 73
-0.133946 0.195214 0.001192 98 106 103
0.018168 0.437920 0.070369 160 166 164
0.070746 -0.069968 0.022053 88 100 92
0.399656 -0.115933 0.010903 108 109 105
0.265463 0.102343 0.017853 38 52 58
-0.025880 -0.288194 0.007934 121 129 128
-0.183515 -0.249193 -0.000891 137 140 139
0.282011 0.420119 0.018440 115 115 111
0.300113 -0.279474 0.007807 138 136 128
-0.016430 0.237085 0.022140 130 144 135
0.213694 0.085265 0.008289 26 38 40
-0.309890 -0.124932 0.332205 65 76 72
-0.128287 -0.196115 0.025540 109 122 119
-0.439011 -0.046792 0.269658 145 146 140
0.143935 -0.251933 0.011347 46 54 55
-0.440959 -0.100103 0.269055 105 124 128
-0.020765 0.255892 0.032967 135 149 140
-0.139182 0.446948 0.095049 166 170 165
-0.018199 0.024309 0.005790 87 101 92
0.296687 -0.064669 0.061355 54 65 74
0.152493 -0.035699 0.012967 27 37 40
0.055013 -0.199715 0.003092 86 95 88
0.198392 0.007846 0.013703 31 43 45
-0.084563 0.420864 0.051503 152 160 157
0.065313 0.221963 0.006612 95 109 100
0.062868 0.395346 0.119256 175 181 179
-0.223733 0.198665 -0.002207 131 140 131
-0.245442 -0.283714 0.003178 148 152 145
-0.306071 0.241960 0.013176 146 153 145
-0.037164 -0.107570 0.011116 123 145 144
0.221636 0.466571 0.013907 57 63 61
0.373546 -0.144634 0.015488 117 117 111
0.160455 0.033946 0.004809 26 38 40
-0.071643 -0.177592 0.019376 138 157 159
0.351717 -0.156728 0.006970 118 119 115
0.308617 0.144343 0.071856 52 68 78
0.079689 0.034760 0.020327 95 109 100
0.215618 0.356335 0.004332 119 120 114
-0.090527 0.318781 0.011518 135 150 145
-0.497275 0.007815 0.387062 164 160 163
0.128781 0.097417 0.021232 21 33 35
0.182418 0.172778 0.062401 33 45 49
0.081850 0.221203 0.015602 118 125 119
0.289342 0.175398 0.102265 38 54 62
-0.499351 0.006117 0.387310 163 160 155
-0.282822 -0.114888 0.315654 73 86 81
-0.233561 -0.260366 -0.002135 140 147 141
0.300495 0.033757 0.038879 49 65 73
0.000367 0.276308 0.048648 141 154 149
0.397200 0.133033 0.019693 99 105 103
0.263490 0.310179 0.001992 120 129 120
0.036592 0.051094 0.015553 97 111 102
-0.285039 0.194688 -0.000451 140 148 137
-0.304023 -0.297443 0.000478 133 140 134
0.309720 -0.237259 0.020035 134 134 128
-0.040167 0.339516 0.011705 127 140 135
-0.272554 0.256444 0.103726 164 168 161
0.051249 -0.259254 0.007258 121 128 122
0.013388 -0.047050 0.005554 78 92 83
-0.231680 0.282095 0.046318 157 166 159
-0.070455 0.419693 0.024914 145 156 152
-0.199614 0.435470 0.097754 171 172 168
-0.233185 -0.128807 0.001742 118 132 123
-0.225540 -0.149862 -0.000097 114 125 121
-0.333660 0.301818 -0.000646 166 167 158
-0.176450 -0.266112 0.002487 138 145 139
0.189749 0.439675 0.015841 101 102 96
0.130909 0.366506 0.006427 113 120 112
-0.046074 -0.066674 0.027671 131 154 150
0.150165 0.040148 0.018410 26 36 39
0.309415 0.362695 0.008009 141 142 133
-0.080123 -0.164629 0.022939 120 142 141
-0.045746 -0.236757 0.011398 139 153 157
-0.100407 0.015459 -0.003099 90 110 103
0.397899 0.048905 0.007034 92 98 96
-0.124993 0.014190 0.004372 97 113 102
-0.375256 -0.114047 0.356201 137 171 177
0.015606 0.111749 0.000100 112 123 119
0.148421 -0.136684 0.005552 96 109 104
0.196417 -0.285556 0.007261 54 54 50
0.005535 0.235126 0.021913 128 142 133
-0.329616 0.369716 0.000192 144 144 138
-0.183444 -0.015231 0.166517 33 40 46
-0.027680 0.422088 0.045018 151 162 158
0.309768 -0.244895 0.016481 135 132 127
-0.031810 -0.114033 0.008274 123 145 144
-0.141796 -0.076314 0.016889 105 117 107
0.147417 -0.068494 0.018507 24 36 38
-0.146867 -0.188823 0.030563 118 135 136
-0.394926 -0.119710 0.298881 85 92 86
-0.001352 -0.169820 0.022977 148 167 169
-0.466847 0.004898 0.368996 179 178 178
-0.057045 -0.054337 0.014313 125 148 144
0.002521 0.115443 -0.003002 114 128 117
0.113931 -0.155333 0.007934 103 111 108
-0.236035 0.325632 0.030035 162 169 163
-0.341647 -0.106729 0.372794 128 169 175
-0.303690 -0.251121 0.002191 146 153 147
0.036859 0.420936 0.063045 160 168 165
0.021120 -0.124067 0.041668 147 169 168
-0.321250 -0.117197 0.360832 119 158 165
0.294812 0.141467 0.034775 56 72 80
0.294926 0.106530 0.035066 48 66 75
0.047512 -0.261081 0.008498 118 125 119
0.273992 -0.160669 0.008231 118 125 119
0.182623 0.449613 0.013624 116 121 111
0.109441 0.371746 0.042407 125 127 118
0.301507 0.162249 0.088798 52 65 74
0.305711 0.007774 0.052326 56 69 78
0.319727 -0.099245 0.117704 78 94 104
-0.100443 0.036686 0.004575 95 107 97
0.004237 0.090168 0.004045 109 125 116
0.349425 -0.252154 0.019855 61 61 63
0.147706 0.274017 0.023482 88 88 82
0.339108 -0.245458 0.019341 135 130 126
0.092215 0.186075 0.088954 43 56 67
-0.015732 -0.264880 0.002552 122 129 123
0.155098 -0.145555 0.124119 138 162 164
0.067600 -0.279096 0.009565 115 118 119
-0.285592 0.482379 0.059532 112 110 102
-0.010599 -0.106878 0.026611 140 162 161
-0.352741 -0.102262 0.369010 135 171 179
0.015413 0.240521 0.069975 141 154 149
-0.367225 -0.089019 0.361483 134 170 178
-0.283095 -0.274463 -0.004724 150 154 149
0.257519 0.200467 0.079839 43 59 67
0.209171 0.046724 0.000137 27 37 40
-0.134795 -0.247358 0.006999 121 133 125
0.038071 -0.271059 0.010180 121 127 125
0.083463 0.340128 0.090880 140 159 159
0.365807 0.267724 0.029556 135 137 128
0.184679 -0.020649 0.009941 29 41 43
0.352128 -0.074922 0.074862 69 76 80
-0.087648 0.364958 0.011035 135 148 143
0.298715 0.310963 -0.002062 129 134 122
0.071932 -0.284074 0.010693 136 140 135
-0.346772 0.019816 0.288093 129 166 169
0.067676 -0.232181 0.012649 130 134 129
-0.003473 -0.296497 0.010284 116 125 118
-0.055940 0.064081 -0.000044 80 96 85
0.196314 -0.011617 0.012302 28 40 42
0.029833 -0.057515 0.013333 50 61 59
0.164380 0.157278 0.043588 17 29 31
0.024344 0.003812 0.001987 61 74 69
-0.289158 -0.099776 0.332424 90 101 97
0.324388 -0.267181 0.012079 80 77 74
0.041886 0.418371 0.084077 167 173 171
-0.185979 -0.146543 0.199103 19 32 31
-0.299057 0.249980 0.008301 147 155 144
-0.078363 -0.172404 0.019375 137 156 158
0.341277 0.292353 0.018187 132 132 126
-0.363615 0.015795 0.300041 92 100 97
-0.041464 -0.088568 0.026449 127 149 148
0.251283 -0.054599 0.007247 46 58 62
0.306379 -0.093113 0.124556 74 87 96
-0.121882 0.411699 0.046073 148 157 148
-0.212541 0.333933 0.012562 120 129 120
-0.148303 -0.232455 0.015723 126 138 130
-0.230612 0.427619 0.114099 169 170 164
-0.232569 -0.145053 0.001922 125 137 129
-0.167582 -0.152879 0.017960 122 136 127
0.300051 0.006313 0.032709 57 69 75
0.051146 0.010257 0.001409 87 101 92
0.114385 0.311085 0.012113 114 118 111
0.199735 -0.284069 0.008057 131 133 124
0.301368 -0.192919 0.018347 132 132 126
-0.256039 -0.228849 0.006320 62 66 61
-0.207438 -0.217873 0.009634 125 137 129
0.271620 -0.047838 0.015442 42 56 62
-0.236285 -0.269045 0.001464 142 149 143
0.199225 0.173945 0.116436 39 55 63
0.272669 -0.069966 0.012897 47 61 67
0.027541 0.151170 0.001168 105 120 117
0.093572 -0.251592 0.009937 47 53 55
-0.011686 0.438161 0.078379 164 167 166
0.033445 0.235673 0.063866 138 147 140
-0.112883 -0.060499 0.009704 105 120 115
0.005546 0.233316 0.021070 127 141 132
-0.186192 -0.281893 0.000354 138 144 142
0.294422 0.387788 0.019224 143 144 138
-0.044046 0.083942 0.002952 86 100 89
-0.361967 0.493937 -0.003678 174 118 122
-0.005948 0.153182 0.001062 104 120 111
-0.162755 -0.123465 0.008631 47 62 59
0.128121 -0.273020 0.010969 133 137 130
-0.287537 -0.083617 0.334479 86 98 90
0.046873 0.403274 0.071687 171 179 178
-0.271920 0.295057 0.110687 141 140 144
0.209357 -0.215261 0.019424 113 120 112
-0.061812 0.415190 0.020880 139 150 146
0.304788 -0.068436 0.123857 72 85 94
-0.359449 0.260738 -0.001815 172 122 128
0.369648 0.403986 0.020281 151 146 142
0.105800 0.027828 0.017913 42 54 60
0.197553 0.439575 0.019348 121 123 114
0.117642 0.345221 0.010451 110 118 107
-0.132818 -0.069549 0.013697 36 47 45
0.192774 0.014627 0.016685 33 45 47
0.023067 -0.216869 0.011767 87 93 91
0.127883 -0.168275 0.010068 116 124 121
-0.320402 -0.252524 0.001017 82 83 79
-0.045717 -0.241330 0.009270 140 154 156
0.067125 0.077052 0.014244 105 121 112
0.196227 -0.144897 0.111362 141 160 162
0.189999 -0.057241 0.014038 26 38 40
-0.437693 -0.044765 0.275057 154 155 149
-0.005559 -0.118608 0.023515 142 164 163
-0.264035 -0.113484 -0.000914 121 133 125
-0.446672 0.001601 0.362573 240 240 236
0.286650 -0.255944 0.013927 121 128 120
0.331254 -0.255591 0.021000 129 130 124
-0.473682 0.011861 0.367611 254 255 244
0.270024 -0.280787 0.006258 131 131 125
0.005521 -0.294396 0.006025 109 112 113
-0.115421 -0.241735 0.030083 134 142 139
0.019793 0.253313 0.071653 145 160 157
-0.294486 -0.228977 0.007269 148 155 149
-0.024948 -0.089964 0.036246 138 160 159
0.353146 0.542332 0.011343 134 133 133
0.126227 -0.280701 0.008438 130 132 123
-0.087347 0.045117 0.008908 95 112 98
-0.003767 -0.255502 0.005083 116 125 118
-0.273620 -0.091965 0.318888 86 100 91
-0.346075 -0.272830 -0.003719 167 169 158
0.024100 0.414062 0.014204 142 153 151
0.149594 0.390662 0.009428 116 120 113
-0.050749 -0.008075 0.000734 80 96 85
0.371979 0.450239 0.023127 149 146 143
0.039597 0.260203 0.072167 155 170 167
0.045517 0.106579 0.006350 63 76 73
0.015240 0.350941 0.007716 137 148 146
0.205473 0.170717 0.047815 33 45 49
0.050424 0.242067 0.081717 145 160 159
0.364273 -0.037859 0.060494 91 97 95
0.138775 0.351184 0.002850 114 118 111
-0.135272 0.463853 0.105248 169 173 168
0.067158 0.071882 0.011838 100 119 109
-0.250819 -0.125493 0.002735 122 134 126
0.120342 0.029987 0.003922 23 35 39
0.309247 0.013381 0.100290 62 78 86
-0.124849 0.480267 0.096662 169 173 168
0.120652 0.135850 0.022318 22 32 35
-0.279626 -0.186048 -0.003181 138 145 139
-0.364525 -0.098003 0.362902 132 171 176
0.180727 0.488272 0.010596 129 131 120
-0.134679 -0.103306 0.014477 123 142 142
-0.354956 0.497780 0.001640 159 110 111
-0.170957 0.124407 0.002386 123 132 123
-0.057995 -0.249926 0.011507 143 154 152
-0.394899 -0.024722 0.294549 68 74 72
-0.139932 -0.058681 0.009707 94 106 96
-0.206821 0.263044 0.063604 156 169 164
0.067563 0.363456 0.101245 167 178 176
0.335369 -0.229756 0.015499 132 132 126
-0.010887 -0.104316 0.030002 145 167 166
-0.292428 -0.113292 -0.001709 44 55 51
0.264736 0.441613 0.027908 148 149 140
0.127366 -0.133401 0.013046 34 33 35
0.142899 0.173633 0.099087 36 49 58
-0.151784 -0.208604 0.021200 131 143 135
-0.399102 0.018966 0.310343 106 104 96
0.012691 0.477078 0.097257 164 168 163
0.380659 0.444301 0.020633 87 84 79
0.309069 0.041761 0.113496 67 80 89
0.184571 0.121179 0.009756 21 33 35
0.272977 -0.106850 0.039876 63 76 85
0.351319 -0.258757 0.020151 55 54 54
0.280207 -0.028444 0.025842 59 73 79
0.041695 -0.210480 0.005390 28 36 37
-0.058940 0.035516 0.003116 85 99 88
0.391035 0.394169 0.016377 146 143 138
-0.439253 -0.046642 0.325999 163 158 154
-0.039946 0.039621 0.003412 25 32 26
-0.125452 0.416226 0.021586 128 136 133
0.061066 0.042409 0.012272 93 109 100
-0.327824 -0.139438 0.317168 79 87 86
-0.116093 -0.190380 0.015348 123 140 141
-0.049952 0.079629 0.002967 90 106 95
0.062813 0.384310 0.103081 173 181 178
-0.262577 -0.226145 0.009582 142 149 143
0.048110 -0.198105 0.003626 84 96 88
0.058547 0.394920 0.084714 174 182 181
-0.439026 -0.040404 0.325600 58 61 60
0.236639 0.039389 0.007510 29 39 42
0.179932 -0.149160 0.119904 139 158 162
0.031662 -0.022958 0.004098 75 93 87
-0.068464 0.112605 0.005603 95 111 102
-0.138306 -0.162171 0.020064 98 116 114
-0.304307 -0.070670 0.010039 119 131 123
0.024810 0.272649 0.057638 143 158 157
0.294005 0.340660 0.006099 131 135 128
0.046677 -0.237383 0.013987 114 121 115
0.146362 0.294833 0.011061 111 119 106
-0.418468 -0.050283 0.286329 143 147 140
0.207477 0.537218 0.004423 143 141 131
0.262366 0.001436 0.010505 43 55 59
0.202980 -0.224243 0.013940 125 126 120
-0.108652 0.478349 0.101791 167 171 166
0.217064 -0.005767 0.007947 31 41 46
0.241972 0.539122 0.003073 145 143 133
0.045491 -0.208528 0.004210 85 93 92
0.292123 -0.255809 0.013057 103 112 105
-0.140127 -0.191917 0.029332 111 129 127
0.128302 -0.130006 0.032311 67 82 79
-0.200222 -0.028274 0.211786 9 15 15
-0.142911 0.537939 0.056738 150 152 141
-0.224342 -0.111938 0.249330 19 25 23
0.082048 -0.135883 0.097654 73 87 89
-0.153465 -0.208593 0.021153 133 145 137
-0.362173 -0.008843 0.300754 89 97 94
-0.071392 0.249428 0.041622 136 150 141
-0.256554 -0.149381 0.004677 133 140 134
-0.092139 0.464875 0.093827 165 169 164
0.352431 -0.123721 0.059878 105 108 109
-0.150276 -0.178680 0.030765 116 133 134
0.212432 0.314442 0.005696 113 120 112
0.299884 0.062750 0.063392 50 66 74
0.193184 0.323810 0.002837 114 118 111
-0.225466 -0.103281 0.257739 22 28 26
0.060007 -0.252888 0.008288 127 134 128
0.153962 0.166077 0.058395 19 31 33
0.081992 0.303897 0.093830 146 154 151
0.000019 -0.275172 0.005976 129 135 133
-0.406334 -0.004491 0.327888 181 181 181
0.382043 -0.243305 0.016163 134 129 125
-0.097113 -0.073692 0.015088 127 146 146
0.231416 -0.050760 0.001793 31 41 44
0.020397 0.441871 0.086624 162 169 163
-0.265660 -0.104417 0.005463 116 132 121
0.271835 0.147022 0.024506 43 57 63
-0.197939 -0.281378 -0.003083 140 147 141
0.136246 -0.147812 0.006613 103 112 105
0.063383 -0.255956 0.006964 128 135 127
-0.205708 -0.216559 0.011403 129 142 137
-0.042216 -0.228768 0.013020 142 156 160
-0.283797 -0.074722 0.016516 120 129 120
-0.313714 -0.121715 0.346825 119 149 154
0.125573 0.002199 0.002183 23 37 41
0.391845 0.498990 0.015544 149 147 139
0.137326 0.139913 0.019212 21 33 37
0.056247 -0.073740 0.011017 65 78 73
-0.042166 0.029477 0.003035 89 103 94
0.281538 0.053694 0.022189 70 80 87
-0.335648 -0.073370 0.001184 126 135 126
0.384051 0.058966 0.030045 88 88 88
0.310020 -0.079496 0.129906 88 101 110
0.285380 0.367380 0.011648 89 90 86
-0.143130 0.504375 0.079729 174 175 171
0.250162 -0.016326 -0.000351 41 51 56
-0.386327 -0.106149 0.341878 124 145 151
0.344652 -0.207872 0.016045 134 134 128
-0.119822 -0.257422 0.008298 117 128 124
-0.162150 -0.171730 0.030320 128 142 133
0.033045 -0.126220 0.031105 64 82 76
-0.419598 -0.014354 0.341643 219 222 221
-0.425193 -0.021839 0.328052 125 133 132
-0.010893 -0.176307 0.014143 140 159 159
-0.233167 0.233735 0.027068 158 165 157
-0.079429 0.422092 0.034579 148 156 153
0.296660 0.153675 0.040516 54 66 72
0.222872 0.424434 0.015295 112 112 112
0.267168 0.422089 0.025516 145 147 138
-0.306634 -0.111586 -0.001358 123 135 127
-0.490959 -0.002975 0.368994 73 76 75
-0.226874 0.426838 0.109438 168 169 163
0.346062 0.448455 0.021489 144 146 137
0.266600 -0.027171 0.007251 40 52 58
0.263814 0.503860 0.013822 133 134 130
0.295835 -0.290895 0.008977 102 87 88
-0.350972 0.468407 0.000229 138 93 96
0.072344 -0.240234 0.011253 128 135 129
0.147129 -0.193019 0.019011 120 123 122
0.355438 0.527894 0.011314 100 101 97
-0.010397 -0.203456 0.012554 155 172 175
0.399387 -0.143485 0.017931 121 122 116
-0.496024 -0.006191 0.373959 184 187 186
0.307317 -0.000578 0.039659 52 68 76
0.260794 0.418264 0.023536 109 118 111
0.313815 -0.286064 0.008477 134 135 126
-0.172744 0.115884 0.006087 112 124 114
-0.248514 -0.289957 0.002382 148 153 143
-0.247423 0.341979 0.109018 168 174 174
-0.258256 -0.296000 0.000369 139 146 140
-0.337901 -0.086095 0.372586 129 168 175
-0.251356 0.354247 0.114607 169 177 176
-0.131758 -0.232606 0.024996 123 131 128
-0.022845 -0.190267 0.007271 139 158 160
0.143861 -0.029947 0.013169 29 39 42
-0.109881 0.299662 0.027394 117 130 125
0.143763 0.035034 0.011416 28 40 42
0.236990 -0.264373 0.016181 131 128 123
0.298865 -0.063812 0.073960 57 69 75
0.311803 -0.026774 0.101538 67 80 91
-0.038589 0.025246 0.003383 39 50 46
0.144751 -0.271624 0.012138 132 134 125
-0.265131 0.189145 -0.002411 81 90 83
-0.120236 0.174613 0.005270 108 125 109
-0.124122 0.173855 0.002590 106 123 109
0.139270 0.516940 0.009409 141 142 131
-0.100288 0.337282 0.003274 127 142 139
-0.232729 -0.182607 0.004297 132 141 134
-0.016684 -0.230080 0.010999 152 166 170
0.006352 0.035147 0.009393 106 120 111
-0.018801 0.285011 0.025619 143 158 153
-0.287215 0.526984 0.041624 142 143 137
-0.323546 -0.281253 -0.001421 148 148 142
0.244524 0.071115 0.002662 31 41 44
0.308921 0.131032 0.080014 58 69 78
-0.078380 -0.193043 0.011973 138 155 156
0.206707 0.174525 0.084938 33 50 55
0.208274 0.037865 0.005916 27 37 40
0.168247 0.024645 0.007342 28 40 42
0.226448 0.155143 0.029080 25 37 39
0.150694 0.170373 0.065811 21 33 37
0.356300 0.146736 0.072248 92 104 110
0.050040 -0.220333 0.012098 104 115 111
0.208955 0.528985 0.003946 140 141 130
0.366839 0.033310 0.045152 87 99 105
0.081097 -0.149823 0.007269 104 110 108
0.123764 -0.195509 0.014917 109 118 111
-0.057494 0.089248 0.005003 92 107 93
0.097914 -0.287535 0.012099 53 56 55
-0.416526 -0.103747 0.281362 85 89 84
0.083013 0.246876 0.008831 99 109 97
0.241606 0.066365 0.003670 29 39 42
0.036055 0.234058 0.045540 129 141 133
0.276828 0.185144 0.032478 36 50 54
-0.190967 0.435966 0.122532 172 173 169
0.051296 0.312067 0.056951 159 172 169
0.085814 -0.240325 0.011630 133 140 134
0.321275 -0.160422 0.014233 113 112 112
-0.232767 -0.111196 0.265965 19 27 24
-0.223614 0.384181 0.026782 147 151 146
-0.318774 -0.195189 0.006793 135 143 140
-0.300470 -0.154630 -0.002445 140 147 141
0.006303 0.334665 0.005377 135 146 142
0.373602 -0.282362 0.026408 140 137 134
0.275695 -0.152730 0.011980 117 121 116
0.035141 0.079875 0.012354 95 111 102
0.342459 -0.243957 0.020144 134 131 126
0.347593 0.395117 0.017672 92 92 86
0.301215 -0.223457 0.026195 133 133 127
0.051572 -0.270993 0.009527 120 127 121
-0.449562 -0.040845 0.337204 59 62 61
-0.260680 0.269346 0.095757 179 186 180
-0.287637 -0.132090 0.292047 81 93 85
0.303776 -0.084988 0.056531 54 65 74
-0.257742 -0.196478 0.004784 42 50 47
0.150175 -0.128342 0.067976 64 80 88
0.240400 0.363089 0.002732 119 121 112
-0.119753 0.519838 0.070000 165 169 162
0.266523 -0.010222 0.009621 42 54 60
0.254420 0.414438 0.021556 142 142 142
0.067261 0.411685 0.123688 174 177 176
0.266247 -0.277879 0.008598 130 130 126
-0.111299 0.087829 0.007079 102 118 107
-0.261535 -0.118112 0.286126 104 119 116
0.059223 0.244878 0.087714 148 163 162
0.060456 0.212054 0.007365 108 120 110
-0.243954 0.321154 0.061912 167 173 171
-0.267597 0.301488 0.120437 174 182 179
0.054345 -0.091839 0.132745 85 99 90
0.256311 0.011483 0.010580 45 57 61
-0.114276 0.179165 0.005368 105 122 108
0.329869 0.359401 0.009320 140 141 135
-0.295224 -0.176546 0.000757 115 121 119
-0.300978 -0.102448 0.344053 94 107 104
0.024032 -0.102968 0.031718 27 34 40
-0.217381 -0.022919 0.231400 17 27 32
0.129770 0.514889 0.011469 140 138 130
-0.269131 -0.108628 0.304650 123 136 131
-0.159629 -0.282507 0.004206 113 117 112
-0.067780 0.054721 0.001851 87 104 90
-0.029290 0.175006 0.006080 113 127 116
-0.236039 0.107479 0.004616 118 127 118
-0.097242 -0.113003 0.004507 121 143 142
-0.123649 0.319083 0.013936 111 120 113
0.034382 -0.106655 0.020393 77 85 84
0.140168 -0.153923 0.009408 104 113 106
-0.168457 -0.234023 0.006640 135 142 136
-0.159233 -0.123774 0.009700 137 152 149
-0.155157 0.417966 0.053472 150 157 151
-0.202400 0.348851 0.016513 117 124 116
-0.378602 -0.140850 0.280720 81 100 90
-0.066030 0.388952 0.010740 137 145 142
0.312130 0.032840 0.079644 62 78 86
0.297219 0.524412 0.001257 144 144 138
0.227030 0.549530 0.004142 83 79 82
0.252561 0.122481 0.012480 36 50 56
0.105952 -0.247826 0.016490 126 134 131
0.251508 0.179603 0.041248 33 47 53
-0.258485 -0.260527 -0.000779 160 167 159
-0.212461 -0.060877 0.242573 29 37 36
0.337719 0.020166 0.094404 85 96 105
0.112282 -0.193424 0.013323 117 124 118
0.050439 0.456752 0.111040 166 170 165
-0.307111 -0.238964 0.007744 153 154 150
-0.316784 0.505788 0.015386 154 152 144
-0.172860 -0.024483 0.005843 94 110 101
0.350240 -0.273746 0.012036 138 135 130
-0.038136 0.229268 0.015617 107 118 116
0.138687 -0.052650 0.016784 27 37 40
0.171298 -0.058199 0.021837 29 41 43
0.304755 0.104681 0.074237 57 70 81
-0.251697 0.403126 0.109764 178 179 175
0.304815 0.004990 0.071968 59 72 81
-0.224178 -0.230206 0.004474 55 58 59
-0.027399 0.450172 0.096723 163 170 164
0.364139 0.480984 0.016230 154 150 143
0.084954 -0.085674 0.067048 64 80 88
0.187633 -0.002418 0.014107 31 43 45
0.244458 -0.221039 0.014517 125 127 118
0.073193 -0.108605 0.038350 92 106 95
0.200501 -0.107280 0.040727 31 43 49
-0.194529 0.541724 0.054685 152 154 145
0.114271 0.020689 0.001611 22 36 42
-0.375744 -0.021853 0.295378 63 71 68
0.238239 0.368885 0.005362 119 121 112
0.088952 0.196304 0.051682 78 94 102
-0.050551 0.335810 0.009656 133 144 140
0.107291 0.086929 0.045474 17 31 37
-0.202125 -0.134216 0.203235 39 50 46
0.085448 -0.180080 0.015389 121 133 125
-0.325067 -0.096006 0.370578 129 170 176
-0.326156 -0.130945 0.323381 54 65 63
0.286621 0.220082 0.071118 75 87 93
-0.151475 0.455234 0.113973 170 174 167
-0.211743 0.415275 0.030593 155 162 156
0.082907 -0.239934 0.009514 131 138 132
0.087813 0.203719 0.050685 83 101 108
0.379862 -0.248065 0.014983 138 136 128
-0.217638 0.389254 0.023813 128 135 129
0.245032 0.099905 0.013874 29 41 45
0.068967 -0.192033 0.014828 113 122 115
0.163177 0.124848 0.010797 19 31 33
0.199036 0.165831 0.040925 22 34 38
-0.472003 -0.032673 0.343620 65 68 69
0.011813 -0.297696 0.006892 119 123 118
-0.210521 0.431427 0.124223 172 173 169
0.217267 -0.195464 0.014541 117 121 114
-0.242717 0.417932 0.104798 180 181 177
-0.353687 -0.103802 0.369368 135 171 179
0.294957 0.070458 0.060206 49 65 73
-0.037626 -0.103962 0.017195 124 146 145
0.293844 -0.012797 0.035758 57 68 77
0.184340 0.367386 0.006295 117 121 114
0.012918 -0.170123 0.031006 163 182 182
-0.133396 -0.213051 0.026324 114 128 130
0.257857 -0.089792 0.009826 41 55 61
-0.411698 -0.052124 0.290097 71 77 77
-0.343135 -0.104075 0.372880 131 170 177
0.230223 -0.096586 0.019045 31 41 44
-0.246535 -0.084443 0.293440 28 45 50
-0.195594 0.249134 0.039822 139 153 144
0.070514 0.340468 0.108291 158 171 168
-0.292017 0.143959 0.001095 134 143 136
-0.140001 -0.107673 0.016691 122 141 141
0.158274 -0.081599 0.012745 26 38 40
0.309191 0.406965 0.021991 145 145 139
0.339617 0.442619 0.018571 150 151 142
-0.326046 0.348287 0.001362 73 77 72
-0.283365 0.194418 -0.003835 138 147 138
-0.047139 0.258633 0.038939 137 151 142
-0.088929 0.072477 0.012768 100 116 105
-0.378202 0.104956 -0.000989 105 116 112
-0.069733 -0.067992 0.009767 129 148 148
-0.377273 -0.140859 0.280757 80 100 93
0.174019 0.070698 0.020134 28 40 44
-0.337139 -0.044199 0.311559 130 164 161
-0.222802 0.235810 0.038289 146 160 151
-0.000888 0.452787 0.080007 161 168 162
-0.216802 -0.143981 0.218095 26 32 34
0.154530 0.336580 0.002060 102 103 99
-0.468405 -0.024758 0.343003 99 103 98
-0.227022 0.422869 0.064550 164 168 163
0.263539 -0.145073 0.101238 71 84 93
-0.032140 -0.284727 0.006043 131 135 130
0.017995 -0.120339 0.041099 146 166 163
0.141151 0.535417 0.008138 140 142 133
0.352980 -0.257253 0.020903 130 129 129
-0.165660 -0.163777 0.026188 128 140 132
-0.183659 0.077026 0.006417 109 124 110
-0.305350 -0.117397 0.340268 76 89 84
0.136356 -0.080778 0.021272 25 37 41
-0.427380 0.018503 0.331316 169 169 165
-0.481524 0.009073 0.369379 53 63 66
-0.261688 -0.217096 0.006098 138 146 143
-0.336110 -0.269879 -0.002035 157 155 143
-0.191860 -0.001314 -0.002723 102 118 107
0.310207 -0.031423 0.094910 64 77 88
-0.231492 -0.164197 0.007389 128 140 132
-0.221802 -0.094630 0.255260 25 31 29
-0.263618 0.296775 0.120574 178 185 179
0.380267 0.355360 0.015630 89 89 83
0.112622 -0.145266 0.010373 114 123 116
0.063278 -0.004015 0.011695 88 100 92
0.124667 -0.043647 0.018331 26 39 38
0.200737 0.320081 0.004647 113 120 112
-0.208227 -0.145334 0.217732 24 32 31
0.177355 0.177396 0.117361 43 59 69
-0.060291 -0.091348 0.017947 118 140 139
0.254176 0.306595 0.003344 75 78 77
-0.225452 0.370962 0.023881 143 150 144
0.124777 0.402393 0.020737 119 123 116
0.054751 0.218611 0.008033 90 104 93
0.069570 -0.185122 0.014753 117 126 119
0.078072 -0.087493 0.040606 88 102 93
-0.026147 0.420142 0.071747 157 166 159
0.324059 0.315456 0.006336 131 140 133
0.207109 -0.003088 0.011091 29 41 43
-0.120179 0.155742 -0.001306 106 120 109
0.332711 0.391354 0.015456 140 141 135
-0.058982 -0.030465 0.002193 79 93 84
-0.158708 -0.122940 0.148042 40 55 54
-0.306985 0.173355 0.004383 135 143 130
0.178748 0.034721 0.007946 28 40 42
-0.001040 -0.120105 0.028476 146 168 167
0.008435 -0.084424 0.025519 77 92 91
-0.074896 0.157221 0.000794 109 123 112
0.010119 0.329048 0.006192 137 148 144
0.026100 -0.298187 0.010419 118 127 120
0.317283 0.165476 0.121690 86 99 108
0.251963 -0.160011 0.005644 108 112 107
-0.022794 -0.061320 0.028681 26 40 46
0.162644 0.019572 0.004806 28 40 44
0.037838 0.432038 0.103556 166 170 165
-0.161386 0.421760 0.055044 151 158 152
-0.240676 -0.127245 0.246109 33 41 40
0.055873 0.400648 0.115988 179 185 183
0.272522 0.460712 0.024904 147 148 139
0.375312 0.136730 0.040595 97 104 108
0.289610 -0.013279 0.032091 58 67 77
-0.214884 -0.154962 0.219663 29 40 38
0.270192 0.544927 0.009966 153 146 138
-0.126185 -0.167727 0.014545 93 110 111
-0.310286 -0.062809 0.009098 112 124 116
0.393348 -0.246626 0.016073 133 134 130
0.164193 -0.072839 0.014800 29 39 42
-0.012130 -0.014494 0.002260 86 100 89
-0.160128 0.237176 0.012187 133 145 137
0.120428 0.006392 0.001769 25 37 41
0.282648 -0.143237 0.016616 114 118 113
0.255800 -0.150215 0.009220 46 50 45
-0.432412 0.032907 0.321313 156 148 145
