ply
format ascii 1.0
element vertex 1216
property float x
property float y
property float z
property uchar red
property uchar green
property uchar blue
end_header
-0.205978 0.017133 -0.038720 98 103 93
-0.071282 -0.298078 -0.043461 114 119 109
-0.080690 0.404261 -0.047065 128 132 125
-0.079982 -0.117404 -0.029304 116 129 126
-0.145020 -0.220554 -0.044467 122 123 114
0.069616 0.503274 0.031277 162 169 161
0.091520 0.399315 0.071552 128 143 140
0.103923 0.362012 -0.037889 100 105 91
-0.088883 -0.122700 -0.028960 117 128 126
-0.232235 -0.162485 -0.043631 120 129 120
0.310111 -0.135133 0.095192 68 75 81
0.002414 -0.137393 -0.019691 128 141 138
0.371961 -0.222328 -0.021934 103 110 104
0.227656 -0.074419 -0.018797 14 21 25
-0.223332 -0.055199 0.220980 18 24 22
-0.223734 -0.136129 0.146215 23 30 24
0.251234 0.188363 0.040283 26 33 37
0.162933 -0.065878 -0.023175 17 24 28
-0.151223 -0.178737 0.021695 107 118 114
0.332188 0.527193 -0.023076 128 133 123
0.050741 -0.056736 -0.048695 66 67 61
0.018718 0.518958 0.034490 147 152 140
0.134732 0.216169 0.093041 56 68 72
-0.078472 0.048357 -0.036523 86 91 81
-0.332308 -0.076732 0.356557 119 143 145
-0.182352 -0.114130 0.153525 17 20 19
0.016320 0.117408 -0.030653 111 113 102
0.063605 0.470639 -0.010424 154 163 154
-0.311807 0.275114 -0.046032 137 139 130
-0.052417 0.260186 0.006124 128 132 125
0.060394 0.469151 -0.015816 151 158 150
-0.117312 0.417351 -0.049787 98 100 91
-0.151732 0.187161 -0.039458 110 115 103
-0.255383 0.376137 0.047732 158 156 146
0.158404 0.500279 -0.033349 105 110 96
-0.053676 -0.138186 -0.024057 111 124 121
0.322096 -0.125634 -0.022402 49 45 46
0.239346 0.193946 0.097026 33 40 44
0.277997 0.190470 0.086472 35 42 46
-0.250484 -0.173042 -0.042678 118 125 119
-0.244362 -0.087199 -0.042336 97 110 97
0.357794 0.496717 -0.020397 123 125 112
-0.311719 -0.304228 -0.047243 131 131 125
-0.232143 -0.115087 0.143651 2 8 8
0.001422 0.491389 -0.015196 147 149 140
-0.182235 0.490472 -0.033930 136 141 131
0.150262 -0.253868 -0.030460 102 111 104
0.128232 0.054556 -0.028994 20 26 28
-0.186749 0.419744 -0.049081 105 106 95
0.260018 0.120570 -0.016600 15 18 19
-0.247655 0.513232 0.052582 157 153 146
-0.058093 -0.076570 -0.032232 115 126 124
-0.147042 -0.260364 -0.043567 107 112 102
0.216902 -0.117935 -0.023913 49 56 48
-0.255636 0.377502 0.049006 161 157 146
-0.247940 -0.062245 0.258144 27 28 24
-0.231593 -0.131005 -0.043875 95 104 95
0.010618 0.259987 -0.037697 80 84 77
0.333212 -0.010204 0.101924 87 92 97
0.322521 -0.016333 0.033591 42 54 58
0.326607 -0.227034 -0.023476 108 111 110
-0.139514 -0.168701 0.006397 102 111 104
0.001346 -0.176709 -0.015538 130 138 135
-0.269272 -0.190630 -0.040642 116 120 115
0.214697 0.178614 -0.014592 14 20 22
0.169201 -0.133917 -0.028668 96 97 91
0.250051 0.355167 -0.029137 98 100 91
-0.175235 0.021928 0.048002 15 18 17
0.132518 -0.038914 -0.023912 19 25 25
0.221166 0.415410 -0.027485 109 110 99
-0.159698 0.515032 0.014548 144 148 141
0.175362 -0.129527 -0.028253 24 28 21
-0.137678 0.026992 -0.038472 96 101 91
0.278784 -0.051225 -0.016664 33 45 47
-0.185296 0.524348 0.035743 154 154 148
-0.071996 -0.195303 -0.014614 127 133 133
-0.010383 -0.139496 -0.020713 121 136 133
-0.115549 -0.313169 -0.042854 106 110 105
0.343358 -0.125151 0.097776 81 89 88
-0.134890 -0.293100 -0.042739 99 107 96
-0.057982 -0.133581 -0.025053 118 129 125
0.073984 0.279769 -0.035251 34 43 34
0.234389 -0.128079 -0.024070 58 59 55
0.327136 0.021482 0.061557 50 57 65
-0.199105 0.157322 -0.041407 76 77 66
-0.140729 0.032302 -0.038190 92 100 89
-0.102975 0.258816 0.018089 131 139 128
-0.224197 0.505802 0.004885 149 151 140
-0.110297 -0.233037 0.009657 99 107 106
0.295422 -0.041078 -0.016081 37 42 47
0.090879 0.063190 0.071270 50 62 66
-0.134097 -0.172723 0.001564 108 115 109
-0.260378 -0.291443 -0.042579 12 8 11
-0.209747 -0.226215 -0.043504 129 129 123
0.360335 -0.178569 -0.021267 109 109 103
0.101731 0.094946 0.035120 22 30 31
0.102139 0.093970 0.033386 22 28 30
-0.243960 -0.270149 -0.043173 129 129 123
0.383479 0.395648 -0.015077 99 103 96
0.097695 0.169875 0.070339 29 32 35
0.320969 -0.079084 0.040651 35 47 51
-0.057389 0.513906 0.020731 150 152 143
-0.030069 0.191852 -0.034167 90 98 87
-0.015675 -0.295801 -0.042884 97 110 97
-0.198688 0.203576 -0.040882 121 125 118
0.164865 -0.136248 0.093625 123 143 140
0.004867 -0.289571 -0.040895 102 104 95
0.232601 -0.131533 0.089987 63 71 72
-0.088562 -0.015454 -0.040653 84 89 79
-0.159017 -0.301729 -0.043046 11 16 6
-0.330627 -0.128371 -0.035477 68 63 61
0.270195 0.190112 0.077851 29 34 39
-0.268463 -0.141072 -0.040306 118 128 114
-0.158188 -0.288207 -0.043134 40 30 30
0.332094 0.069511 0.101238 65 75 82
-0.042439 0.265121 -0.037575 106 111 99
0.009603 0.211095 -0.032592 124 125 116
0.283704 0.373615 -0.026358 126 127 123
0.373699 0.338889 -0.016864 116 117 111
-0.156837 0.239127 0.092277 140 152 142
0.180743 0.458181 -0.031065 25 22 17
-0.273304 0.230735 -0.045040 134 136 120
-0.226653 0.520209 0.037897 153 155 144
-0.168902 -0.267340 -0.043593 123 123 117
0.377913 0.026653 0.030175 72 80 77
0.316794 0.417587 -0.022478 39 31 30
0.307268 -0.207543 -0.024560 110 114 107
-0.099569 -0.278052 -0.041906 112 117 107
-0.327134 -0.125974 0.330522 95 103 104
-0.044444 -0.166505 -0.012591 130 138 137
-0.246059 0.432324 -0.011172 160 162 151
-0.185099 -0.035194 -0.039709 100 105 93
-0.233975 0.150240 -0.042218 105 109 102
0.139083 0.198182 0.037729 18 21 24
0.209610 -0.234713 -0.028801 111 108 105
0.182578 -0.233367 -0.029182 112 114 105
-0.036974 -0.005098 -0.040714 71 79 68
0.295495 0.108835 -0.015839 33 39 41
-0.359157 -0.015902 0.256822 65 66 60
-0.190815 0.262383 -0.042531 115 116 110
0.058608 -0.156519 -0.039596 57 61 56
0.332054 -0.192634 -0.023008 110 112 103
0.320865 0.421009 -0.022240 106 111 101
-0.101730 -0.125227 -0.028734 118 129 127
-0.112049 -0.272581 -0.042756 115 116 110
-0.160742 -0.306470 -0.042864 109 109 103
0.321185 0.173730 0.107978 40 52 56
0.370303 0.529894 -0.019069 129 131 120
-0.328816 0.241092 -0.049413 135 137 126
0.331407 0.025900 0.089958 52 62 67
0.348311 0.109157 0.107103 81 84 85
-0.338617 -0.113116 -0.032678 121 126 116
-0.129759 0.529697 0.049359 155 156 145
0.011138 -0.130948 -0.018804 133 144 142
-0.037702 0.439247 -0.040244 128 132 125
0.266616 -0.215934 -0.026485 102 107 97
0.176814 0.147939 -0.020827 15 21 21
0.029750 0.056030 -0.031824 96 106 94
0.268019 0.178229 -0.001907 27 32 39
0.050947 -0.080361 -0.049047 69 76 68
0.235544 0.336767 -0.032805 66 62 53
0.373278 -0.182517 -0.021216 104 104 98
-0.239535 -0.293580 -0.043465 77 88 84
-0.052943 -0.005853 -0.041851 77 79 70
-0.042191 -0.154057 -0.008692 99 114 113
-0.176194 -0.135700 -0.045388 113 117 110
-0.245783 -0.109363 0.244466 1 7 5
0.341404 0.452315 -0.021651 124 129 117
-0.337084 -0.130744 0.332668 103 127 137
-0.152380 -0.258259 -0.043476 110 118 107
0.269732 0.403780 -0.025523 99 100 91
0.093971 -0.137089 -0.037422 100 101 97
0.062589 -0.151343 -0.037427 56 63 55
0.166017 -0.077336 -0.024297 18 24 24
0.034009 -0.206685 -0.039548 22 23 17
0.227382 0.112330 -0.017772 20 23 24
-0.244223 0.491859 0.013308 159 156 142
0.132422 0.046541 -0.027125 19 24 29
0.249070 0.185469 0.023072 22 30 31
0.030152 0.442327 -0.034853 133 141 130
-0.044345 -0.286074 -0.042911 103 110 104
0.033632 0.390624 -0.040947 124 134 122
0.312586 0.179687 0.068978 38 45 51
0.211056 0.382633 -0.029291 82 84 73
-0.245091 -0.195514 -0.042603 120 125 115
-0.082259 0.518205 0.030263 156 152 143
-0.271907 -0.109463 0.269374 105 108 107
-0.261639 0.247408 -0.044034 106 99 89
0.343751 0.100917 0.110000 72 72 76
-0.272359 0.328679 0.071423 169 173 166
-0.283143 -0.173184 -0.040241 121 123 114
0.049038 0.016028 -0.036194 84 85 81
-0.315691 -0.092922 0.348958 115 148 150
-0.142209 0.538976 0.054155 152 157 147
0.049636 -0.173162 -0.039291 64 66 55
0.296112 0.496860 -0.024481 126 131 121
0.339454 -0.169516 -0.022252 35 29 31
-0.083020 -0.255307 -0.042294 111 119 108
-0.321090 -0.029318 -0.012090 105 109 102
0.285685 0.417054 -0.024177 84 82 70
0.311371 0.013310 -0.005965 44 53 63
-0.182779 -0.071458 -0.042168 104 106 97
0.215916 0.041749 -0.018562 19 27 26
0.168032 0.198689 0.039957 12 22 25
-0.259398 -0.294288 -0.042488 41 36 44
0.328366 0.063895 0.061987 48 58 61
0.045767 0.436958 -0.034024 128 135 127
-0.013805 -0.157152 -0.013817 121 134 131
0.159569 0.486255 -0.033420 105 107 96
-0.085959 -0.240344 0.001369 100 108 107
0.125804 0.205313 0.080997 30 40 45
0.148836 0.198707 0.043547 15 22 26
0.068877 -0.213994 -0.035028 106 111 101
-0.005120 -0.263060 -0.040769 112 113 104
-0.028934 -0.233103 -0.005572 134 141 135
0.025276 0.061338 -0.032049 100 108 97
-0.039631 0.500296 -0.007843 145 147 138
-0.368848 -0.080629 -0.032722 118 126 115
-0.276704 -0.108640 0.276349 122 125 126
-0.269981 0.271121 -0.044832 141 146 132
0.244169 0.184372 0.001297 20 28 29
-0.345905 -0.053706 -0.027872 39 38 38
0.086959 -0.132065 0.082251 64 72 73
0.308591 0.130609 -0.012484 44 54 57
0.339303 -0.002486 0.106689 68 75 79
0.249735 -0.158006 -0.024636 92 97 87
-0.166209 -0.173001 -0.046407 121 125 118
-0.086732 -0.094915 -0.031716 110 123 120
-0.338087 0.294387 -0.048837 144 149 137
0.175711 -0.211460 -0.029908 97 104 98
0.303400 0.030831 -0.015638 39 51 55
-0.366491 -0.116588 0.256728 33 34 30
-0.212637 0.135250 -0.039722 106 111 101
0.295746 -0.195607 -0.025118 107 108 102
0.285900 -0.058813 -0.016438 36 41 46
0.249619 0.392190 -0.026771 113 105 102
-0.046587 -0.216490 -0.011916 119 130 126
0.085012 -0.123407 0.087964 60 72 78
-0.033090 0.121291 -0.033105 77 81 74
-0.007508 0.000332 -0.039635 95 104 95
-0.048506 -0.056599 -0.022270 123 136 131
0.166328 0.102306 -0.022877 17 25 26
0.326071 0.152716 0.081011 46 53 61
0.315374 0.503809 -0.023908 84 79 77
0.136297 -0.190056 -0.030874 101 108 102
0.239226 -0.072498 -0.017929 19 26 30
-0.129377 0.498156 -0.022375 140 145 135
-0.050040 0.194975 -0.035037 106 111 101
-0.232585 -0.310165 -0.043526 129 131 120
0.044817 0.517596 0.030906 143 151 140
0.317299 -0.055003 0.021710 42 49 57
-0.207441 -0.179439 -0.045028 121 123 112
-0.190797 0.489509 -0.035116 140 145 131
0.324922 0.027138 0.034661 46 53 57
0.075733 -0.062501 0.084565 70 80 87
0.101978 -0.243869 -0.033383 112 116 109
0.379454 -0.218193 -0.020762 107 110 109
0.170337 0.098983 -0.022884 20 26 28
-0.080220 0.425349 -0.045595 119 128 121
-0.102572 -0.272488 -0.042319 116 121 111
-0.264751 -0.179522 -0.041329 103 103 97
-0.250046 -0.006511 0.165660 0 2 0
-0.191375 -0.100874 0.177892 0 4 0
0.302733 0.175966 0.007313 27 34 42
-0.238686 0.518764 0.047088 154 155 146
-0.055793 -0.120232 -0.027819 115 126 124
-0.036624 0.460744 -0.041759 125 137 127
-0.317754 0.150070 -0.049077 127 132 122
-0.249953 -0.280480 -0.042735 129 130 124
0.310854 0.347894 -0.024699 117 114 109
-0.093961 -0.203236 -0.011825 114 125 121
0.152865 -0.221601 -0.030514 107 114 106
0.316868 0.414980 -0.022525 75 75 69
0.016527 0.027085 -0.035822 97 104 96
-0.074349 -0.119995 -0.028747 115 130 127
0.323484 -0.083569 0.056279 45 53 54
0.101022 0.170042 0.051554 23 29 29
-0.070519 0.443765 -0.044650 128 137 128
-0.306652 -0.079996 -0.022473 110 114 107
-0.081685 0.482513 -0.042732 136 137 131
0.361992 0.491707 -0.019948 128 130 119
0.317217 -0.065572 0.022556 37 49 53
-0.196142 -0.134248 0.154807 20 23 24
0.246086 0.192632 0.098075 33 43 50
-0.177739 -0.264279 -0.043812 126 127 118
-0.206288 0.512609 0.011224 146 148 135
0.073117 0.083606 -0.028078 94 97 96
0.021800 0.082776 -0.030982 30 30 24
0.337892 0.011060 0.106490 68 75 81
-0.242544 0.493567 0.012088 159 156 142
0.181537 0.189861 0.017040 11 17 19
-0.190325 0.008141 0.064181 8 11 10
-0.079175 0.481064 -0.043649 139 140 131
-0.354648 -0.097821 0.365459 121 145 147
-0.203695 -0.186925 -0.045676 115 123 112
0.331766 -0.013709 0.093218 59 69 74
-0.184624 0.169424 -0.041060 113 121 110
-0.220855 -0.000614 -0.037278 80 71 62
0.089396 -0.265551 -0.033525 112 116 109
0.266396 0.178405 -0.002809 25 30 37
0.286625 0.105340 -0.016618 35 42 46
-0.184124 -0.231046 -0.043774 126 131 121
-0.206332 -0.215924 -0.043515 118 119 110
0.255758 -0.220884 -0.026579 105 106 100
0.204053 -0.244772 -0.028300 106 112 110
0.184357 0.196892 0.041497 27 32 37
-0.186062 -0.010688 -0.038563 102 104 95
-0.141382 -0.128964 0.010317 113 122 115
-0.218450 0.521157 0.036264 154 156 145
0.296157 -0.173779 -0.023994 100 108 95
-0.191036 0.196150 -0.041367 126 124 112
0.052148 0.243578 -0.031904 102 107 97
-0.234148 0.515974 0.037275 154 152 142
0.323699 -0.013099 0.039609 47 57 64
-0.337451 -0.141788 -0.041128 122 124 113
0.193371 -0.048549 -0.020036 19 26 30
-0.258711 -0.106957 0.259365 13 13 13
-0.077926 -0.176032 -0.012507 128 139 137
0.072302 0.132406 -0.028643 57 57 57
0.205045 -0.024821 -0.018893 21 27 29
-0.199807 -0.227405 -0.044300 129 127 119
0.273387 0.187796 0.062603 28 36 37
-0.147422 -0.258919 -0.043436 108 113 103
-0.277384 -0.127682 -0.038220 49 44 42
0.235720 -0.137197 0.095833 125 144 146
-0.205481 0.254787 0.026840 138 140 131
0.109902 -0.121506 -0.033841 61 60 60
-0.195950 0.524703 0.038335 156 157 144
0.019861 0.018501 -0.037244 102 103 99
0.080135 0.144887 -0.028570 96 103 95
0.021453 0.120500 -0.030401 112 116 111
-0.324645 -0.046172 -0.014278 45 46 40
0.027142 0.049714 -0.032445 90 104 95
0.085979 0.140111 -0.025643 78 86 87
0.070732 0.024103 -0.031284 20 24 17
0.323823 0.010872 0.033575 46 53 59
-0.222478 0.101719 -0.035162 103 108 98
0.085573 0.053281 0.080590 52 61 71
0.015688 0.261216 -0.030875 115 122 114
0.026235 0.089817 -0.030702 98 105 99
0.291302 0.177558 0.007825 25 33 34
0.313804 0.478129 -0.023986 125 126 115
0.115631 -0.204599 -0.032151 106 110 103
0.284101 0.472073 -0.025146 39 41 30
-0.259670 -0.338348 -0.041955 109 110 104
-0.233843 -0.011078 0.184542 10 10 10
-0.248059 -0.290778 -0.042441 133 134 130
0.236038 0.149536 -0.016747 13 19 21
-0.013328 -0.201090 -0.011706 130 141 139
0.010987 0.202081 -0.032545 108 116 105
-0.111122 0.509150 0.006440 144 149 139
-0.038370 -0.106605 -0.027323 111 124 121
0.083340 0.287709 -0.036556 95 101 84
0.188849 -0.136051 0.092847 124 142 140
-0.198214 -0.018860 -0.038891 101 103 94
0.019036 0.473756 -0.031807 142 147 137
-0.332816 -0.315244 -0.048262 129 130 124
-0.183796 -0.019655 -0.039309 94 101 93
-0.359470 -0.040042 -0.014063 111 120 111
-0.161228 0.169030 -0.039640 97 95 87
0.175647 0.141679 -0.021649 14 20 22
0.187092 -0.032954 -0.021244 21 27 25
0.078444 0.500620 0.041847 161 170 161
-0.235072 -0.094857 -0.041517 114 118 111
0.037398 0.065327 -0.030943 10 14 7
0.088947 -0.161802 -0.036040 93 101 90
0.089829 0.123044 0.086113 55 69 75
0.252348 -0.215300 -0.027072 102 103 97
0.280717 0.039084 -0.018469 35 42 48
0.056416 0.084522 -0.028517 102 111 104
-0.201965 -0.273251 -0.043598 127 132 122
-0.294079 -0.249445 -0.044093 114 111 108
-0.258523 0.069754 0.006169 112 113 100
-0.276005 0.318411 -0.019242 147 149 136
-0.245125 0.018743 -0.029881 100 102 91
-0.020660 -0.075595 -0.024944 133 140 134
-0.067718 0.427320 -0.044433 124 128 121
-0.065753 0.114719 -0.033719 93 102 93
0.327849 0.136347 0.071662 46 51 58
-0.317241 -0.074002 0.341444 122 141 141
-0.078180 -0.275627 -0.042783 117 119 108
0.090042 0.172765 0.091916 56 68 72
0.159168 0.138763 -0.022649 16 19 20
0.333087 0.105675 0.107607 73 83 86
-0.252603 0.467955 0.028547 165 163 151
0.278081 -0.120687 -0.015140 56 59 58
0.056876 0.011652 -0.036027 87 88 84
-0.052827 0.530525 0.055979 147 152 142
-0.130613 -0.268214 -0.043189 112 113 107
0.097114 0.162755 0.068111 31 39 40
-0.213835 -0.185731 -0.044788 119 124 112
-0.145470 -0.218968 -0.044739 119 121 112
-0.105842 -0.139312 -0.008945 64 71 63
0.383732 0.427426 -0.015324 50 43 35
-0.037421 -0.215044 -0.010946 124 132 131
-0.241865 -0.113523 -0.043547 117 119 108
0.100482 0.304841 -0.041229 83 94 90
0.385255 0.370065 -0.014669 118 120 111
0.316149 -0.020586 0.013148 43 50 56
-0.130362 -0.224557 0.015903 124 136 128
-0.213860 0.006240 0.124435 14 23 16
-0.128431 0.151832 -0.037086 75 79 72
-0.186831 0.138884 -0.040204 107 112 100
-0.261351 -0.109522 -0.040280 111 107 100
0.020756 0.201281 -0.031572 107 115 104
0.329574 0.062817 0.072514 52 59 65
0.287543 0.044111 -0.017948 31 41 46
0.355745 0.485124 -0.020529 122 119 114
-0.131923 0.231819 -0.039475 116 121 111
0.201971 -0.200626 -0.029422 99 99 93
-0.308578 -0.064565 0.322307 77 79 70
-0.035975 0.116381 -0.033154 87 92 82
-0.282348 -0.313236 -0.042362 128 130 121
-0.117114 0.227398 -0.038736 112 117 105
0.322708 -0.151744 -0.022251 104 105 99
0.265166 0.166000 -0.015900 18 21 24
-0.220531 -0.233066 -0.043146 128 130 121
0.331892 0.000167 0.092916 60 67 73
0.016528 0.446849 -0.034136 133 138 128
-0.182978 -0.015793 -0.038869 98 103 93
-0.252077 0.426138 0.005358 163 161 151
-0.186334 -0.045215 0.197574 20 20 16
0.127794 -0.211929 -0.031588 105 114 107
-0.057953 0.526821 0.050053 147 149 138
-0.208432 0.382792 -0.047796 105 113 100
-0.208629 -0.224451 -0.043323 125 126 120
-0.114342 -0.305770 -0.042227 110 112 103
-0.277026 0.361053 0.071314 150 165 160
-0.212012 0.003391 0.133073 3 12 5
0.062242 0.096561 -0.029277 96 103 95
-0.136274 -0.009871 -0.039757 88 98 86
-0.299843 -0.218529 -0.043739 130 131 125
0.046710 -0.234777 -0.036544 111 109 101
0.270218 -0.146361 -0.023673 88 89 85
-0.044080 0.040674 -0.035501 31 35 30
-0.208269 -0.111932 -0.044841 112 117 105
0.082940 0.086265 0.082288 67 74 80
0.322982 0.071913 0.018486 38 48 51
0.291203 -0.201024 -0.025332 108 109 100
-0.013632 -0.191230 -0.013436 128 141 138
0.106476 0.058656 0.011132 23 34 34
-0.249072 0.170465 -0.043078 112 114 105
0.298730 -0.234733 -0.024578 113 108 104
-0.213261 -0.100316 -0.044707 113 118 106
-0.302252 -0.133138 -0.036428 123 132 123
0.270653 0.186719 0.042789 25 32 36
-0.073399 -0.253069 0.009036 128 140 132
0.188695 -0.196716 -0.029514 104 106 97
0.042745 0.506660 0.012409 151 153 144
-0.039182 0.463463 -0.042276 126 135 128
0.311837 -0.200593 -0.024514 110 114 107
0.241678 0.181381 -0.009466 9 14 19
0.154215 -0.063830 -0.023607 15 26 26
-0.277903 -0.099292 0.289491 119 122 121
-0.290246 -0.117829 0.245719 56 56 52
-0.175325 -0.277713 -0.043089 122 123 114
-0.194070 0.254521 0.024436 135 140 128
0.318937 -0.231306 -0.023873 103 103 99
-0.115557 -0.030196 -0.041314 89 94 84
0.012966 -0.241923 -0.038744 81 90 81
0.028678 -0.129529 -0.012607 132 143 141
-0.142567 -0.253385 -0.043585 106 111 101
0.223816 0.136543 -0.017216 13 19 21
0.013508 0.013948 -0.038739 96 100 93
-0.048628 0.255187 -0.039323 110 120 104
-0.169858 -0.285774 -0.043156 115 123 110
-0.153836 0.072551 -0.037327 102 107 97
0.399561 -0.120233 -0.020199 84 88 81
-0.195886 0.534404 0.051077 160 161 150
0.125200 -0.204639 -0.031231 104 114 102
-0.035391 0.506087 0.005067 143 151 138
-0.131446 0.183582 -0.037818 102 104 93
0.375952 0.461949 -0.016887 118 120 107
-0.069006 -0.081971 -0.033161 110 123 120
-0.312549 -0.112720 0.327309 62 69 61
-0.321771 -0.146599 -0.038798 122 127 117
-0.195656 -0.180385 -0.045743 9 10 4
0.323997 -0.034014 0.044191 44 54 59
0.340696 -0.126485 0.100756 75 83 82
-0.154660 0.029579 -0.038476 96 97 86
-0.004787 -0.212900 -0.007910 146 159 154
-0.283895 -0.089991 -0.036374 107 111 106
-0.228037 -0.075330 0.180680 15 22 16
0.024236 0.114635 -0.030379 102 111 102
-0.006330 0.013250 -0.037302 87 94 86
-0.085603 0.092209 -0.035478 96 103 95
0.320745 -0.050519 0.030677 46 48 54
0.316657 -0.205975 -0.024018 97 92 88
-0.182301 -0.130945 0.149868 22 25 24
-0.120277 0.467165 -0.048880 103 103 99
-0.241164 0.246198 -0.042798 126 134 121
0.321752 0.127802 0.014160 42 49 55
-0.206134 -0.113363 -0.044697 113 118 106
-0.207702 -0.036273 -0.038823 99 109 95
-0.221335 -0.204011 -0.043596 116 120 113
0.098940 -0.070794 -0.003688 21 28 32
0.334889 -0.084365 0.104808 60 67 71
-0.201546 -0.159588 -0.045287 117 119 106
0.250708 0.185365 0.023826 27 34 38
-0.069475 0.505758 0.002723 147 151 144
-0.256207 0.525060 0.063713 159 160 154
0.228885 -0.219288 -0.028029 108 108 102
0.024137 -0.276138 -0.039104 103 105 96
0.258412 -0.143748 0.080572 119 127 126
0.077919 -0.271873 -0.034373 49 50 39
0.026657 -0.135684 -0.015776 134 149 144
-0.126371 0.074049 -0.037250 92 100 89
0.239460 -0.237282 -0.026917 108 109 105
0.233062 -0.131557 -0.024458 84 91 83
-0.067496 0.048395 -0.036167 79 89 77
-0.279505 -0.108520 0.280143 126 130 125
-0.318303 -0.121310 0.283235 41 45 38
-0.296896 -0.246583 -0.045002 57 59 50
0.326646 0.048052 0.038735 47 54 60
0.262686 -0.131375 -0.023292 84 84 80
0.162839 -0.196574 -0.029853 107 108 102
-0.251966 -0.066480 0.263687 26 27 23
-0.022268 -0.248976 -0.042858 4 1 0
-0.256429 0.263238 0.077378 164 166 157
0.335369 0.307127 -0.022406 82 88 86
0.349798 -0.220180 -0.022104 67 68 64
0.296560 -0.144822 -0.023630 95 96 90
-0.158384 -0.014451 -0.039488 93 101 88
-0.105494 0.142961 -0.036458 101 106 94
0.314027 0.188251 0.117874 55 60 69
-0.193712 0.412241 -0.048859 104 104 98
0.235318 -0.156984 -0.026383 92 99 93
0.110447 0.178563 0.024429 20 28 29
0.197744 0.120111 -0.020422 15 21 21
0.226251 -0.136445 0.092326 124 142 138
0.054680 -0.105182 -0.047494 60 64 59
-0.257215 0.335353 0.017516 159 160 149
-0.019046 0.244752 0.091135 136 148 138
-0.058416 -0.153966 -0.002625 70 87 88
-0.213129 0.413017 -0.045524 115 117 108
-0.192476 -0.273135 -0.043308 100 92 89
-0.268525 -0.331131 -0.042945 125 125 119
0.232583 0.198375 0.113054 132 147 146
0.037745 0.391737 -0.041130 126 133 125
-0.039758 -0.165660 -0.012484 125 136 136
-0.046922 0.084575 -0.033750 91 96 86
0.198272 0.341461 -0.033406 107 109 98
0.065025 0.461805 -0.012720 154 163 156
-0.240232 -0.081928 0.258410 128 7 0
0.326225 -0.088440 0.083241 53 59 70
-0.179088 -0.302287 -0.043161 117 118 114
0.158574 -0.258417 -0.030033 108 108 102
-0.140079 0.505594 -0.005908 145 147 138
0.327617 0.097969 0.039346 41 48 52
0.129530 -0.011212 -0.024865 18 26 27
0.298644 0.178810 0.019479 28 33 40
-0.011121 0.249503 0.057847 129 134 124
0.126765 -0.049154 -0.023963 14 22 23
0.331101 -0.143019 0.094682 78 85 77
0.241576 0.184073 -0.002851 20 27 31
0.044009 0.519787 0.034244 151 153 144
0.158124 -0.267254 -0.030649 108 114 112
0.004242 -0.077196 -0.007381 123 136 131
0.218951 0.453206 -0.027647 103 105 92
0.150578 0.542946 -0.033915 26 27 18
-0.173723 -0.193241 -0.044684 123 125 116
0.288177 -0.120346 -0.015645 59 59 63
0.114653 0.182738 0.019260 15 26 26
0.147676 0.372917 -0.032215 104 100 93
-0.228352 -0.191973 -0.044088 65 65 59
-0.233125 -0.120908 0.159657 42 51 42
0.255641 -0.118938 -0.012358 37 42 47
-0.202346 -0.180047 -0.045435 118 120 111
-0.294792 -0.209435 -0.043654 88 88 84
0.159433 0.319207 -0.035761 93 103 91
-0.346078 -0.052386 -0.026676 57 57 57
-0.173450 -0.268123 -0.043749 122 122 116
-0.095520 -0.248806 0.012008 133 145 137
0.269462 -0.159312 -0.024436 92 97 87
0.242312 -0.232255 -0.027054 106 110 103
-0.174713 -0.101169 0.086130 22 28 26
-0.303398 -0.094614 -0.029880 114 122 111
-0.048919 0.489845 -0.029623 138 143 133
-0.335619 -0.080220 -0.022520 114 119 105
-0.268233 -0.070154 0.283475 198 207 198
-0.375924 0.050754 0.247913 117 139 140
-0.124562 -0.102267 -0.007208 116 124 121
-0.331761 -0.026875 -0.017657 104 106 97
0.161692 0.215444 0.099494 133 148 145
0.187184 0.211169 0.104478 123 138 137
-0.198493 -0.131393 0.154108 23 23 23
0.044057 -0.164829 0.029004 45 49 44
0.187898 -0.221676 -0.029652 109 110 101
-0.207773 -0.143592 -0.045005 117 119 108
-0.351152 -0.046347 -0.017299 22 19 16
0.199327 -0.207353 -0.029331 104 106 95
-0.007200 0.394616 -0.041006 128 132 125
-0.181308 0.221810 -0.040942 117 125 112
-0.221771 -0.098708 0.230870 16 17 13
0.259131 0.192513 0.111913 52 65 64
0.327479 0.081884 0.040209 38 50 56
-0.102590 0.049753 -0.036965 85 93 82
0.239051 -0.229758 -0.027397 108 109 105
-0.056435 -0.253378 -0.043665 79 80 74
-0.089029 0.099798 -0.035069 96 101 89
0.014946 0.057551 -0.032811 100 107 99
-0.082853 0.153855 -0.035326 99 109 97
0.049021 -0.067905 -0.049279 60 67 61
-0.274478 -0.272770 -0.042194 131 132 126
-0.339212 -0.088563 0.368904 121 143 146
-0.274834 0.360452 0.072485 148 163 158
0.307537 0.028100 -0.011668 131 134 135
-0.160086 0.524993 0.038386 154 155 142
-0.206817 0.515322 0.016945 152 154 145
0.122860 0.489015 -0.036766 110 112 99
0.323962 0.012918 0.033097 49 51 59
-0.174085 -0.050281 -0.039357 95 99 92
-0.162574 -0.089248 -0.043040 4 6 0
-0.199061 -0.277384 -0.043145 122 123 117
-0.184704 0.420249 -0.049095 104 105 94
0.288989 0.333526 -0.025553 86 87 81
-0.017946 -0.241678 0.001871 128 135 129
-0.255959 -0.222301 -0.041680 123 123 117
0.200878 -0.260041 -0.029040 106 113 105
0.244607 -0.193365 -0.027507 75 75 71
-0.184522 0.012268 0.048157 8 12 7
-0.094746 -0.303727 -0.042825 112 113 107
0.042270 -0.132135 -0.012202 80 91 91
-0.252484 0.419494 0.006340 161 162 153
-0.200177 -0.078360 0.191567 19 25 25
0.001248 0.532463 0.056210 146 148 139
-0.189889 0.249870 -0.042060 55 51 40
-0.259072 0.441947 0.057234 159 161 148
-0.160022 -0.022337 -0.039976 101 97 90
-0.225160 0.029356 -0.034640 94 99 89
0.189112 0.197961 0.051530 22 32 37
-0.277363 -0.095982 0.291362 99 90 95
0.302066 0.422635 -0.023051 124 129 115
-0.088357 -0.165501 -0.010444 124 132 133
-0.087677 0.255785 0.035923 129 137 126
-0.082918 0.514107 0.019966 151 152 146
-0.219034 -0.095718 0.229104 38 39 35
0.140345 -0.223815 -0.030597 102 112 98
0.057387 -0.111888 -0.046909 60 61 55
0.034174 -0.040990 -0.049546 61 75 64
-0.250556 0.497155 0.042482 165 166 155
-0.327653 0.258313 -0.048675 130 135 125
0.078916 0.029232 -0.030260 84 90 90
0.256498 -0.182067 -0.026103 101 101 95
-0.260301 -0.097976 0.271279 161 163 154
-0.198923 -0.169100 -0.046028 113 123 109
-0.251532 0.406853 0.005301 161 162 153
-0.328241 -0.314540 -0.047646 55 52 47
0.058742 -0.019641 -0.043377 72 76 71
0.061726 -0.166036 -0.039117 68 76 65
0.273596 0.409694 -0.025154 105 106 93
0.184914 -0.206684 -0.030023 107 114 106
0.322565 0.346617 -0.022767 117 119 108
0.078355 -0.117914 -0.042743 87 88 84
0.081895 -0.214816 -0.034893 114 119 109
-0.260046 -0.099865 0.269588 184 192 181
0.047783 -0.171770 -0.039642 65 67 56
-0.243175 0.207415 -0.043549 49 45 38
-0.225395 0.512505 0.017911 147 148 135
-0.109969 0.423927 -0.048885 98 99 88
-0.176044 -0.196877 -0.045032 120 125 115
-0.193325 0.420299 -0.048318 102 104 93
-0.300939 -0.076424 0.325108 77 78 72
-0.303328 -0.146556 -0.038755 122 127 117
0.137517 -0.021309 -0.023825 19 25 27
0.114141 0.179405 0.013898 17 24 30
0.070848 -0.111748 -0.044782 61 75 64
-0.131607 -0.085290 0.000173 120 128 125
-0.094719 -0.206623 -0.011467 112 120 121
-0.211168 -0.284080 -0.043162 121 126 116
-0.007405 -0.083972 -0.019417 134 147 146
-0.334338 -0.108043 0.363228 116 146 149
-0.008435 0.166138 -0.032845 62 52 50
0.308032 0.182259 0.066606 33 38 45
0.025293 0.522414 0.043973 147 152 142
-0.112783 -0.269696 -0.042675 112 116 109
-0.026171 0.013322 -0.037589 81 82 78
-0.031735 -0.241920 -0.001802 133 144 142
-0.262314 0.204468 -0.045452 133 135 124
0.273635 0.199479 0.109439 56 63 69
0.372009 0.314550 -0.017791 114 116 107
0.035716 -0.165349 -0.003915 140 156 147
-0.204779 -0.299470 -0.042809 117 118 112
0.139830 -0.073770 -0.023459 19 25 27
-0.081788 0.228733 -0.036208 108 116 101
-0.051901 0.255156 0.041285 128 136 125
0.230654 0.146413 -0.017026 17 20 23
-0.166840 0.127214 -0.039576 109 113 106
-0.216905 0.524162 0.041993 153 155 146
-0.208594 0.187786 -0.041688 118 120 109
-0.311825 -0.106411 -0.031766 117 118 107
0.240327 -0.201945 -0.027447 98 99 95
0.034859 0.248403 0.076070 139 148 141
-0.290654 0.279714 -0.045676 138 139 126
-0.283888 -0.287818 -0.044029 128 135 127
-0.254657 0.347024 0.010956 158 160 149
-0.017829 0.519418 0.039145 150 152 143
0.111341 0.052864 -0.003268 27 32 37
0.123346 0.043913 -0.025400 34 42 43
-0.126946 0.199027 -0.038559 102 103 92
-0.175441 -0.227744 -0.044307 117 122 112
0.015409 -0.174508 -0.014011 148 156 153
-0.061511 0.249920 0.060331 129 137 124
0.236664 -0.010248 -0.016638 20 26 28
-0.359504 -0.134385 0.332927 97 114 117
0.065350 0.500662 0.021277 156 164 153
0.001544 0.061086 -0.033125 103 107 100
0.041081 0.243295 0.075681 134 141 133
-0.321421 0.236932 -0.048225 138 140 127
0.122104 -0.126471 -0.032370 91 98 90
0.088956 -0.099579 -0.039052 92 96 91
0.078814 -0.058952 0.081466 62 69 75
0.162035 0.330767 -0.033497 99 109 95
-0.184210 -0.263890 -0.043870 125 127 118
-0.071559 0.261598 -0.004892 127 135 124
0.029474 -0.004750 -0.042287 79 86 78
-0.246542 -0.153466 -0.042692 119 121 112
0.314299 0.447369 -0.023364 133 135 122
0.261025 -0.145351 0.077127 102 110 109
0.251561 0.185686 0.027169 26 33 39
0.112031 0.380703 -0.035829 21 17 10
0.235917 -0.073052 -0.018163 18 25 29
0.077827 0.036639 -0.029617 79 88 81
0.093904 -0.151363 -0.034381 96 97 88
-0.082094 0.388720 -0.048548 125 132 124
-0.092804 -0.226349 -0.005619 103 109 107
-0.095661 -0.168712 -0.009748 124 135 135
-0.157340 0.003249 -0.039048 100 102 93
0.003002 -0.194530 -0.013424 140 155 154
0.371602 -0.176594 -0.021071 103 103 97
0.033517 0.530427 0.052181 149 151 142
-0.069114 0.252539 0.054721 131 139 128
-0.296416 -0.183773 -0.041442 22 27 17
0.233499 -0.154027 -0.026526 97 98 92
-0.166989 0.119999 -0.038630 116 126 112
0.142643 0.199971 0.046214 15 22 26
-0.330874 -0.217827 -0.049506 105 100 98
-0.292883 -0.072587 0.311090 73 77 70
-0.152471 0.181853 -0.038687 117 118 105
0.263790 0.365231 -0.028112 99 100 89
0.115988 0.536921 -0.036517 32 30 20
0.090152 -0.216573 -0.034335 110 118 105
0.045007 -0.097649 -0.049072 50 64 53
0.042144 0.004244 -0.039235 29 30 26
0.104871 0.457804 0.035117 121 129 114
-0.208972 0.035924 -0.036919 100 107 99
-0.220190 0.056128 -0.040420 105 110 96
0.276673 0.047917 -0.018236 38 45 49
-0.138558 0.145562 -0.037751 105 109 102
-0.045845 -0.293505 -0.044395 82 89 83
-0.096484 -0.104362 -0.030446 113 126 125
-0.001466 -0.040381 -0.049671 78 82 75
-0.224971 0.167849 -0.041598 94 101 93
0.319142 -0.115181 0.051848 39 51 53
-0.209452 0.241252 0.094209 150 157 149
0.330750 0.063602 0.082859 51 61 68
-0.200278 -0.252789 -0.044151 131 138 130
-0.310982 -0.169752 -0.040877 69 70 61
-0.215703 0.517567 0.026571 153 154 143
-0.011326 -0.279097 -0.040984 117 121 114
0.233602 -0.016338 -0.016825 18 26 27
-0.311611 -0.118305 -0.033432 121 122 116
0.154155 0.150260 -0.021911 14 20 22
0.324827 -0.081002 0.074267 53 58 65
-0.172220 0.056638 -0.038241 105 107 96
-0.285269 -0.076248 -0.039007 105 115 101
-0.262612 0.380404 0.071312 161 163 154
0.022242 0.015366 -0.037979 102 104 95
-0.064797 -0.292521 -0.043517 82 89 81
-0.316079 0.164178 -0.048853 133 140 132
0.223245 0.203610 0.108557 125 138 135
0.325044 -0.025646 0.059305 46 56 61
-0.039501 -0.142594 -0.023040 101 112 108
-0.170419 -0.099348 -0.044412 110 118 107
-0.216677 -0.301497 -0.043247 124 126 117
0.280712 0.178714 0.005673 22 29 33
0.173519 -0.221095 -0.030015 103 108 98
0.186718 0.077180 -0.021779 18 29 29
0.069396 0.282949 -0.034248 90 92 83
-0.233099 -0.068903 0.248990 41 24 24
-0.268070 0.189196 -0.045852 125 126 120
-0.013835 0.383886 -0.043000 119 126 118
0.271697 0.514541 -0.025234 113 114 105
0.063392 -0.117939 -0.046267 62 66 59
0.100752 -0.234868 -0.033849 124 122 114
0.330246 -0.001810 0.084486 51 63 69
0.130045 -0.077274 -0.023883 20 23 26
0.317472 0.504107 -0.023675 70 65 63
-0.271222 0.368956 0.072722 152 163 159
-0.365498 0.057853 0.248833 118 144 146
-0.208784 -0.322009 -0.043913 122 123 117
0.001257 0.380797 -0.041483 125 127 118
0.288658 -0.038511 -0.016866 36 43 49
-0.236203 -0.095612 0.249925 16 19 20
-0.221111 0.138294 -0.040354 112 114 103
0.061806 0.014240 -0.035214 88 89 83
-0.189528 0.504267 -0.011000 144 145 132
0.367039 -0.197457 -0.021704 112 112 106
0.029120 0.260539 -0.025620 118 126 115
0.234857 0.109503 -0.017348 16 22 24
0.332732 0.114582 0.108628 67 81 83
0.298108 0.319230 -0.027073 112 119 113
0.054046 0.248351 0.045270 126 130 123
0.389027 -0.204456 -0.020602 108 109 100
0.246250 0.381719 -0.027793 13 18 8
-0.352657 -0.157463 -0.049874 131 133 120
0.090958 0.504049 0.061157 143 151 140
-0.140950 0.064877 -0.037551 97 99 90
0.259781 -0.012883 -0.017339 14 21 25
0.074694 -0.091896 -0.043884 3 7 2
-0.014178 0.251985 -0.037634 58 58 54
0.140838 0.502699 -0.034319 63 59 52
0.032268 0.384397 -0.040299 121 131 119
-0.277978 -0.163644 -0.040354 122 127 117
0.029829 0.090462 -0.030506 103 110 104
0.120371 0.192739 0.022804 17 25 26
0.274812 0.047427 -0.017965 36 44 45
-0.324778 -0.087334 0.356083 121 144 149
-0.187414 0.008563 -0.038023 100 102 93
0.081555 -0.083031 -0.039729 85 93 80
-0.284172 0.255869 -0.045575 131 136 122
0.328668 -0.084614 0.097217 64 71 75
0.033724 -0.141000 -0.010261 143 156 151
0.322188 -0.100170 0.051570 45 52 56
-0.348979 -0.114327 0.367749 131 156 161
-0.116899 -0.086417 -0.012542 118 131 128
-0.317690 -0.132501 -0.036690 117 118 112
-0.022788 0.400141 -0.042236 122 126 121
-0.223729 -0.129246 -0.044594 113 121 108
-0.156171 -0.317264 -0.043379 94 94 90
-0.184148 -0.137590 0.142990 68 69 65
-0.162356 0.182458 -0.039386 55 61 44
0.164010 -0.074142 -0.024417 18 26 27
0.018000 0.194077 -0.032046 112 117 103
-0.221217 0.124298 -0.039424 51 48 45
-0.019705 -0.209136 -0.009080 133 139 137
0.166509 0.507663 -0.032942 100 105 93
-0.123858 0.231254 -0.039537 115 120 108
-0.086992 -0.155632 0.001384 36 37 33
0.069770 0.123452 -0.028997 10 10 6
-0.096231 -0.090403 -0.029475 114 125 125
-0.023219 -0.167213 -0.013443 133 144 142
-0.269396 -0.137886 -0.039903 117 125 114
0.159334 -0.148744 -0.029891 94 99 89
-0.232331 -0.114209 0.175481 100 105 95
-0.296360 -0.118344 0.273542 13 14 8
0.055855 0.262099 -0.019312 115 120 110
0.213844 -0.134531 -0.026674 85 92 86
0.262527 0.527225 -0.025692 112 114 101
-0.162949 -0.276996 -0.043247 118 118 112
-0.087460 -0.003894 -0.039878 76 85 78
-0.098341 0.108565 -0.035040 70 76 74
0.162790 -0.239737 -0.030056 104 111 103
0.134622 -0.215431 -0.031301 110 112 103
0.157936 -0.181592 -0.029745 101 106 96
0.335683 -0.022187 0.103546 65 70 79
-0.073224 0.236075 -0.037144 107 109 98
0.114328 -0.253897 -0.032426 116 117 111
-0.110150 -0.279850 -0.042335 116 117 111
0.321035 0.404758 -0.021764 122 124 113
-0.244169 0.468845 -0.012811 168 166 158
0.136907 0.339052 -0.035198 100 108 97
-0.064020 -0.223031 -0.010724 114 122 121
0.248126 -0.247645 -0.027193 6 7 1
0.244357 0.192417 0.068789 28 35 39
0.113860 -0.062219 -0.019707 25 33 34
-0.265830 -0.077128 0.283580 198 203 193
-0.007266 -0.102310 -0.022389 128 136 135
-0.171891 0.025293 0.035899 99 100 87
-0.299418 -0.087264 0.324692 82 89 81
0.311870 -0.088201 0.010560 41 51 56
-0.239080 -0.088821 -0.044949 107 117 105
0.087073 0.196416 0.093601 65 70 77
-0.254443 -0.114074 0.233185 11 10 10
0.136370 -0.164397 -0.030194 107 108 104
-0.121069 0.251426 0.049809 131 139 126
-0.044786 0.355623 -0.046711 138 147 138
0.344184 0.063127 0.107954 63 75 79
0.235209 -0.155375 -0.026395 95 99 92
0.155048 0.106976 -0.024326 15 23 24
-0.140244 0.498495 -0.025457 135 143 132
-0.327246 -0.064127 0.340642 114 140 138
0.119825 -0.038883 -0.020810 29 37 34
0.258996 0.458383 -0.025839 96 98 87
0.017557 -0.257890 -0.038706 105 109 104
0.316920 0.087889 -0.001274 35 52 55
0.155761 0.331859 -0.033467 102 103 97
-0.029338 0.198934 -0.034155 84 94 82
0.004414 0.442261 -0.035411 131 139 126
0.161168 0.434245 -0.031160 107 105 95
-0.077432 0.433767 -0.044820 126 133 125
0.108903 -0.271134 -0.032664 103 104 98
0.299208 -0.131319 -0.023122 84 89 79
-0.307379 -0.076985 -0.021224 106 116 104
0.274276 -0.208413 -0.026687 98 105 97
-0.028980 0.452323 -0.039865 126 133 127
0.155041 -0.169065 -0.030426 93 101 90
-0.223695 0.004214 0.151497 6 10 5
0.338842 0.033047 0.108545 67 72 79
0.203402 0.162949 -0.018217 15 21 21
-0.256536 -0.089337 0.272870 241 247 230
0.314557 -0.237953 -0.024361 59 62 61
-0.157156 -0.004743 -0.038760 92 99 91
0.082729 -0.114083 -0.041193 77 81 74
-0.097065 -0.062598 -0.017365 121 134 129
-0.300506 -0.299525 -0.045650 131 132 123
0.304710 -0.148392 -0.022895 94 98 91
0.260092 0.190010 0.064610 25 35 38
-0.326611 -0.066240 0.343774 121 144 149
0.063831 0.430611 -0.021768 158 166 155
-0.191100 0.180049 -0.041801 116 117 106
-0.117506 -0.233024 -0.044567 114 122 111
-0.155993 -0.066726 -0.040807 108 109 100
-0.242312 -0.313385 -0.043277 130 130 124
0.199362 -0.260286 -0.029170 105 112 104
-0.165611 0.037253 -0.037981 87 99 89
0.070449 0.188602 -0.026977 89 91 82
-0.154026 0.449639 -0.048183 100 105 93
0.212149 0.073329 -0.019797 17 25 26
-0.157248 -0.280499 -0.043334 111 111 105
0.000364 -0.154315 -0.014480 111 124 119
-0.175140 0.498180 -0.024947 138 140 129
0.159556 0.003686 -0.023588 22 28 30
0.315189 -0.172235 -0.022554 89 86 83
0.045685 0.058644 -0.030490 89 96 88
0.182568 0.209483 0.102370 122 142 139
-0.102756 0.076354 -0.036260 94 102 87
0.379444 -0.154781 -0.020186 91 96 86
0.313021 -0.003885 0.000891 41 51 54
0.187775 -0.137285 -0.028204 96 100 95
-0.060241 -0.218967 -0.011953 114 127 124
0.070126 -0.106422 -0.045438 65 69 64
0.016129 -0.215288 -0.007882 115 126 124
0.391378 0.541384 -0.016549 118 119 115
-0.147627 0.230933 -0.039779 114 119 105
-0.245698 -0.112914 0.214014 8 11 10
0.286865 -0.148166 -0.023871 95 96 90
0.348600 0.100262 0.106118 82 85 86
0.055334 -0.030654 -0.046036 67 74 68
-0.134318 -0.271976 -0.042849 116 118 109
-0.190994 0.429369 -0.048324 102 104 95
-0.016107 -0.186715 -0.014161 125 138 137
0.114538 -0.030908 -0.015527 27 34 38
0.387186 0.549489 -0.016979 116 108 107
-0.126807 0.519278 0.026865 147 152 142
0.129270 0.079472 -0.029679 21 27 29
0.202253 0.061588 -0.020441 16 26 29
-0.198598 0.102535 -0.038998 61 63 54
0.311853 0.094239 -0.008315 40 50 57
0.201539 -0.233108 -0.028833 115 116 110
-0.322124 -0.172816 -0.043255 115 117 108
0.360733 -0.206191 -0.021865 108 108 104
-0.288436 -0.314159 -0.043269 128 126 118
0.068810 0.380980 -0.015911 148 155 147
0.084221 0.125041 -0.026359 87 98 98
-0.208975 0.143217 -0.040420 106 111 101
-0.247583 0.422099 -0.006766 159 161 150
0.056684 -0.186904 -0.037817 71 72 66
0.385580 -0.102178 -0.022557 77 86 77
-0.073680 0.377347 -0.048820 129 137 126
-0.200516 -0.065951 0.194846 23 26 25
-0.249027 -0.177794 -0.042831 119 121 112
0.231410 0.420293 -0.027237 61 63 52
0.142478 0.016134 -0.024764 21 27 29
-0.043555 -0.008048 -0.041432 72 77 67
-0.366097 -0.019946 0.284919 68 68 68
0.327493 -0.070579 0.088001 54 64 71
-0.163781 0.249978 0.051037 132 140 129
-0.178778 0.129323 -0.039973 99 113 102
0.205576 0.159044 -0.018199 17 20 21
0.198657 -0.166521 -0.028064 69 59 59
-0.364541 -0.076848 -0.030846 67 80 63
0.099275 0.176412 0.067395 23 28 35
0.221674 0.215722 0.105947 127 141 132
0.272781 0.122959 -0.016104 29 34 39
0.363457 -0.116522 -0.021766 87 88 79
-0.349562 -0.131285 0.344434 79 104 109
0.271889 0.189585 0.072651 27 37 42
-0.247791 0.180216 -0.043310 118 120 109
-0.062491 0.069411 -0.034934 28 32 25
-0.166605 -0.291299 -0.042468 21 20 22
-0.124453 0.187287 -0.037596 105 112 104
-0.319541 0.182393 -0.049164 126 131 119
-0.019993 -0.246732 0.003012 96 97 93
-0.262633 -0.071555 0.278064 205 220 204
-0.001810 -0.220396 -0.006414 144 155 151
0.051318 0.510614 0.022224 146 154 143
-0.143209 0.219747 -0.039537 109 114 100
-0.256452 0.305382 -0.045351 138 143 131
0.122392 -0.255508 -0.032185 99 106 100
-0.085455 0.128586 -0.034809 93 103 91
0.204301 -0.037834 -0.018751 23 26 29
0.202495 -0.139304 0.086850 123 138 137
-0.107055 0.044972 -0.037439 100 105 93
0.121682 -0.176453 -0.031799 105 110 100
0.304842 -0.232227 -0.024205 113 110 107
0.349635 -0.142574 -0.019679 97 97 93
-0.271680 -0.223624 -0.041538 130 131 120
0.031027 0.239819 -0.033260 101 106 94
0.126630 0.211054 0.091571 46 63 68
0.000106 0.472799 -0.035778 142 144 135
0.016426 0.081726 -0.031106 22 17 13
-0.249334 0.511681 0.053574 157 155 147
-0.000611 -0.120595 -0.020871 119 130 128
-0.064395 -0.252747 0.008135 123 136 131
0.282679 -0.188472 -0.025684 100 105 95
-0.352610 -0.124023 0.359118 113 137 135
-0.350576 -0.118202 0.365065 126 150 152
-0.136656 -0.174143 0.004733 102 111 104
-0.098734 -0.130536 -0.026608 99 106 98
0.324110 -0.026841 0.043625 45 55 62
-0.198303 0.246950 0.056545 137 139 128
0.297660 0.187689 0.090965 29 39 42
-0.197610 0.249935 0.047179 134 142 129
0.330185 0.051961 0.079975 51 63 67
0.057145 0.234092 -0.030263 105 110 98
0.076354 0.450266 0.002982 156 166 154
-0.143087 0.427735 -0.049425 93 97 90
0.021673 0.384170 -0.039767 124 128 121
-0.173012 0.178026 -0.039728 120 118 108
-0.218307 -0.111277 0.197700 20 23 22
0.090212 -0.171763 -0.034692 98 105 97
-0.221153 0.373767 -0.047192 122 123 114
-0.100885 -0.032452 -0.042652 91 96 86
-0.039253 0.211398 -0.035159 118 126 113
0.321168 0.148543 0.025342 42 49 53
0.163147 -0.242657 -0.030247 104 111 105
0.123397 0.411604 -0.034301 109 110 97
0.162562 -0.148190 -0.029727 96 100 93
0.089304 0.520868 0.061025 134 141 133
0.140593 -0.078499 -0.024775 18 26 27
-0.238323 0.056557 -0.036621 106 111 97
0.249238 0.186436 0.028667 26 33 37
-0.258377 -0.229352 -0.040979 125 127 118
-0.012077 -0.207763 -0.009003 135 146 142
-0.179385 0.445975 -0.047771 105 107 96
0.376633 -0.174043 -0.021498 110 107 102
0.285787 0.177832 0.001564 27 34 40
-0.147824 0.526444 0.042669 153 155 144
-0.038892 0.061467 -0.034120 84 86 77
-0.175405 0.509040 -0.003484 145 147 136
-0.318899 -0.094158 0.351778 117 145 149
0.334319 0.527542 -0.022893 124 129 119
0.300149 0.360599 -0.024556 121 123 114
0.205146 -0.004438 -0.018650 16 29 28
-0.132577 -0.307396 -0.042895 108 112 105
0.123342 0.089553 -0.023426 29 35 37
-0.178812 0.024432 -0.038110 91 101 87
0.064099 0.208131 -0.027491 114 115 109
-0.257568 0.410968 0.055513 166 159 151
0.058585 0.022668 -0.033544 84 88 83
-0.196776 -0.199081 -0.045004 89 93 86
0.064113 0.137263 -0.028794 100 105 95
0.348032 -0.205334 -0.022150 2 2 4
-0.337453 -0.109105 0.365770 115 143 147
-0.224124 0.218253 -0.042664 122 124 111
-0.130042 -0.044111 -0.042272 34 38 31
-0.318521 -0.114461 0.338978 102 131 130
0.104776 -0.132324 -0.035131 100 102 91
-0.222313 -0.125919 0.148063 20 23 22
0.011349 -0.032413 -0.049083 85 89 82
0.115258 -0.021099 -0.016557 33 39 41
-0.256120 0.300071 0.040596 159 161 150
0.236451 -0.004473 -0.017211 19 25 27
-0.295431 -0.150221 -0.038873 69 69 63
0.162040 -0.057108 -0.023128 15 26 26
0.324930 -0.056365 0.069195 52 54 62
0.331118 0.109288 0.086225 55 62 68
0.030523 -0.103872 -0.006515 134 147 142
0.264024 -0.197880 -0.026577 104 106 97
0.084783 0.408136 0.028016 147 155 152
-0.267928 0.054585 0.021665 108 109 98
0.013457 0.260131 -0.009588 125 127 116
0.178554 -0.052642 -0.021651 20 26 26
-0.197157 -0.111317 0.174737 1 1 1
0.115145 0.212546 0.094967 52 64 66
-0.223142 0.206484 -0.042651 101 97 88
-0.011677 0.105871 -0.032060 87 91 84
0.122588 0.359574 -0.035938 102 107 95
-0.224657 0.008236 0.141506 19 26 20
0.021915 0.070527 -0.031289 101 109 98
0.186751 0.192250 0.025560 14 17 20
-0.299377 0.318529 -0.048113 115 123 110
-0.182520 -0.092696 -0.044211 105 110 100
0.135396 0.374108 -0.034004 83 83 77
0.018325 0.254827 0.022248 124 129 117
0.035907 -0.245783 -0.037208 101 103 94
0.062426 -0.233741 -0.035339 98 99 90
-0.184640 -0.132794 0.149546 0 4 0
0.184958 0.372501 -0.030727 100 105 95
-0.147160 -0.038680 -0.040668 65 66 55
-0.054000 -0.112713 -0.028468 113 126 123
0.320399 0.081238 0.010047 39 49 54
-0.256929 0.354364 0.059107 161 159 151
-0.047865 0.070064 -0.034345 82 84 75
-0.240795 0.519782 0.053625 156 154 144
0.186261 0.383373 -0.030834 103 105 94
-0.063925 -0.262385 -0.043518 108 112 105
0.273445 -0.225397 -0.026275 104 105 99
-0.167765 -0.109533 -0.044699 107 109 100
-0.004309 0.443694 -0.036219 128 137 128
-0.194082 0.259798 0.008441 133 141 128
-0.227074 -0.093027 0.240515 14 22 19
-0.187876 0.267273 -0.041504 116 113 99
-0.344884 -0.067799 0.354095 115 141 141
0.179660 -0.155139 -0.028891 98 102 97
0.325528 -0.187553 -0.023144 108 108 102
-0.116243 -0.011471 -0.040252 86 93 85
0.065729 0.320222 0.010973 150 154 149
0.337864 -0.058584 0.105379 68 73 82
0.258624 0.181582 0.003860 22 29 33
0.177766 0.014265 -0.021941 19 27 26
-0.024454 0.485997 -0.028442 142 147 137
-0.358988 -0.070151 0.360661 129 148 152
-0.146334 -0.027367 -0.039859 93 97 90
-0.247424 -0.109464 0.191035 14 15 6
0.324233 0.049534 0.025943 42 49 55
-0.263538 -0.272362 -0.042067 130 132 123
-0.264910 -0.314560 -0.042438 128 125 120
-0.046994 0.444386 -0.042182 130 135 125
0.227816 0.049753 -0.017941 20 26 26
-0.178703 -0.199055 -0.044880 116 121 111
0.302205 0.420166 -0.023268 104 95 86
0.296015 0.059543 -0.017980 34 41 47
0.365352 -0.188521 -0.021582 109 110 101
0.320043 0.360882 -0.022278 121 123 112
0.242143 -0.143119 -0.024461 81 85 78
-0.254413 0.250814 -0.043071 120 128 117
-0.182453 -0.099665 -0.044981 109 110 99
0.185256 0.198922 0.052092 24 34 39
-0.299376 -0.103555 -0.032821 109 114 104
0.314209 0.432756 -0.022098 116 117 108
0.093622 -0.109486 -0.038109 96 101 89
0.304218 0.057988 -0.015191 38 51 60
-0.301838 -0.156451 -0.039444 120 124 117
-0.005472 0.113221 -0.031382 93 97 90
-0.245462 0.446451 -0.016807 163 164 155
-0.325233 -0.218820 -0.048028 129 130 124
0.112733 0.429402 -0.032472 30 31 22
-0.289987 -0.265887 -0.044197 132 134 123
0.069951 0.487211 0.015757 159 168 159
-0.204058 -0.322578 -0.044311 127 127 121
-0.032025 0.472862 -0.041211 130 134 129
-0.074834 0.192185 -0.035533 105 110 98
0.398850 0.495692 -0.014397 129 130 117
-0.005638 0.049627 -0.033559 92 99 93
0.075010 -0.222236 -0.035189 105 108 107
-0.186344 -0.104202 -0.044524 110 115 105
0.069043 -0.150304 -0.036838 52 56 51
-0.261086 -0.175453 -0.041334 116 109 101
0.122925 -0.247977 -0.031836 112 113 107
-0.149157 0.415060 -0.049474 103 104 95
0.012142 -0.165253 -0.014468 141 154 151
0.029019 -0.162431 -0.007323 147 165 159
-0.189484 0.267053 -0.031728 127 135 124
-0.193021 -0.260877 -0.043733 71 75 68
-0.305095 -0.309129 -0.046644 129 130 124
0.256333 0.091624 -0.018008 13 19 19
-0.294485 -0.199839 -0.042367 120 120 116
-0.124533 0.511204 0.009751 144 149 139
-0.016088 -0.029449 -0.046221 76 85 76
-0.167835 0.131429 -0.039564 110 120 106
-0.181051 0.146718 -0.039944 104 112 99
0.074893 0.377601 -0.000548 156 161 151
-0.177119 0.076576 -0.038177 107 112 98
-0.065564 -0.268880 -0.042743 107 111 104
0.138816 0.088019 -0.026348 17 25 24
-0.169146 -0.293259 -0.042335 108 112 105
-0.076547 0.466988 -0.046588 131 135 128
-0.150109 -0.041098 -0.040841 56 56 52
0.205208 -0.184486 -0.028428 98 99 93
-0.009520 0.104177 -0.032032 88 93 83
0.263370 0.180778 0.006956 24 31 35
-0.172505 0.175849 -0.039764 116 117 106
-0.087472 0.038882 -0.037587 91 101 89
0.029759 0.242506 0.079275 135 144 137
-0.288340 -0.157170 -0.039908 119 126 118
-0.260801 -0.100631 0.270661 201 211 199
0.082912 -0.119155 0.088096 54 71 76
0.263372 -0.142740 -0.023517 85 92 86
-0.165584 -0.168387 -0.044445 141 145 138
0.139435 0.543442 -0.034177 110 111 105
-0.047455 -0.279179 -0.042920 112 116 111
0.335077 0.465199 -0.022439 119 117 109
0.312066 0.075886 -0.007551 37 51 55
-0.312944 -0.327774 -0.049328 133 133 127
-0.018880 -0.249919 -0.042802 62 63 59
0.218643 0.196917 0.101441 52 54 60
-0.335233 -0.124108 0.348554 100 121 127
0.120516 -0.205390 -0.031677 114 121 113
-0.041009 -0.258293 -0.043638 109 110 104
-0.216330 -0.272769 -0.043592 129 134 124
0.268684 0.132719 -0.016319 17 24 30
-0.316172 -0.119668 0.314830 55 50 46
-0.276828 -0.227734 -0.041776 126 128 119
0.267136 0.164237 -0.015884 19 26 30
0.152258 -0.046410 -0.022918 19 25 25
0.225169 0.145467 -0.017403 14 20 22
-0.084068 -0.129037 -0.027935 130 138 135
0.079217 0.020231 0.084615 103 111 108
0.043965 0.047014 -0.032286 81 90 81
-0.049094 0.047815 -0.035598 73 88 74
-0.056342 0.493215 -0.025886 141 146 136
0.254250 0.060975 -0.017870 16 22 24
-0.321344 -0.081449 -0.021602 115 115 109
0.251445 0.440703 -0.026549 107 111 104
-0.234012 -0.004980 0.185723 7 4 1
0.027983 -0.209326 -0.039736 77 86 77
0.115919 0.317313 -0.043226 72 80 79
-0.320303 -0.118344 0.335900 95 129 126
-0.139116 0.265847 -0.031350 126 131 119
0.139886 0.349337 -0.034309 106 114 99
-0.056442 -0.043320 -0.017886 123 134 130
-0.239913 -0.110039 0.234044 1 7 7
0.033426 0.180945 -0.031219 101 109 96
-0.265206 -0.098028 0.277146 167 174 168
