ply
format ascii 1.0
element vertex 1217
property float x
property float y
property float z
property uchar red
property uchar green
property uchar blue
end_header
-0.329957 -0.121457 -0.044105 116 120 113
-0.196183 0.253380 0.055057 138 143 131
0.132499 0.192782 0.113129 43 60 65
0.203385 -0.145614 0.114135 129 144 143
0.017417 0.520376 0.012745 147 152 142
0.229662 -0.116124 -0.021872 51 57 57
0.335404 -0.153537 -0.025624 104 101 96
-0.107014 -0.027891 -0.033766 89 94 82
-0.245836 -0.333668 -0.048059 31 31 31
-0.227184 -0.100308 0.234608 16 19 18
0.140592 0.134329 -0.021688 14 22 23
-0.203964 -0.161143 -0.041730 117 119 108
0.370631 0.571861 -0.020031 131 132 119
-0.240765 -0.074610 0.261084 35 38 37
0.130703 0.017352 -0.019599 19 27 28
0.022960 -0.090194 -0.025451 130 141 139
0.181059 0.014435 -0.020787 20 26 26
-0.330477 -0.121344 0.312492 46 47 43
-0.127240 -0.291981 -0.041321 75 76 67
0.332738 0.464152 -0.021849 107 112 102
-0.120728 0.262824 -0.011774 131 133 122
0.122240 0.077252 -0.019819 35 38 39
0.099400 0.303937 -0.023093 98 100 89
-0.204654 -0.085854 -0.039934 111 118 110
-0.312281 -0.308458 -0.049238 126 131 121
0.008017 -0.163218 -0.037115 139 147 146
0.179908 -0.236725 -0.030027 13 9 14
0.206512 0.061654 -0.023040 20 26 28
-0.343038 0.029890 0.236517 120 105 104
-0.105448 -0.104101 -0.041239 109 122 119
0.176616 0.120964 -0.026404 14 20 20
-0.145142 -0.249391 -0.042623 2 2 0
0.067578 0.147703 -0.022894 105 112 104
0.300739 0.096594 -0.013720 43 46 49
0.016631 0.114339 -0.028860 105 114 105
-0.118392 -0.135928 -0.042998 95 104 97
-0.203271 -0.197818 -0.041942 117 121 114
0.124679 -0.226664 -0.030268 112 117 107
0.140480 0.545221 -0.029520 125 127 118
0.332783 0.119005 0.039174 48 55 61
-0.101157 -0.290315 -0.041599 16 13 10
0.261831 0.451336 -0.019972 108 110 99
-0.200948 -0.005958 0.190561 22 28 28
-0.224764 -0.245048 -0.042570 127 134 126
-0.161390 -0.134702 -0.029307 106 121 118
-0.122614 -0.095441 -0.034622 115 118 117
0.058464 -0.169722 -0.033435 60 69 60
-0.306929 -0.100565 0.318636 81 85 80
-0.010426 0.259701 -0.026696 121 126 114
0.337466 0.309697 -0.011285 115 117 106
0.295597 0.539125 -0.026731 127 128 115
-0.030699 -0.276590 -0.040672 106 110 103
0.039158 0.472661 -0.034691 144 146 137
-0.012706 0.502949 0.050627 148 153 143
0.145878 0.049427 -0.023152 18 25 29
-0.265766 0.466990 0.048009 162 163 152
-0.324206 -0.033213 -0.041941 106 111 99
-0.160154 -0.297560 -0.042647 81 85 78
-0.303446 0.214737 -0.035696 136 137 126
0.080629 0.106818 0.112358 69 81 87
-0.189688 -0.302803 -0.042360 135 125 123
0.335883 0.307690 -0.012407 115 117 106
-0.056867 0.426485 -0.043714 121 125 118
-0.358279 0.004741 0.253983 66 68 59
0.102658 -0.262221 -0.030370 112 113 107
0.254271 -0.075406 -0.016303 15 23 24
-0.004054 0.059335 -0.027829 92 97 87
0.142505 0.522088 -0.029596 117 116 101
-0.225617 -0.028780 0.194452 58 63 53
0.030365 0.502355 -0.001114 147 149 140
0.222780 0.328363 -0.021745 46 38 37
-0.388646 0.040793 0.267391 73 74 70
-0.230951 -0.106494 0.188733 27 27 29
0.311073 0.052363 -0.008160 41 60 62
-0.199312 -0.085147 0.183711 18 26 25
-0.049709 0.149737 -0.031494 99 107 96
-0.211763 -0.101321 0.153467 22 23 17
0.217601 -0.234779 -0.029029 105 107 98
-0.297139 -0.179327 -0.045387 54 54 50
0.314751 0.167389 0.037681 43 50 56
-0.056328 -0.172653 -0.040238 129 140 138
0.230642 0.159175 -0.012857 13 19 19
0.115702 -0.217066 -0.032317 111 112 103
0.149891 -0.138927 -0.029583 84 88 83
-0.043948 0.246732 0.081331 135 147 137
0.084294 0.499121 0.044801 157 164 156
0.128453 -0.252837 -0.032912 90 90 90
-0.107107 0.419558 -0.046326 99 100 91
0.077458 -0.116056 0.103217 62 72 77
-0.210461 0.142684 -0.036480 99 107 94
0.329546 0.110673 0.038524 48 55 63
-0.223443 -0.185090 -0.041636 114 122 111
-0.293323 -0.268619 -0.048734 135 133 125
-0.041917 0.236450 -0.031053 108 110 97
0.255797 -0.101291 0.024496 32 37 42
0.346359 0.521614 -0.019478 130 131 122
-0.289040 -0.298504 -0.048301 127 131 126
0.255737 -0.062252 -0.018104 19 25 27
0.050333 -0.010502 -0.027849 77 81 74
-0.072396 -0.273258 -0.041853 115 116 110
0.345181 0.572165 -0.023810 131 132 121
-0.275206 -0.324300 -0.047893 128 129 123
0.115922 -0.136248 0.083490 57 64 70
-0.338409 -0.301130 -0.049077 128 130 121
0.288244 -0.149736 0.112186 54 61 67
-0.097723 0.061404 -0.033601 44 46 37
-0.074691 0.508075 0.036172 148 152 145
-0.214296 -0.086074 0.235390 58 65 57
-0.324371 -0.234888 -0.048091 126 133 125
-0.053713 0.369918 -0.043906 125 133 120
-0.234664 -0.084237 -0.017458 31 31 31
-0.153315 0.640220 -0.038589 153 158 146
-0.253830 -0.323493 -0.047781 128 135 129
-0.180667 -0.220712 -0.044227 123 124 115
0.163437 0.190170 0.114740 51 63 65
-0.058733 -0.122312 -0.039240 119 134 129
0.253776 0.053570 -0.014793 14 20 20
-0.223840 -0.216312 -0.041941 120 127 119
0.323618 0.001005 0.118930 66 80 86
0.333905 -0.074223 0.111413 67 69 77
-0.002305 0.137919 -0.027918 99 104 94
0.231454 0.438873 -0.023444 108 109 96
0.173075 -0.188723 -0.028322 98 107 100
0.050483 0.495064 -0.000379 145 153 142
0.332135 -0.224196 -0.025961 114 111 106
0.046448 -0.176912 -0.033137 61 63 54
0.009386 -0.008619 -0.028984 84 94 82
-0.177856 0.174028 -0.038766 111 119 108
-0.154680 0.007979 -0.035321 97 98 92
0.378676 0.604175 -0.023432 130 131 120
0.037610 -0.228908 -0.035322 79 83 76
0.215232 0.175388 0.006015 12 18 20
0.331882 0.094506 0.051811 47 57 64
-0.322721 -0.106610 0.325032 110 134 136
0.170235 -0.248829 -0.030769 99 103 98
0.139510 -0.265788 -0.032748 107 112 102
-0.283602 -0.101293 0.293236 67 74 68
-0.312636 -0.211915 -0.046706 94 91 86
-0.188716 0.510627 0.003208 148 149 138
0.373564 0.376361 -0.016423 112 114 105
-0.251712 0.180784 -0.041960 119 120 109
-0.039684 0.516101 0.031413 150 152 143
0.067115 0.007961 -0.027285 89 89 83
0.040547 0.493014 -0.003797 145 150 140
0.352625 -0.189887 -0.026555 106 109 110
-0.044410 0.268289 0.010589 131 136 126
-0.338559 0.043041 0.227542 162 107 115
0.229021 0.625962 -0.026897 121 126 114
0.321044 -0.075084 0.053928 48 53 58
-0.224931 0.145943 -0.039490 104 111 103
-0.090324 0.242546 0.075948 131 138 130
0.256790 0.482458 -0.022003 99 109 93
-0.144742 -0.233414 -0.043699 116 116 110
0.261768 -0.050680 -0.017365 22 25 28
0.325765 0.324650 -0.018924 116 118 105
-0.186590 -0.132548 -0.039787 109 113 108
0.244583 0.624996 -0.025184 127 128 117
0.082831 -0.191879 -0.030440 103 105 94
0.311683 -0.141803 -0.024720 89 89 85
0.307494 0.191578 0.116891 56 63 69
0.248087 0.438891 -0.022042 30 26 19
0.155059 0.019541 -0.017860 17 27 30
0.335590 -0.177603 -0.024786 110 111 102
0.202325 -0.136714 -0.026467 91 95 88
-0.023135 0.014222 -0.029569 78 86 75
-0.014638 0.488931 -0.022857 144 146 137
-0.335507 -0.126939 0.308508 37 38 32
0.199639 0.115633 -0.019132 18 24 26
-0.277389 0.309615 -0.037316 142 144 133
-0.392611 -0.008821 0.266242 52 55 54
0.345943 0.624508 -0.021124 129 131 122
-0.247065 -0.291428 -0.046159 91 90 90
0.038166 -0.187103 -0.030804 65 65 61
0.046449 0.222275 -0.026609 109 111 102
0.235386 -0.181043 -0.026464 101 102 96
0.132262 0.412444 -0.026261 53 51 43
-0.132100 -0.019038 -0.034759 91 95 88
0.254906 0.144513 -0.015977 16 19 22
-0.164570 0.253795 -0.036215 126 125 110
-0.312977 -0.049956 0.299732 134 138 131
0.215720 0.389839 -0.017073 102 104 93
0.322394 -0.001531 0.013762 44 49 56
-0.130543 0.101348 -0.034343 17 22 12
-0.230205 0.344614 -0.031284 150 157 151
-0.141580 0.075996 -0.035057 97 107 93
-0.252842 -0.088766 0.273241 45 46 40
0.013517 0.169878 -0.027525 107 117 105
-0.124667 -0.144431 -0.041731 74 78 71
-0.125586 0.471316 -0.045353 112 114 105
-0.267305 0.270416 -0.039826 138 143 133
0.247431 -0.036943 -0.018226 18 26 27
0.062466 0.412016 -0.038938 152 162 148
0.195832 0.145315 -0.020540 14 22 21
-0.050673 -0.242401 -0.031488 119 127 124
-0.181834 0.022706 -0.035883 98 100 91
-0.277524 -0.135063 -0.042404 120 120 114
-0.018280 0.224848 -0.030738 114 122 109
-0.259434 0.315435 0.024942 158 160 147
0.355336 0.070554 0.071284 72 74 84
-0.137783 -0.281902 -0.041377 116 117 106
0.143111 0.381327 -0.024243 33 34 25
-0.214612 -0.080792 -0.039078 108 112 105
-0.280233 -0.159291 -0.044515 125 127 118
-0.214072 -0.074428 0.199501 18 24 22
-0.090396 -0.102578 -0.042429 112 127 124
-0.263238 -0.337897 -0.049813 114 121 113
0.106536 -0.183577 -0.033870 112 114 103
0.266972 -0.125037 0.017749 123 138 135
0.011982 0.448881 -0.034484 126 134 123
-0.136151 -0.130832 -0.036945 97 109 99
0.277556 0.182667 0.027136 28 34 36
-0.023227 0.363129 -0.043202 121 128 122
-0.087799 -0.158878 -0.044475 123 136 131
-0.071595 -0.117763 -0.039237 121 129 128
-0.129501 -0.130830 -0.038393 80 80 80
0.190305 -0.164789 -0.028132 95 100 90
-0.041183 -0.100171 -0.037476 116 124 125
-0.312839 0.311830 -0.037419 145 146 133
0.252020 0.390324 -0.020330 105 110 98
-0.082168 0.273263 0.008599 133 138 128
0.110666 -0.133017 -0.028752 103 107 102
0.286173 0.188413 0.098834 32 39 43
0.131944 -0.195871 -0.029647 100 101 97
-0.159695 -0.043487 -0.035212 39 46 40
-0.268701 -0.067997 0.284637 153 157 150
0.316940 -0.043144 0.012230 44 49 56
0.077056 -0.027158 -0.024928 79 83 78
0.049724 0.101788 -0.024228 92 96 91
0.309190 0.063514 -0.003337 44 58 62
0.323592 0.066608 0.110709 52 64 66
-0.181980 -0.019580 -0.038665 98 103 93
0.267062 -0.129398 0.094406 43 53 58
-0.035538 0.177897 -0.032079 101 109 94
0.212754 0.041910 -0.020367 18 26 25
-0.144970 0.050777 -0.036002 99 104 92
0.086064 0.193465 -0.007605 90 90 90
-0.005476 -0.237428 -0.039131 80 80 76
-0.085238 0.381099 -0.043578 120 127 119
0.077803 -0.242310 -0.032043 0 1 0
0.070957 0.459260 -0.033398 162 166 159
-0.295319 0.150827 -0.039156 132 130 118
0.171980 0.196702 0.120100 124 142 138
-0.155681 0.508385 -0.009595 146 148 137
-0.302073 -0.112120 0.300109 59 59 55
-0.336314 0.015652 0.268643 104 133 134
-0.212550 0.478836 -0.035763 144 146 133
0.077488 -0.017741 -0.024809 71 79 78
-0.191423 -0.227779 -0.043004 130 134 127
-0.286240 0.174241 -0.036658 132 135 119
0.302225 0.372492 -0.019274 84 81 76
0.245874 -0.214950 -0.026869 36 30 32
0.323542 -0.184010 -0.027200 105 112 104
0.049183 0.007770 -0.026201 77 84 76
-0.142865 0.498091 0.059119 155 156 145
0.326671 -0.111514 -0.022108 53 61 60
0.129630 0.050593 -0.024178 22 25 26
-0.238640 0.393388 -0.049205 145 150 136
-0.057828 0.063623 -0.029877 85 92 84
-0.046790 -0.246208 -0.039937 119 121 112
-0.074895 0.030649 -0.031983 88 90 81
0.343798 0.423020 -0.021432 121 129 114
0.241567 0.106472 -0.020932 18 26 25
0.295234 0.147172 -0.013154 40 47 53
0.229776 0.153977 -0.015482 17 20 21
0.049207 0.519385 0.015837 145 152 144
0.135128 0.161038 -0.017307 25 21 24
-0.071207 0.259921 -0.005786 130 135 125
-0.109918 0.499492 0.054950 149 151 142
-0.250901 -0.084047 0.265851 29 35 33
-0.320925 -0.202002 -0.046287 132 134 123
-0.096131 0.191407 -0.034387 58 66 55
-0.149510 -0.255472 -0.039430 112 117 107
0.130218 0.005708 -0.019534 17 24 28
0.299638 -0.117145 0.067948 41 48 56
-0.176092 -0.055332 -0.037226 90 100 88
-0.270513 -0.100718 0.282348 166 171 161
0.247890 0.178405 0.009058 25 28 31
-0.211677 0.378568 -0.046975 112 114 103
-0.025157 0.260886 -0.019403 122 127 115
0.129498 0.179925 0.011351 15 18 21
0.136792 -0.016189 -0.022940 16 26 29
0.387460 -0.226638 -0.025175 93 101 100
-0.146856 -0.059829 -0.034947 103 104 95
-0.263814 -0.082025 0.285072 146 140 125
-0.227632 -0.170898 -0.041121 76 77 68
0.205807 -0.053399 -0.019896 22 25 28
-0.194921 -0.056506 -0.003731 4 8 3
-0.235861 -0.160410 -0.041526 124 126 117
0.143384 0.129744 -0.023979 15 21 19
-0.306435 -0.315057 -0.048079 123 127 122
-0.025363 -0.194563 -0.041420 128 136 135
0.013877 0.258196 0.006506 123 128 116
0.019681 -0.090395 -0.026702 126 137 135
-0.247340 -0.276271 -0.046260 129 131 120
-0.318743 -0.114026 0.313699 60 59 59
-0.291632 -0.291361 -0.048590 126 120 122
-0.212919 -0.086768 0.234424 35 42 34
-0.060628 0.199478 -0.034823 51 52 41
0.052306 0.136774 -0.024684 100 104 97
0.161820 0.062561 -0.018695 19 26 30
0.120541 0.174822 0.002207 15 21 21
-0.049559 -0.050808 -0.028126 123 136 135
0.324006 0.072361 0.113932 62 64 70
0.058168 0.148709 -0.024313 98 108 94
-0.084679 0.241710 0.075751 131 136 126
-0.324989 -0.249798 -0.046416 131 132 128
0.311347 0.116686 -0.008502 43 53 56
-0.063508 -0.185213 -0.041529 128 139 137
-0.169317 0.083266 -0.035785 89 91 82
0.308425 -0.220679 -0.026797 106 110 103
-0.296304 -0.206006 -0.045154 85 78 70
-0.141556 0.251309 0.067517 139 141 130
0.271402 -0.165408 -0.024381 95 96 92
0.085539 -0.054613 0.106400 42 54 56
0.386936 -0.162471 -0.022736 98 102 95
-0.302546 0.211011 -0.036927 135 140 128
0.236163 0.373409 -0.020028 110 111 102
-0.238307 0.197125 -0.040858 124 125 116
-0.018862 -0.210204 -0.045332 131 142 140
0.002463 -0.194230 -0.041875 148 159 157
-0.141794 -0.022965 -0.034644 91 96 86
0.047493 -0.014531 -0.028667 80 85 75
-0.015864 0.353783 -0.039288 131 139 126
-0.173622 -0.071535 -0.037430 105 107 98
0.015130 0.487959 -0.017171 142 150 139
0.218831 -0.068939 -0.019182 25 25 27
-0.323961 0.263222 -0.040851 137 138 129
0.063322 -0.061465 -0.028935 64 71 65
0.346911 -0.111035 -0.022463 62 62 64
-0.229140 -0.064727 0.256278 27 26 26
-0.330460 0.217057 -0.040633 108 103 101
-0.246988 0.337020 0.082580 154 156 147
0.221739 0.432933 -0.025603 103 108 96
-0.008850 -0.186859 -0.040581 130 143 138
-0.223943 -0.038242 0.205480 22 26 21
-0.183269 -0.222852 -0.043988 121 126 116
-0.009829 -0.286508 -0.039118 111 108 105
-0.212386 -0.124322 0.193023 93 94 88
0.345148 -0.172807 -0.024414 98 106 95
-0.073547 0.514329 0.060597 152 153 144
0.142950 -0.136940 -0.029312 2 2 0
-0.337692 -0.117286 0.323670 88 123 126
-0.151000 0.022630 -0.035143 98 103 91
0.018371 0.215611 -0.029415 101 113 103
-0.123839 -0.016154 -0.033163 85 90 80
-0.090438 -0.225643 -0.048649 99 105 105
0.298400 -0.172941 -0.026092 107 112 98
-0.183556 -0.006255 0.174588 79 81 70
-0.230887 -0.125368 -0.039378 62 60 52
-0.388881 -0.004663 0.266271 22 19 16
0.252678 0.183124 0.111428 35 40 45
0.164891 -0.035015 -0.022386 24 26 32
-0.198316 0.506863 0.061881 157 155 145
0.270466 0.003021 -0.014510 33 41 42
0.311579 -0.042748 -0.002151 46 51 60
-0.363165 0.048030 0.259346 120 144 146
0.302675 -0.039309 -0.011952 44 54 61
0.074579 -0.045698 -0.026144 58 64 62
0.322279 -0.096820 0.051199 46 56 63
0.195609 0.374913 -0.023957 112 113 102
0.122969 -0.142343 0.107283 56 63 67
-0.318826 -0.077320 -0.043465 112 117 105
-0.288923 -0.081971 -0.040414 106 111 101
0.382600 -0.146948 -0.024054 11 12 3
0.083430 0.260906 0.083228 142 144 133
-0.265700 0.242156 -0.038189 148 153 143
-0.221149 -0.065575 0.239733 21 20 20
0.299551 0.093091 -0.015394 35 40 47
0.298346 -0.141011 -0.024529 94 98 91
0.169266 0.148694 -0.021159 12 18 18
0.138005 -0.232064 -0.029602 117 115 107
-0.050143 -0.273996 -0.040889 116 116 110
-0.010827 0.109713 -0.027086 90 97 89
0.191436 -0.159762 -0.027896 95 99 94
-0.009304 0.271252 0.004424 127 134 126
-0.015259 0.511519 0.044547 153 155 146
-0.086217 0.230721 -0.033581 115 117 104
0.329629 0.528599 -0.022113 129 130 117
0.290150 -0.210353 -0.025835 5 0 0
-0.362524 0.000904 0.257862 66 66 60
0.115479 0.055140 -0.018728 26 34 35
0.364830 -0.194291 -0.024469 111 111 105
-0.114225 0.148136 -0.033377 101 106 96
0.020804 0.269358 0.016185 131 133 122
0.267517 0.571149 -0.033358 124 125 112
0.092566 0.321425 -0.018432 65 63 55
0.226918 0.359213 -0.021085 103 105 94
0.154974 0.535197 -0.030877 108 116 105
0.272518 -0.117227 -0.019444 54 53 60
-0.178847 0.495275 -0.034943 141 142 131
0.342453 -0.069548 0.093377 68 73 80
-0.374860 0.043574 0.261463 112 138 138
0.341790 -0.112059 -0.022165 65 65 65
-0.206480 -0.109876 -0.039639 115 117 108
0.005381 0.024793 -0.027154 46 43 40
0.027544 0.203955 -0.026227 69 66 61
0.356509 0.451350 -0.016187 120 128 115
0.350670 0.182488 0.094492 70 81 79
0.312160 0.171982 0.039690 42 47 54
0.336312 0.626926 -0.019745 122 130 117
0.308733 -0.177174 -0.027344 103 107 100
0.087418 -0.122061 -0.028858 101 105 98
-0.298979 -0.126659 -0.042798 27 23 14
-0.160202 -0.097319 -0.039594 84 89 77
0.214659 0.329272 -0.022075 56 49 43
-0.223505 -0.206572 -0.041640 125 133 122
-0.305108 -0.105197 0.310876 72 72 66
-0.174436 -0.020733 -0.037037 93 98 88
-0.220432 -0.133196 -0.041500 117 124 116
-0.171422 0.139845 -0.032723 109 110 101
-0.009114 0.100295 -0.028644 89 91 82
0.092639 0.623760 -0.030658 152 150 142
0.042817 -0.085910 -0.026824 56 59 58
-0.336167 -0.028425 -0.040660 115 117 106
-0.348637 -0.069763 0.347758 118 147 148
-0.196441 -0.238201 -0.043101 119 126 118
0.075945 -0.028367 0.072701 80 94 100
0.359820 -0.231111 -0.027613 110 107 104
-0.360188 -0.013619 0.027886 74 78 71
0.330929 0.413953 -0.020465 128 130 121
-0.015211 -0.137569 -0.035863 128 139 135
0.083593 -0.238094 -0.032847 110 112 103
0.192068 -0.229944 -0.030555 105 112 104
-0.041472 0.448784 -0.039277 131 136 126
-0.162076 -0.198492 -0.041562 97 97 91
-0.353467 -0.001677 0.248081 56 60 53
0.130808 0.445875 -0.024140 112 113 100
-0.205051 -0.014240 0.197106 12 14 5
0.123181 0.053442 -0.020272 35 38 37
0.239108 -0.143431 -0.025452 88 89 85
0.146113 0.124914 -0.025833 15 21 23
-0.042421 -0.244210 -0.038255 134 142 139
-0.145927 0.016271 -0.036427 96 101 91
0.323147 0.091316 0.116249 59 61 69
-0.272565 -0.183243 -0.045063 124 128 121
0.005709 0.250957 0.054916 130 135 125
-0.143695 0.204027 -0.037512 107 114 106
-0.290332 -0.091107 0.304694 83 84 80
0.315332 -0.054307 -0.002335 40 50 55
0.328937 0.055320 0.087745 53 63 70
0.204475 -0.229501 -0.029191 109 110 104
0.258091 0.452045 -0.021859 101 103 90
0.278561 0.081586 -0.017206 35 42 48
-0.349147 0.053160 0.250437 117 140 145
-0.140090 0.412534 -0.047315 101 103 94
0.247122 -0.035481 -0.017406 10 21 21
0.159699 -0.157714 -0.026669 95 99 94
0.128492 0.583229 -0.031113 110 112 101
0.150468 0.058515 -0.023515 19 27 28
0.127202 0.375988 -0.025477 105 106 93
-0.073474 0.499708 -0.015810 142 150 139
0.040142 0.356975 -0.040217 128 132 127
-0.131230 0.432890 -0.045671 96 98 89
-0.220817 -0.089038 0.238330 22 22 22
-0.001033 0.010823 -0.029523 92 99 91
-0.146995 0.517384 0.004026 146 147 134
0.393272 0.371442 -0.014070 89 87 79
-0.105018 0.385238 -0.044362 102 103 90
0.148872 0.531918 -0.032126 57 53 46
0.191675 0.164013 -0.009188 15 21 23
-0.222943 -0.117886 0.190638 21 28 22
0.286892 0.135897 -0.015155 35 38 41
0.124158 -0.258382 -0.030850 107 111 104
0.357899 -0.130104 -0.024582 94 99 87
0.345295 -0.175881 -0.024704 105 107 98
0.339843 0.075341 0.110978 74 76 84
0.123416 -0.153804 -0.029546 82 82 82
0.247816 -0.076297 -0.017360 20 22 28
0.013340 0.158276 -0.026864 110 123 110
0.043778 0.056524 -0.026945 91 92 86
0.323029 0.163559 0.040099 41 51 56
0.016935 0.473372 -0.031945 137 146 137
0.015982 0.466154 -0.033695 134 141 133
-0.146721 0.264050 -0.027931 121 131 115
-0.116940 0.271809 0.006437 131 139 128
-0.070839 -0.149457 -0.008857 28 34 32
-0.213251 0.011014 -0.037487 102 103 92
-0.012393 0.189775 -0.032070 113 114 105
-0.318277 0.294802 -0.037207 144 145 132
-0.339416 -0.117332 0.325367 96 119 124
0.312125 0.002438 0.003115 49 54 61
-0.038015 0.075084 -0.028088 85 92 86
-0.013259 0.049259 -0.027722 79 88 79
0.164905 -0.204488 -0.027681 107 108 102
-0.353953 0.014014 0.247420 58 63 53
0.149524 0.169976 -0.008607 14 20 20
0.296854 -0.141949 0.116243 65 75 78
0.037359 0.191021 -0.027770 93 94 88
0.079435 -0.019338 -0.024563 74 88 90
0.150436 -0.187803 -0.029469 109 112 111
-0.216660 0.504687 0.048956 158 156 146
-0.297117 -0.143484 -0.044210 74 74 68
-0.352062 -0.081702 0.347378 116 144 150
0.214647 0.380372 -0.018651 108 108 102
-0.039067 0.198336 -0.032937 108 113 103
-0.000661 0.083217 -0.028780 100 110 98
-0.282341 -0.075233 0.300676 77 79 70
0.031493 0.179013 -0.028754 106 114 103
0.341353 0.457811 -0.021699 129 132 116
0.384235 -0.123842 -0.023716 78 81 80
-0.156433 0.243631 0.069842 136 140 133
-0.248002 -0.092273 0.260659 23 29 29
0.282973 0.604002 -0.028737 124 127 111
0.079672 0.072739 0.070615 111 119 118
0.196408 -0.227852 -0.029393 112 113 107
-0.105887 -0.139422 -0.046421 112 113 109
-0.152297 -0.257307 -0.040451 112 119 111
0.147150 0.645739 -0.026211 125 128 112
-0.387145 -0.109470 0.267128 56 54 46
0.208054 0.571523 -0.030134 126 127 114
0.332477 0.119069 0.068731 52 59 67
-0.227155 0.022250 -0.037459 98 100 89
-0.158903 -0.125290 -0.030055 109 124 123
0.178226 -0.206546 -0.028868 0 1 0
0.060388 -0.279340 -0.034416 96 96 96
0.060491 -0.065626 -0.028968 63 70 64
0.241592 -0.127860 -0.026187 66 67 61
-0.155117 -0.206629 -0.042988 28 23 21
0.134359 0.363542 -0.024160 112 111 96
-0.350497 -0.106176 0.342826 113 135 138
-0.203436 0.456710 -0.043889 107 112 102
0.258456 0.187863 0.087130 27 38 38
0.271155 -0.148779 -0.026523 93 94 88
0.219705 0.546911 -0.026477 87 88 82
0.393580 -0.227142 -0.024613 112 112 106
0.012920 0.242497 0.083115 143 150 142
0.129269 0.401848 -0.027322 106 107 96
0.203425 0.525817 -0.027084 115 116 103
0.150294 0.505535 -0.028577 82 83 74
0.225250 0.187076 0.073874 35 38 41
0.310282 -0.062520 -0.006926 43 53 56
-0.268666 -0.210633 -0.045524 82 86 81
0.234349 -0.124527 -0.024874 80 83 84
-0.301194 0.269284 -0.038656 131 136 126
-0.329593 -0.088364 0.343874 119 147 151
-0.195783 -0.244828 -0.041086 131 132 121
-0.276493 -0.165530 -0.044295 126 130 123
0.305680 0.520057 -0.022256 128 130 117
0.033564 0.634905 -0.028276 143 144 133
-0.115730 -0.133247 -0.044368 86 93 87
-0.037498 -0.109966 -0.037817 111 124 121
-0.152191 -0.241236 -0.042907 117 118 112
-0.280196 0.144951 -0.039048 122 124 113
0.284827 0.173088 0.016876 22 28 30
0.327069 -0.097499 0.051093 47 52 61
-0.129822 -0.197040 -0.043121 98 106 103
0.256206 0.391470 -0.020558 102 107 93
0.302486 -0.154665 -0.025601 103 104 95
-0.056597 0.187699 -0.033124 112 114 98
-0.325081 -0.100521 -0.044131 122 123 110
0.046635 0.468177 -0.037223 139 141 132
0.388117 0.498097 -0.020154 49 49 43
0.203225 -0.160668 -0.028720 95 100 90
0.162830 0.001431 -0.021152 21 29 30
0.366974 0.346199 -0.015258 118 119 108
-0.266653 0.461478 0.044921 164 160 151
-0.005608 -0.284152 -0.040102 109 110 101
-0.154998 0.038899 -0.036903 93 100 94
-0.225502 0.438749 -0.045878 134 136 120
0.208407 0.190470 0.069514 25 35 38
-0.207086 0.423867 -0.049681 106 107 96
-0.111031 0.473607 -0.037800 123 123 117
0.396311 0.619280 -0.021887 131 132 123
0.145248 -0.224444 -0.030794 2 3 0
0.234999 -0.221563 -0.026250 98 102 95
-0.019270 -0.081062 -0.033984 125 136 134
-0.324887 -0.022804 -0.003432 20 19 21
-0.222008 -0.116331 0.190934 0 2 0
0.067370 0.374347 -0.040865 151 155 150
0.357739 0.549007 -0.021060 71 66 64
0.046682 -0.159270 -0.031272 50 54 49
-0.199974 0.373598 -0.047498 110 112 103
-0.326908 -0.115428 -0.044172 114 121 113
-0.033722 0.271577 0.015845 131 133 122
-0.076676 0.502499 0.046522 152 153 142
0.130997 -0.026525 -0.023274 20 26 28
-0.106281 0.510860 0.028641 152 153 142
0.118886 -0.001822 -0.020574 30 40 43
-0.333112 -0.056418 0.323960 119 137 135
0.318918 -0.133551 0.111438 63 76 85
0.084031 -0.054956 0.106499 50 62 64
0.232459 -0.227964 -0.026966 105 106 102
-0.254884 0.363099 -0.022294 155 157 146
0.074970 -0.094918 0.100169 66 76 83
-0.281837 -0.269642 -0.048763 135 137 126
-0.008545 -0.293189 -0.031690 26 22 25
-0.198139 -0.107542 0.155964 0 4 2
0.092021 -0.125978 0.104210 34 41 45
0.257517 -0.116607 -0.019632 39 45 45
0.239316 0.188861 0.055924 26 33 37
-0.041546 0.264423 0.006982 127 132 122
0.274967 -0.090915 -0.003554 39 47 48
0.179359 0.072751 -0.019905 17 25 26
-0.311882 -0.334862 -0.049423 45 25 28
-0.032901 -0.251492 -0.039494 94 102 89
0.084392 -0.011972 0.109098 57 64 68
0.002176 0.180064 -0.026086 114 122 109
0.293827 0.348178 -0.016546 125 123 115
0.299714 -0.211777 -0.025510 80 80 76
-0.119737 0.061164 -0.033968 98 103 93
-0.038577 -0.061967 -0.031829 127 135 132
-0.334288 -0.156114 -0.048618 54 55 51
-0.048398 0.249792 -0.028143 94 102 89
0.155487 0.140914 -0.024052 15 21 23
-0.312473 0.211266 -0.037046 134 135 124
0.115422 0.367309 -0.024580 93 95 86
0.293816 0.486684 -0.023165 129 130 117
-0.076353 0.440218 -0.045426 132 133 127
0.380269 0.303528 -0.013130 117 119 108
0.068230 -0.113972 -0.033447 67 71 66
-0.363512 0.032166 0.257046 49 62 57
0.070530 0.184413 -0.023818 71 73 64
-0.215186 0.263651 0.060288 150 155 143
0.134244 -0.163765 -0.027705 99 103 96
-0.292922 -0.102770 0.301889 68 74 72
0.227999 0.131261 -0.017607 14 20 20
0.040082 0.116323 -0.023507 103 107 102
0.229070 -0.122263 -0.024451 69 73 66
-0.314892 -0.331004 -0.049546 126 137 133
0.266153 0.162844 -0.006016 33 43 48
0.397217 0.571914 -0.019495 131 129 119
0.083172 0.129469 -0.023123 95 98 101
0.032657 -0.021257 -0.028675 76 76 70
-0.058094 -0.059767 -0.033127 120 133 130
-0.349181 0.045690 0.250835 111 141 146
0.110456 0.351564 -0.022504 85 81 74
0.395325 0.554889 -0.020722 129 133 126
0.078362 0.125174 -0.024946 111 118 110
0.237297 0.191446 0.115558 50 60 65
0.322569 0.134225 0.006174 51 53 61
0.307288 -0.150550 -0.025600 98 102 95
-0.248766 -0.117583 -0.040988 116 117 111
-0.305495 0.199786 -0.038913 128 136 125
0.258772 0.638369 -0.028614 123 115 112
-0.209842 -0.101988 0.191493 0 5 3
-0.132433 -0.301703 -0.041599 112 113 104
0.334139 0.148001 0.118477 68 79 77
-0.047052 -0.113156 -0.039008 116 124 121
0.038789 -0.095591 -0.021351 50 51 47
0.279296 -0.080024 -0.019814 39 44 49
0.268717 0.451570 -0.021578 110 111 100
0.337368 0.331231 -0.017556 57 44 31
-0.378753 0.011877 0.267493 69 66 61
-0.228665 0.498215 0.013832 152 153 140
0.178671 0.539385 -0.029161 117 118 105
-0.039983 0.225751 -0.032183 103 116 103
0.022042 -0.205686 -0.032296 121 128 122
-0.289373 -0.191735 -0.044050 117 124 116
-0.071876 -0.018575 -0.034650 73 85 77
-0.043153 0.519556 0.018742 150 152 143
0.085237 0.427712 0.078712 137 150 145
-0.265296 0.270587 -0.039448 144 149 139
0.106257 0.159833 0.018201 19 26 30
0.037154 -0.095856 -0.021495 77 78 74
-0.206839 -0.025216 0.109849 106 111 101
-0.059417 0.499159 -0.026757 143 148 136
0.040374 -0.080587 -0.028134 2 2 2
0.219131 0.137676 -0.021154 14 20 22
0.356221 0.368141 -0.014109 119 120 114
0.390872 0.577076 -0.020311 67 65 57
0.344570 0.356540 -0.015711 63 63 59
-0.294684 -0.177031 -0.045825 127 126 126
0.180985 0.033380 -0.019911 24 27 30
0.021181 0.183971 -0.029389 108 116 105
0.283046 0.231712 0.068086 57 64 68
0.191008 -0.241130 -0.027938 110 114 107
-0.193677 -0.106143 -0.038151 90 88 78
0.319011 0.191110 0.118319 59 69 72
-0.173511 -0.174359 -0.040616 119 120 109
0.253370 -0.197765 -0.029005 102 103 92
0.329469 0.148663 0.071857 42 54 56
-0.154599 -0.305609 -0.041441 111 111 105
0.067136 -0.130026 -0.032126 51 55 48
-0.327680 -0.022335 -0.041567 109 111 102
-0.237709 0.502123 0.024643 153 151 141
-0.300075 -0.238752 -0.046878 131 133 124
0.176636 0.431425 -0.023470 110 115 103
0.317980 0.310682 -0.018997 120 121 108
-0.236999 0.025626 -0.036115 94 99 89
0.078054 0.016768 -0.024668 84 92 89
-0.170450 -0.255618 -0.042038 122 127 115
0.325948 -0.103863 0.071602 45 52 58
0.120279 -0.000056 -0.019588 35 38 39
0.324906 -0.020639 0.072975 48 58 63
-0.253217 -0.092391 0.271783 102 103 97
0.382932 -0.127146 -0.024705 12 8 9
-0.073592 -0.191725 -0.042575 123 136 133
-0.274115 -0.134679 -0.041624 122 124 115
0.324573 0.144299 0.108114 55 60 67
0.160867 -0.252202 -0.029197 14 17 20
0.221239 -0.225312 -0.027457 107 111 104
-0.234911 -0.104891 0.234637 8 11 10
0.054296 0.359422 -0.039167 147 148 144
0.019834 0.636813 -0.030324 145 147 138
0.322073 -0.017739 0.114731 58 63 72
-0.054548 -0.093448 -0.038546 119 130 126
-0.128876 0.136522 -0.034119 49 50 41
-0.214811 -0.208271 -0.041468 71 68 63
-0.235793 0.130297 -0.036196 114 112 100
-0.211926 -0.020291 -0.037556 100 108 97
0.191666 0.326870 -0.019065 44 41 38
0.320437 0.142683 0.001177 57 59 65
0.034975 0.042650 -0.026962 106 110 103
-0.228127 0.227192 -0.039506 82 84 75
-0.029703 0.481760 -0.034578 140 144 137
-0.121669 -0.271518 -0.041328 110 112 103
-0.231074 0.370575 -0.049401 133 141 128
0.032255 0.212669 -0.027373 115 116 107
-0.278443 -0.190900 -0.045615 124 125 119
-0.140769 0.130127 -0.035095 108 113 103
-0.160063 -0.264452 -0.042431 5 6 2
-0.054702 -0.294693 -0.036717 94 99 89
-0.328401 0.107077 -0.041817 123 128 116
0.310227 0.552910 -0.025059 133 134 123
0.077710 0.290029 0.065176 148 157 148
0.194581 0.191265 0.114130 59 69 74
0.230066 0.418409 -0.022015 111 113 104
0.246573 0.544911 -0.026806 61 54 48
-0.332656 -0.149566 -0.046384 35 28 22
0.289655 0.178307 0.024376 26 33 37
-0.302506 -0.096014 0.315158 83 85 76
-0.305276 -0.122710 -0.042289 121 126 116
0.117120 0.084630 -0.016244 27 33 35
-0.190365 0.185613 -0.039406 116 118 107
-0.311886 0.156519 -0.035924 135 139 132
0.236599 -0.134199 -0.024569 87 94 86
-0.194626 0.148244 -0.036269 110 102 99
-0.200720 0.266370 -0.017898 136 141 131
0.108095 0.189541 0.088731 25 27 33
-0.360714 -0.055802 0.332972 117 143 145
0.316374 -0.213098 -0.027439 9 9 5
0.106718 0.642354 -0.029727 131 129 119
0.022129 -0.053028 -0.028976 75 80 70
-0.320089 0.183585 -0.037355 128 133 121
0.064562 0.103861 -0.026255 97 106 97
0.316863 -0.231177 -0.027257 24 27 28
-0.208983 -0.200573 -0.041753 117 122 112
-0.180114 0.217253 -0.037458 115 116 105
0.197531 0.371548 -0.022408 62 63 57
-0.063732 -0.015011 -0.034678 75 79 74
-0.272668 -0.098247 0.287178 179 179 173
0.326265 0.108899 0.099157 50 61 61
-0.043678 -0.245804 -0.039145 118 125 117
0.034673 -0.135279 -0.034990 143 154 150
0.307213 0.118039 -0.012892 46 51 56
0.156785 -0.006943 -0.022106 21 27 29
-0.024784 0.217538 -0.032526 113 123 111
0.288748 -0.121686 -0.022843 62 65 64
-0.179189 -0.252654 -0.041502 119 127 114
0.357109 0.337074 -0.016050 114 119 107
-0.070778 -0.237995 -0.032981 111 117 115
-0.026780 -0.257896 -0.040234 107 108 104
0.184094 0.458471 -0.027243 55 55 49
0.270847 -0.176296 -0.026184 101 102 96
-0.017804 -0.105821 -0.038982 118 129 125
-0.124491 0.388050 -0.049902 99 96 91
-0.000821 -0.151197 -0.038093 125 131 131
-0.169218 0.459643 -0.041184 108 110 99
-0.236719 -0.253294 -0.043437 125 126 120
-0.051989 0.173418 -0.034263 109 111 100
-0.191399 0.090288 -0.033800 108 110 99
-0.201860 0.490661 -0.021136 141 146 132
0.185377 -0.226541 -0.030637 108 113 103
-0.192524 -0.061920 0.178372 94 91 86
-0.253144 -0.153290 -0.041791 119 127 116
0.081732 -0.083916 -0.026377 34 31 28
-0.243412 -0.331789 -0.048158 108 111 110
0.213027 -0.160578 -0.028407 84 88 83
0.124776 0.424230 -0.026228 110 111 98
0.051751 0.141468 -0.025490 97 105 94
0.397428 0.501601 -0.021652 128 124 115
-0.230298 0.610790 -0.027381 156 157 148
-0.078166 0.046670 -0.033025 86 93 85
-0.323301 -0.018301 -0.039889 108 116 105
0.396891 0.078977 -0.016096 62 73 71
-0.159755 -0.085151 -0.037932 94 102 91
-0.194053 -0.002692 0.182057 27 28 24
0.141609 0.157004 -0.019298 13 21 20
0.319627 -0.081880 0.088527 54 59 68
-0.343616 0.004111 0.231239 126 135 126
0.356912 0.582772 -0.019327 76 63 52
-0.143210 0.406775 -0.047957 103 105 94
0.311227 -0.142330 0.100517 62 68 70
0.315433 0.072643 -0.011993 44 54 61
0.251216 0.346788 -0.017506 98 100 89
0.004325 -0.152098 -0.037464 124 132 131
0.162626 0.513625 -0.027798 115 113 101
-0.127991 -0.253013 -0.040110 113 122 113
0.301877 0.173059 0.026849 26 37 37
0.088360 -0.249600 -0.031570 69 66 63
-0.377013 -0.064190 0.325158 137 153 163
-0.333767 -0.239923 -0.047737 134 135 124
0.042514 0.355069 -0.040432 124 131 123
-0.330314 -0.081110 0.343357 120 146 148
0.129073 0.548519 -0.029650 118 120 109
0.332956 0.127238 0.116872 74 81 87
0.342542 0.614187 -0.024036 129 130 119
0.193960 0.044948 -0.018044 18 24 24
0.156330 -0.144222 0.109587 127 145 143
-0.298928 -0.116683 0.279775 42 49 41
-0.152941 -0.232160 -0.041829 120 121 112
0.154425 -0.195113 -0.028992 112 117 107
-0.354127 -0.031770 0.291687 75 82 74
-0.057450 0.630206 -0.030684 150 152 141
0.366138 -0.216466 -0.027731 106 106 102
0.083456 -0.005670 0.110054 57 71 77
-0.241833 -0.297963 -0.046396 131 129 119
0.097508 -0.109910 -0.028664 92 96 89
-0.252813 0.151188 -0.035907 122 123 110
-0.224620 -0.081461 -0.037709 109 110 101
-0.256698 0.165850 -0.035130 109 114 100
-0.113396 -0.076055 -0.033235 123 131 128
-0.152992 -0.141493 -0.029982 108 114 114
-0.355525 0.114827 -0.042277 28 25 20
0.324348 -0.121371 -0.024475 87 84 79
-0.226725 -0.024571 0.195381 6 6 2
0.020233 -0.192251 -0.043390 146 152 150
-0.157705 0.498224 -0.023598 138 140 131
-0.107451 0.267223 -0.026824 130 131 118
0.260280 0.539913 -0.027348 112 117 105
-0.178363 0.176184 -0.038703 114 116 105
0.321947 -0.066748 0.115059 59 69 74
0.177188 0.183949 0.052466 19 24 29
0.321905 -0.043080 0.085910 51 61 66
0.391785 0.291039 -0.012135 115 120 110
0.173295 0.003603 -0.021394 16 27 27
-0.142602 0.033443 -0.033114 103 101 91
-0.256289 0.183724 -0.040875 116 117 104
-0.246850 0.260195 0.072473 156 164 151
0.319153 -0.080209 0.027272 38 50 52
0.282721 -0.079321 -0.020002 39 44 53
-0.012537 0.489271 -0.022672 146 148 139
-0.253252 -0.076877 0.277900 112 121 112
-0.126094 0.213559 -0.035365 101 103 94
-0.305851 -0.108983 0.307610 58 65 59
-0.326556 -0.023074 -0.003579 27 21 23
-0.325601 -0.099823 0.335148 119 147 151
-0.263843 -0.260521 -0.047134 79 81 70
0.174335 0.625663 -0.027788 98 100 89
-0.141175 0.460913 -0.041402 105 110 100
-0.322489 -0.118774 0.311047 50 52 43
0.058864 -0.222161 -0.034458 95 96 90
-0.143171 -0.185176 -0.029273 103 116 111
-0.213378 -0.179941 -0.041353 121 123 114
-0.318803 -0.118077 -0.042524 120 125 115
-0.030599 -0.031299 -0.030134 79 80 74
-0.245819 0.370200 -0.049862 163 164 151
0.180195 -0.147248 -0.027158 101 101 97
-0.011375 0.380860 -0.041890 126 130 123
0.248156 0.033676 -0.016473 15 21 23
0.247327 0.500122 -0.022108 76 78 65
0.383895 0.470632 -0.015191 101 94 86
-0.246006 0.140589 -0.034700 118 116 104
-0.098142 0.182127 -0.034998 102 107 97
-0.315449 -0.240207 -0.045936 135 133 125
-0.065337 0.277369 0.008279 129 136 128
-0.146436 -0.054346 -0.034454 101 102 96
-0.319612 0.124078 -0.037467 94 96 87
0.018416 0.240333 -0.027594 108 110 101
0.044643 -0.241244 -0.036809 8 8 8
0.302069 0.168984 0.004215 35 37 45
0.213178 -0.191625 -0.025176 99 103 98
-0.101923 -0.196943 -0.042564 116 124 123
0.030201 0.492946 -0.006388 144 149 139
-0.126232 -0.029064 -0.035522 82 88 86
0.168443 0.114388 -0.029210 17 25 26
-0.338977 -0.128282 0.307191 35 39 32
0.249767 -0.002783 -0.014846 22 28 30
0.154095 -0.249016 -0.028541 110 118 107
0.045705 -0.059440 -0.028903 62 69 61
0.325160 -0.027292 0.035999 44 54 59
-0.318007 0.397899 -0.041320 140 139 124
-0.280643 -0.087139 -0.041899 93 94 88
0.062787 0.012536 -0.026429 81 86 76
-0.000448 0.103800 -0.027847 99 107 96
0.147378 0.595157 -0.029059 126 131 121
-0.009156 -0.274391 -0.040066 105 102 97
0.324959 0.126070 0.115951 54 61 65
0.241506 0.530581 -0.022215 112 111 94
-0.337538 -0.115722 0.260920 73 77 70
-0.286143 -0.305724 -0.046911 125 126 122
-0.162225 0.436628 -0.048658 102 103 92
0.072877 0.492408 0.054250 163 167 160
-0.027847 -0.237732 -0.034373 137 141 136
-0.192777 -0.211937 -0.043004 115 117 108
0.286383 -0.001454 -0.014193 35 42 48
0.267304 0.045322 -0.016584 26 32 34
0.135390 0.649582 -0.026607 126 127 114
-0.132043 -0.303112 -0.041531 113 111 101
0.055396 -0.248567 -0.036355 67 68 62
-0.317668 -0.211304 -0.046351 49 32 34
0.205347 -0.165046 -0.029173 99 99 93
0.306831 0.098091 -0.010030 43 50 56
0.332200 0.627180 -0.021025 128 130 119
0.121880 -0.037329 -0.023863 28 36 37
0.039040 0.514452 0.029719 150 152 143
0.212463 -0.050319 -0.019906 18 24 26
-0.152798 -0.036094 -0.035957 91 99 84
0.214839 0.112769 -0.019629 9 20 20
-0.024845 0.492989 -0.014539 144 149 139
-0.015895 0.485432 0.080080 152 154 141
0.247514 0.024898 -0.018813 18 21 24
-0.187628 0.270559 -0.013003 131 136 124
-0.042823 -0.181737 -0.040205 125 136 134
-0.152518 0.199631 -0.037374 115 120 106
0.008440 -0.003132 -0.028772 50 56 54
-0.146934 -0.120323 -0.032746 111 119 118
-0.243707 -0.111435 -0.040420 115 117 108
-0.237917 -0.106283 0.230425 6 6 6
0.297673 0.139739 -0.014174 41 43 51
0.296998 0.155284 -0.007751 42 49 55
-0.120545 0.478002 -0.038752 126 131 119
0.203015 0.550585 -0.031541 118 120 109
-0.269864 -0.094129 -0.042118 112 116 109
0.117187 0.156732 -0.020249 19 24 29
0.373076 -0.094638 -0.003019 63 70 76
0.274334 -0.151681 -0.025578 84 93 86
0.215284 -0.130857 -0.026942 88 89 83
0.233674 0.038777 -0.017017 20 26 26
-0.230801 -0.220587 -0.042886 121 123 110
0.219393 0.189101 0.075310 30 32 38
-0.272111 -0.297129 -0.047573 129 131 122
-0.212991 -0.003071 -0.037071 65 70 60
0.223251 0.437708 -0.024363 103 106 90
0.265657 -0.199179 -0.026389 102 106 99
-0.210621 0.593421 -0.010226 159 161 152
0.055631 -0.241185 -0.034797 109 114 104
0.115010 0.335348 -0.026733 105 104 87
-0.070189 0.208665 -0.034234 111 119 106
0.139022 -0.066868 -0.023268 16 22 24
0.122619 0.172343 -0.007499 15 23 24
-0.053381 -0.300370 -0.036177 105 106 100
-0.227932 -0.317516 -0.047647 98 94 85
0.102570 0.324562 -0.019564 89 94 84
-0.023426 0.470126 -0.035957 133 138 128
-0.229348 0.256730 -0.036702 118 119 108
0.090055 -0.128138 -0.029692 103 112 103
-0.170878 0.097590 -0.035203 108 113 99
-0.329317 -0.093816 0.341678 118 143 148
-0.098824 0.644649 -0.032802 137 133 122
-0.045227 0.211272 -0.033408 103 116 103
0.055728 0.351434 -0.041929 141 148 140
0.191954 -0.010053 -0.020497 19 27 28
-0.201416 -0.310606 -0.043266 121 123 114
0.319926 -0.028527 0.007520 46 51 60
0.328858 0.053318 0.060829 50 57 61
0.256453 -0.175455 -0.027397 103 104 95
-0.213137 -0.013885 0.201911 18 26 25
0.341575 -0.110566 -0.021613 61 61 65
0.003082 0.163808 -0.028609 46 46 40
0.040449 0.402460 -0.040228 128 130 121
0.075256 -0.081393 0.106890 60 72 76
-0.220919 -0.303535 -0.044413 126 127 121
-0.241488 -0.243215 -0.043221 132 133 124
0.202756 -0.196184 -0.027419 99 104 92
-0.133236 -0.292993 -0.041587 92 101 94
0.021403 -0.262159 -0.036151 102 104 95
-0.300632 -0.091363 0.315181 80 84 77
-0.226919 0.048471 -0.036518 103 104 93
-0.177244 0.366458 -0.045538 106 111 101
0.215396 0.431257 -0.025380 84 86 77
0.342042 -0.226833 -0.026890 112 113 107
-0.182474 0.193666 -0.038351 119 120 111
0.019334 0.497599 0.077068 148 149 138
-0.013407 0.349844 -0.036916 138 140 129
-0.071947 0.117444 -0.033204 96 101 91
-0.205901 -0.041956 -0.020769 101 109 98
-0.086353 0.487782 0.071541 152 153 142
-0.258953 0.261826 -0.039217 150 152 143
0.091230 0.075698 0.110363 31 39 38
-0.022807 -0.182873 -0.040605 129 140 138
-0.009200 0.262933 -0.024027 124 129 119
-0.196048 -0.318336 -0.043887 117 121 114
-0.336940 -0.070793 0.342852 122 146 148
0.143156 -0.026084 -0.023057 19 27 28
0.191340 0.178137 0.011054 11 17 17
0.031113 -0.055137 -0.028461 64 71 65
-0.037339 0.013593 -0.030174 76 84 73
-0.254726 -0.330748 -0.048979 132 133 129
-0.097694 0.170272 -0.034193 100 102 93
-0.250347 -0.080604 0.267779 32 40 39
0.125375 0.615864 -0.030293 126 124 112
-0.050562 -0.128917 -0.040956 119 130 128
0.119854 0.383339 -0.023630 106 111 97
-0.222470 -0.269025 -0.044839 131 129 121
-0.035268 -0.262627 -0.039139 108 113 103
0.087569 0.062597 0.112200 54 67 62
0.285776 -0.179882 -0.026512 101 103 94
0.287595 0.324369 -0.020133 116 118 107
-0.225034 0.499670 0.002028 148 150 134
0.331097 0.050730 0.059372 49 61 65
0.083037 0.113345 -0.020984 94 106 98
0.188184 -0.144126 -0.027147 105 105 99
0.247924 0.180713 0.110375 30 40 43
-0.241466 -0.100307 0.248401 17 17 13
0.023722 0.090854 -0.025706 108 115 107
-0.224972 0.649846 -0.037313 137 139 126
0.394688 -0.103407 -0.024324 89 90 84
-0.228616 -0.242705 -0.042107 68 59 54
-0.326719 -0.067144 0.334841 115 138 143
-0.276642 -0.302370 -0.047920 136 131 127
0.217033 -0.061569 -0.021065 18 21 22
-0.280066 -0.088991 0.167713 11 14 13
-0.114487 0.087929 -0.031015 97 105 94
0.322743 0.018980 0.112959 53 63 70
-0.179919 -0.168965 -0.040156 112 119 111
0.014533 0.012314 -0.025861 100 101 95
0.192499 -0.039870 -0.019444 21 26 31
0.318610 0.346685 -0.017158 115 123 110
-0.021580 0.260839 -0.014853 126 130 123
0.348395 -0.204336 -0.027765 95 98 99
-0.038195 -0.164229 -0.040433 130 141 139
0.001492 0.258155 -0.024153 119 124 112
0.293055 0.622870 -0.026497 125 125 121
-0.225185 0.126000 -0.036338 103 107 100
-0.030931 0.245036 0.081494 138 145 137
-0.274550 -0.303575 -0.047455 131 131 125
0.344521 0.097295 0.099485 72 77 84
-0.015078 0.378258 -0.043053 122 130 119
0.184695 -0.218939 -0.030959 110 112 101
-0.374567 0.060605 0.260406 112 141 142
-0.166218 0.271552 -0.020811 125 138 125
0.174568 0.192612 0.117801 98 118 115
-0.255822 -0.081257 0.276884 242 249 241
-0.288993 -0.104330 0.296419 70 70 66
0.148731 0.415759 -0.025591 116 117 108
-0.248524 -0.272067 -0.045333 130 132 123
-0.089777 -0.057781 -0.030502 122 133 129
0.017339 0.221535 -0.028098 105 112 104
0.106661 -0.114986 -0.028952 60 61 55
-0.069635 -0.087197 -0.039017 114 122 123
-0.344097 -0.306668 -0.049015 139 134 130
-0.328453 -0.121539 0.311232 45 46 42
-0.008031 -0.165682 -0.039030 133 144 140
-0.083935 0.065816 -0.032595 95 97 86
0.065910 0.282236 -0.023997 88 89 76
0.168929 0.609781 -0.028939 123 124 113
0.089926 0.365978 0.107433 133 141 138
0.281455 0.130486 -0.015022 26 38 40
0.296042 0.371035 -0.019215 103 107 100
0.078523 -0.235856 -0.033299 51 46 44
-0.146778 0.115064 -0.034066 103 108 96
0.248231 0.306496 -0.007412 92 93 84
-0.192879 -0.104165 0.068711 87 89 80
-0.224095 -0.008739 -0.038215 96 101 89
0.396718 -0.208645 -0.023996 108 108 108
-0.373219 -0.039524 0.309169 121 145 143
0.290574 -0.179054 -0.026346 111 112 103
-0.372090 -0.109137 0.219701 66 68 57
-0.072936 -0.119462 -0.040186 119 130 130
-0.094462 -0.298109 -0.040826 107 114 106
0.284316 0.519375 -0.024018 99 91 88
-0.235975 -0.326181 -0.047898 129 129 125
-0.187567 0.053124 -0.033721 103 105 96
0.128387 0.461376 -0.029775 115 117 108
0.337829 -0.187946 -0.026003 107 111 104
-0.302352 0.621179 -0.047458 163 164 153
-0.129686 0.436053 -0.045621 97 99 90
0.264476 0.027158 -0.016155 20 25 30
-0.315523 -0.093064 -0.044274 117 121 114
0.150253 0.162333 -0.017765 16 22 22
-0.126152 -0.302040 -0.041804 96 100 93
0.041391 0.216671 -0.026872 82 86 79
-0.209898 0.272115 -0.015228 140 142 131
-0.200314 -0.132727 -0.041860 117 121 116
-0.313251 -0.310111 -0.049302 130 131 125
-0.111568 0.265771 -0.006418 128 133 123
0.055057 -0.129778 -0.029091 61 62 56
0.063976 0.503445 0.015176 154 162 151
0.037489 -0.161276 -0.036387 142 155 150
-0.036957 0.220109 -0.033347 112 117 105
0.288590 -0.233022 -0.027934 104 112 101
0.166074 0.098799 -0.020173 15 23 24
0.153517 0.192843 0.089323 28 40 42
0.294448 -0.162661 -0.025191 98 102 95
0.237019 0.072201 -0.023796 20 26 26
0.142407 -0.229872 -0.028957 112 112 108
0.119407 -0.197899 -0.030753 105 106 100
0.179989 -0.178083 -0.027533 99 99 93
-0.033824 -0.208991 -0.041462 126 132 132
0.055831 0.396803 -0.038852 147 149 140
-0.251279 0.254811 0.069180 152 153 144
-0.053507 0.032096 -0.030078 86 94 81
0.114724 -0.125466 -0.028828 2 2 0
-0.043035 -0.188529 -0.039426 125 136 134
-0.224541 0.497133 -0.001115 150 152 141
-0.081231 -0.222905 -0.046278 114 125 121
0.063985 0.645774 -0.025124 126 127 114
-0.029162 0.489820 -0.030634 140 147 139
0.229758 0.380283 -0.020745 108 106 94
-0.317351 -0.102483 0.324752 80 80 80
-0.026443 0.507029 0.000500 145 153 142
-0.216859 -0.212028 -0.040989 124 129 117
0.002525 -0.009729 -0.029589 92 96 89
-0.053172 0.211835 -0.033360 102 117 103
-0.379349 -0.104977 0.320642 117 143 145
-0.242269 0.463545 -0.048846 162 163 150
0.282009 -0.047078 -0.016542 32 39 45
0.328895 0.145188 0.034372 40 50 57
0.235087 0.144134 -0.019006 16 19 22
0.090889 0.162745 0.113018 54 62 61
0.015355 -0.093739 -0.029712 126 134 131
0.019838 0.192229 -0.028482 108 116 103
0.325049 -0.111776 -0.022251 56 64 63
-0.273606 0.122346 -0.008460 115 117 108
0.283310 -0.223436 -0.027706 91 95 90
0.183595 0.121278 -0.024239 20 23 26
0.041242 -0.167603 -0.028479 120 129 122
-0.121995 -0.113239 -0.039442 87 94 88
0.331717 -0.064225 0.113297 61 71 76
-0.267178 -0.088687 0.287651 132 141 123
0.209471 -0.185990 -0.025161 74 75 69
0.282571 0.370477 -0.015769 93 97 90
0.066511 -0.149278 -0.030019 29 29 29
0.080359 0.005661 0.110681 64 69 78
0.129316 -0.055824 -0.024218 18 24 24
-0.195356 -0.162585 -0.042846 2 3 0
0.012622 0.270503 0.018567 128 133 121
-0.210172 -0.083883 0.002455 109 114 104
-0.105890 0.073778 -0.032663 96 104 91
0.212152 0.194185 0.118589 130 148 146
0.125591 0.557910 -0.027816 121 123 114
0.136134 -0.040021 -0.023974 20 26 28
-0.279687 -0.306128 -0.046580 133 134 125
-0.108033 0.136837 -0.034567 106 111 101
-0.307104 -0.223731 -0.047612 132 133 127
0.071058 0.040256 -0.023235 8 12 7
0.165014 0.648821 -0.024815 125 126 113
0.234214 0.111946 -0.022431 15 20 27
-0.180550 -0.014833 0.166906 133 133 127
0.210953 -0.052317 -0.020162 18 24 24
0.128868 0.477878 -0.029124 109 110 97
-0.338730 -0.071668 0.343512 117 142 147
0.267524 0.501119 -0.024179 62 61 61
-0.118260 0.223110 -0.032896 112 117 105
-0.052046 0.460661 -0.039472 132 133 129
-0.322657 0.279470 -0.041778 136 138 127
-0.277727 0.198720 -0.038720 133 135 126
0.034084 0.226648 -0.026706 101 109 96
-0.121029 0.413747 -0.046683 95 99 92
0.290372 -0.011685 -0.014492 34 39 44
0.034099 0.107049 -0.024392 97 106 97
0.330220 0.434289 -0.019381 126 127 116
-0.286146 0.375651 0.012048 167 172 162
-0.060839 -0.212060 -0.042542 120 123 122
0.281352 0.528991 -0.022633 123 125 114
0.166683 -0.114952 -0.025644 61 69 66
0.119534 -0.064031 -0.021629 26 37 33
0.392569 -0.141890 -0.024110 89 96 90
-0.207938 -0.103426 0.192115 2 5 4
0.169425 -0.256460 -0.030459 107 109 100
-0.207325 -0.059220 -0.029297 53 62 55
-0.253282 0.335886 -0.008892 156 157 146
-0.107843 0.515635 0.003807 143 150 142
-0.191306 -0.070808 -0.038698 103 111 98
-0.316670 0.324234 -0.040774 142 147 137
0.292547 0.187758 0.095584 32 39 43
0.343331 0.430066 -0.020347 122 124 113
0.141130 0.310705 -0.022842 20 18 10
-0.077046 -0.154291 -0.041644 118 129 125
-0.367114 0.061145 0.257537 116 140 140
0.137298 0.159736 -0.018042 18 18 22
0.059885 0.195463 -0.027055 106 114 103
0.011455 -0.090902 -0.029832 128 139 135
0.120185 0.605371 -0.033583 121 119 109
0.058374 0.219009 -0.024744 109 114 104
-0.176773 -0.093214 -0.039831 109 111 100
-0.122490 -0.072882 -0.027135 118 129 125
-0.207566 0.030396 -0.037527 96 101 91
0.321077 -0.074509 0.067148 44 54 61
-0.057498 0.224776 -0.032973 111 113 102
-0.180443 -0.124380 0.156799 18 19 15
-0.006773 -0.017144 -0.029997 81 85 78
-0.322744 -0.119341 0.309583 51 52 43
0.108741 0.182458 0.031452 22 28 28
0.094544 0.627208 -0.030449 91 86 82
-0.282398 -0.098301 -0.042419 115 117 108
0.326240 0.130848 0.080795 47 57 62
-0.188399 0.033951 -0.036728 96 100 93
0.101843 -0.244131 -0.031977 112 116 109
-0.338525 -0.108634 0.337979 110 136 138
-0.013894 0.260465 -0.011929 122 127 115
-0.009899 -0.155854 -0.039535 134 142 141
0.223598 -0.134658 -0.025654 87 92 82
0.138728 -0.129310 -0.029324 78 82 75
-0.339717 0.011617 0.270689 103 131 135
0.269355 0.350626 -0.017119 105 110 96
-0.167965 -0.017931 -0.036056 90 100 88
0.298897 0.335641 -0.018428 119 127 114
-0.185729 -0.159948 -0.039959 110 115 101
-0.163768 0.352846 -0.038299 128 129 125
0.162804 -0.066178 -0.022367 17 25 26
-0.234475 0.639794 -0.042351 158 163 153
-0.187564 -0.245116 -0.040121 124 129 119
0.227467 -0.142236 -0.025613 87 91 84
-0.070110 -0.162966 -0.042225 132 138 136
0.084564 -0.092335 -0.025944 81 85 78
-0.198456 -0.150360 -0.039998 117 121 114
0.051266 -0.185323 -0.034997 63 72 63
0.204280 -0.139623 -0.026669 86 93 87
-0.090871 0.266631 0.014647 128 138 126
-0.216396 -0.213564 -0.040991 120 125 115
0.115690 -0.142091 0.106870 55 65 70
-0.123508 -0.076135 -0.028670 120 129 122
-0.148639 0.074496 -0.035021 97 107 95
-0.301728 -0.161152 -0.046078 120 124 119
0.136522 0.560584 -0.027777 123 124 113
0.208601 -0.167967 -0.027953 7 2 0
0.260528 -0.057928 -0.017699 19 24 29
-0.293035 -0.181854 -0.045667 123 124 120
-0.287463 0.609059 -0.039100 164 162 150
-0.196751 -0.252664 -0.041750 119 120 111
0.251875 -0.131058 0.095520 48 50 56
0.284624 0.370962 -0.015789 102 106 99
-0.055823 0.183634 -0.033685 105 110 98
-0.329324 -0.022709 -0.041486 110 112 103
0.280779 -0.208756 -0.026923 1 1 0
