ply
format ascii 1.0
element vertex 1207
property float x
property float y
property float z
property uchar red
property uchar green
property uchar blue
end_header
-0.224992 -0.025985 -0.026672 140 152 144
-0.198263 0.086790 -0.037750 107 109 100
-0.307328 0.008600 -0.043192 108 115 107
0.366577 0.457183 -0.020394 140 142 131
0.369534 0.155789 -0.016247 142 143 137
0.166823 0.032754 -0.020513 55 62 70
0.225876 0.159200 0.094931 35 42 46
-0.202193 0.139422 -0.039189 46 54 43
0.008834 -0.212165 -0.035322 120 124 117
-0.323455 0.443298 0.023980 139 137 127
-0.050505 0.123303 -0.031693 107 115 102
-0.307716 -0.207547 0.352386 84 108 108
-0.113853 0.430909 -0.038800 134 139 129
0.325735 -0.203790 -0.027403 137 138 132
-0.317723 -0.222556 0.348010 73 95 96
-0.248820 -0.134814 -0.032305 123 131 128
-0.211045 -0.311716 -0.047017 122 122 116
0.366248 -0.173811 -0.024169 142 144 135
-0.323636 0.182582 -0.037048 99 104 92
-0.160536 -0.279694 -0.042663 113 117 112
0.086678 -0.258759 -0.032401 121 126 116
-0.150370 -0.016219 -0.031987 121 134 129
0.142303 0.437955 -0.024596 136 138 129
-0.125289 -0.155968 -0.043611 138 151 148
-0.314033 -0.069590 -0.041723 109 113 106
-0.344490 -0.057162 0.325577 83 111 115
-0.129749 -0.011974 -0.023640 119 130 126
-0.292714 -0.192859 0.298677 48 52 45
0.095706 0.161639 0.046181 24 34 37
-0.297218 -0.228507 -0.047161 108 106 96
-0.355799 -0.144228 0.016852 7 13 13
0.357257 0.034307 -0.021549 139 141 130
-0.238055 0.400256 -0.047363 121 126 116
-0.009281 -0.032256 -0.031297 122 130 119
-0.287557 0.434705 -0.021337 132 134 123
-0.301877 -0.223811 0.110534 2 3 0
-0.070107 -0.108712 -0.033880 25 36 32
-0.267205 -0.146806 -0.043281 70 71 60
0.105107 0.350914 -0.026580 135 137 128
-0.331598 -0.231639 0.302829 24 25 21
-0.200237 0.022646 -0.039310 55 57 48
0.262244 -0.143267 0.092376 45 57 63
0.200529 0.108149 -0.020463 45 55 60
0.318382 0.340868 -0.016120 137 138 129
0.336761 0.041068 -0.019714 58 58 54
-0.289646 0.084644 -0.041591 102 104 93
-0.280785 -0.303270 -0.046981 116 116 110
0.119773 -0.224190 -0.031734 117 119 110
-0.010461 0.119598 -0.029284 114 122 111
-0.021457 -0.051957 -0.029987 112 120 109
0.025942 -0.286571 -0.036090 42 34 33
-0.257121 0.144077 -0.040456 106 111 101
-0.062775 -0.045483 -0.033993 123 123 117
-0.249233 0.445615 -0.011017 133 135 124
0.364645 0.001765 -0.021754 41 37 38
-0.069821 -0.036879 -0.035457 114 127 114
0.120451 -0.228551 -0.032461 117 118 112
0.000407 0.192867 -0.028936 91 100 91
-0.196187 0.515528 0.013712 136 140 133
0.114479 0.160880 0.080100 30 42 44
0.249913 -0.072142 -0.007298 50 57 65
-0.300267 -0.223726 0.159014 0 3 1
0.143704 0.155614 0.017176 27 34 38
-0.203141 -0.274879 -0.044156 125 127 116
0.339439 -0.051796 -0.023056 109 111 102
0.162854 0.157180 0.021446 28 35 39
-0.186048 -0.096044 -0.037095 105 106 97
-0.318522 -0.226435 0.305140 32 32 28
0.216936 0.021891 -0.016983 59 69 76
0.371345 -0.150431 -0.024832 137 138 127
-0.131654 0.443671 -0.029595 132 140 129
0.347834 -0.136983 -0.024114 133 134 128
-0.316765 -0.185726 0.030177 107 109 98
0.217348 -0.024033 -0.019513 57 71 75
-0.307679 -0.136285 0.170504 11 12 6
-0.109481 -0.151729 -0.042133 133 144 140
0.351663 0.282808 -0.016650 142 147 137
-0.231144 0.205109 0.067636 141 150 141
0.136292 0.545438 -0.030821 127 128 117
0.284488 0.029327 0.089047 86 91 96
0.148891 -0.132227 0.016878 58 70 76
0.160677 0.384880 -0.020289 129 131 122
0.032245 0.118741 0.085917 27 34 40
-0.103239 0.188150 -0.035335 96 101 91
0.338005 -0.037219 -0.024625 149 153 148
0.240770 -0.146607 -0.024657 36 39 40
-0.202079 0.131082 -0.040139 27 34 26
0.135075 0.154087 0.005737 26 33 39
-0.167699 0.217014 -0.019567 122 127 117
-0.294627 -0.196090 0.299449 42 49 43
-0.317614 -0.204673 0.173750 6 13 7
-0.136783 -0.315214 -0.044291 117 121 114
0.012171 0.267941 0.073878 103 104 93
-0.107841 0.458232 0.040413 136 141 129
0.217387 -0.008207 -0.017233 61 70 80
0.313385 -0.225842 -0.026837 119 120 116
0.135953 -0.188784 -0.029697 102 106 99
0.055462 0.499419 -0.034349 129 134 124
0.111191 0.117136 -0.024948 50 59 69
-0.330286 -0.283383 -0.046887 101 103 94
0.181354 -0.105395 -0.019749 53 63 70
-0.096322 -0.271724 -0.040361 7 12 2
0.104505 0.333760 -0.024444 124 132 121
-0.249343 -0.253946 -0.043771 123 124 115
0.350797 0.479589 -0.018686 97 97 91
-0.343484 -0.058390 0.323454 84 110 112
-0.209738 0.438470 -0.023146 133 138 128
0.327046 -0.119668 -0.022667 136 140 133
0.120444 0.316670 -0.023747 126 131 121
0.398588 0.044415 -0.016846 149 153 146
0.018393 0.084281 0.105038 77 87 90
-0.305931 0.028448 -0.041527 108 113 103
-0.037150 -0.024381 -0.031685 111 119 108
-0.203553 0.042319 -0.039165 109 114 104
-0.147545 -0.309833 -0.044113 121 122 116
-0.083549 0.438677 -0.029935 133 141 130
-0.246771 0.190266 0.070531 130 135 123
-0.289833 -0.216438 0.108046 106 111 101
0.149154 -0.217698 -0.030175 117 119 110
0.322367 -0.195065 -0.027663 136 141 131
-0.111093 0.318596 -0.042439 125 138 125
0.240554 0.378403 -0.021825 141 146 134
0.263439 -0.156346 0.108829 78 85 91
-0.239684 -0.023338 -0.038908 115 120 108
-0.296258 -0.152735 0.205391 43 47 42
-0.210336 -0.079764 -0.044245 124 135 131
-0.291903 -0.199980 0.143357 47 54 48
0.149692 0.069142 -0.025007 46 56 61
0.009037 0.014221 -0.028217 112 121 112
-0.088437 0.456993 0.029640 135 143 132
0.116360 -0.078475 -0.022840 53 63 70
0.173752 0.114573 -0.019375 42 56 62
0.094005 0.302191 -0.025779 119 124 112
0.375387 0.209526 -0.016517 70 55 54
-0.348562 -0.239377 -0.047968 91 96 86
-0.105007 0.462294 0.011444 136 141 131
-0.025598 0.008513 -0.031044 118 128 116
-0.067081 -0.288926 -0.040619 118 126 115
-0.275425 0.434135 -0.032577 128 133 123
0.228582 0.081715 -0.021881 59 69 74
-0.371672 -0.097223 0.330702 22 25 24
0.057695 0.336099 -0.028176 135 143 130
0.002461 -0.245673 -0.036894 120 124 119
0.265243 -0.093394 0.115167 82 92 97
0.397304 0.495791 -0.021470 143 144 131
-0.365007 -0.096394 0.327424 19 25 23
0.084789 0.533374 -0.034590 139 140 129
-0.297810 -0.193080 0.140935 10 19 12
-0.333716 -0.254005 -0.048753 98 98 94
-0.163872 0.131118 -0.037634 126 127 118
0.181059 -0.153802 0.081227 62 67 76
-0.313389 -0.010276 -0.040001 109 110 101
0.386176 0.212832 -0.014404 141 142 133
-0.338519 -0.221564 -0.000749 13 16 15
0.090353 -0.152986 -0.030724 60 61 55
-0.047246 -0.008741 -0.032637 112 117 107
0.144181 0.344412 -0.023157 137 139 130
0.350660 0.006749 -0.022365 140 142 133
0.154306 -0.116853 -0.021233 57 64 72
0.058950 0.142685 -0.009923 31 41 44
-0.247952 -0.319244 -0.049712 120 124 119
-0.166742 0.020082 -0.036531 17 19 10
0.007605 0.261588 0.089244 146 158 148
0.347236 0.469193 -0.020492 144 146 133
-0.348977 -0.271367 -0.046697 108 109 103
0.105436 -0.015911 -0.024999 52 66 70
-0.144281 0.171350 -0.037485 119 127 116
0.340751 0.361447 -0.016676 137 139 128
-0.259042 0.137021 -0.040681 73 75 66
0.296108 -0.162336 -0.025300 99 104 92
-0.184069 0.167140 -0.040893 113 118 104
-0.332738 -0.054254 0.303963 74 93 95
-0.162798 -0.200884 -0.039176 139 150 146
0.367474 0.339770 -0.016570 138 143 131
0.211329 0.148780 0.013463 27 37 42
0.314341 -0.143909 -0.027627 98 103 91
-0.090789 0.028731 -0.034738 112 122 108
0.306077 0.280230 -0.017122 63 57 59
0.245454 0.047588 -0.009528 58 68 73
-0.311119 0.003598 -0.042833 107 109 100
-0.199422 0.299172 -0.043650 133 140 132
-0.308636 -0.194202 0.353564 88 111 116
0.387699 -0.152372 -0.024528 137 142 132
0.342325 -0.181020 -0.025284 133 138 128
-0.111075 -0.251200 -0.041716 110 112 103
0.047715 -0.146253 -0.029424 64 71 65
-0.234532 0.068911 -0.038511 16 18 7
-0.312392 -0.217068 0.343335 76 98 101
-0.190918 0.389969 -0.048088 112 121 112
0.055529 0.406377 -0.030905 131 136 122
0.266968 0.398165 -0.022564 137 139 126
-0.236970 0.386230 -0.050069 110 117 109
0.253976 0.138753 0.032384 41 48 54
0.080010 0.511962 -0.031964 69 65 54
-0.074436 0.111130 -0.034444 105 110 98
0.061898 0.353779 -0.029739 129 131 118
-0.012849 0.338171 -0.045181 142 150 147
0.234961 0.150638 0.033649 38 45 49
0.167552 0.156379 0.049072 27 37 40
-0.122179 -0.069500 -0.040430 136 149 146
-0.157645 -0.115122 -0.043561 127 135 132
0.000456 0.215604 0.085266 152 161 152
-0.152423 0.358537 -0.045168 122 130 119
-0.134055 0.310046 -0.044882 120 127 121
0.212657 -0.227784 -0.030828 126 128 119
0.104477 0.152151 0.001575 25 35 40
-0.361976 -0.065259 0.335412 48 49 45
0.034059 -0.244863 -0.035658 11 11 7
0.001768 0.543994 -0.023558 143 148 138
0.226459 0.014422 -0.017468 65 77 83
0.077763 0.091177 -0.028812 46 58 62
0.363694 0.288010 -0.016916 145 150 136
-0.121741 -0.295336 -0.042070 116 120 113
-0.269758 0.152326 -0.046978 41 42 33
-0.256475 0.035325 -0.038941 107 115 104
-0.204045 -0.309065 -0.046695 119 120 114
0.072462 -0.138577 0.033571 64 74 81
0.135191 -0.177318 0.109143 156 176 173
0.278583 -0.063081 0.099453 81 93 99
0.080674 -0.178012 -0.029539 94 98 91
-0.301871 0.192818 -0.041395 26 21 17
-0.245893 -0.146605 -0.026598 117 129 121
0.235771 0.158694 0.102361 34 44 47
-0.331380 0.103301 -0.043926 99 104 94
-0.257338 -0.037235 -0.041782 117 119 108
0.032714 -0.161087 0.103020 78 83 90
-0.293397 -0.199847 0.291608 44 48 41
0.347552 -0.143803 -0.023064 136 137 128
-0.110671 0.403288 -0.041394 152 154 145
0.008116 0.317723 0.109246 147 165 159
0.357571 0.470701 -0.019386 141 142 129
-0.231156 0.096870 -0.041189 102 103 97
0.204911 -0.162069 -0.028363 68 69 63
-0.198886 0.468174 -0.000789 137 138 129
-0.207255 -0.071889 -0.043851 125 136 132
0.238878 0.346276 -0.017189 138 139 130
0.252586 0.063123 -0.005995 45 55 62
-0.043625 -0.162138 -0.039534 107 112 102
-0.120358 -0.047260 -0.039145 131 144 141
-0.233710 0.409613 -0.044135 124 129 117
-0.334138 -0.057375 0.303650 84 91 95
0.174624 0.149884 0.012741 28 35 41
0.034693 -0.166318 -0.031754 101 105 98
-0.184746 -0.245440 -0.043462 109 114 100
-0.184958 -0.027474 -0.035345 117 128 124
0.334624 0.042195 -0.018791 69 59 59
0.241219 -0.232135 -0.029039 119 118 118
0.191684 0.062221 -0.022113 45 55 62
-0.298913 -0.203637 0.327615 44 48 41
0.262973 -0.170891 -0.028294 103 107 100
0.343552 0.016809 -0.022726 138 140 127
0.398045 -0.028379 -0.022112 143 145 136
-0.321871 0.427360 -0.022503 139 136 131
0.240668 0.412046 -0.021022 140 148 135
0.037234 -0.073113 -0.025656 35 47 49
0.098018 -0.195371 -0.031002 98 99 93
0.094097 -0.256019 -0.032030 119 121 112
-0.025235 -0.116438 -0.005937 39 46 40
0.245315 0.051613 -0.009850 56 68 74
0.072183 -0.226357 -0.032545 7 7 3
-0.024247 -0.017645 -0.032527 116 121 109
-0.044429 0.454662 0.005582 136 143 135
0.196252 -0.004474 -0.018241 52 64 70
-0.121609 0.351581 -0.047424 122 126 119
-0.185772 0.222395 -0.003036 129 131 122
0.165588 -0.062568 -0.020924 55 65 70
-0.245392 -0.142976 -0.026857 125 133 130
-0.320336 0.429042 -0.023857 138 136 128
-0.166393 -0.253255 -0.042444 72 82 70
0.054124 0.131354 -0.018269 41 51 54
-0.133171 -0.067507 -0.041578 136 147 145
0.120109 -0.189591 -0.031829 103 107 100
-0.194970 -0.129911 -0.047173 118 131 126
-0.372112 -0.107617 0.327169 43 47 40
-0.056398 -0.260158 -0.039995 117 121 114
-0.243347 0.171158 -0.042219 110 118 105
-0.142970 0.191860 -0.036596 101 103 92
-0.355942 -0.110295 0.310438 34 38 33
0.022192 0.023573 0.111409 69 83 89
0.369657 0.320756 -0.016917 136 144 133
0.266709 0.080633 0.114126 92 104 106
0.035761 0.298328 -0.024933 125 133 118
0.151108 0.287571 -0.021792 75 72 69
0.340186 0.125612 -0.022772 27 24 21
0.324003 -0.210379 -0.026507 129 136 128
-0.068139 -0.284557 -0.041319 32 35 34
-0.358223 0.258831 -0.061857 37 13 17
-0.299320 -0.168732 0.303907 91 94 93
-0.353806 -0.028708 0.335246 101 123 124
-0.054231 -0.197359 -0.038330 116 121 111
-0.034007 -0.127609 -0.035105 103 110 102
-0.033709 0.123756 -0.030048 56 63 55
-0.201618 -0.232424 -0.044722 94 96 87
-0.347949 0.410378 -0.014475 146 142 135
-0.195550 0.203600 0.050651 130 132 123
-0.202812 -0.260802 -0.045151 121 126 116
-0.349056 -0.331033 -0.050337 121 117 110
0.342002 -0.137511 -0.026401 135 137 128
-0.026632 -0.014447 -0.032161 113 121 110
0.185383 0.080619 -0.025254 40 52 56
-0.248537 -0.125498 -0.033675 118 131 126
-0.113078 -0.175878 -0.061107 142 153 151
0.257454 0.029699 0.001623 47 54 60
-0.162205 0.016567 -0.035647 114 116 107
-0.333178 -0.161537 0.353594 64 71 65
-0.035641 -0.192556 -0.037403 108 113 103
0.377054 0.163709 -0.016125 124 132 121
-0.333909 0.355268 0.081275 140 138 130
-0.317830 -0.142172 -0.044283 97 99 90
-0.257235 -0.322618 -0.047855 60 67 61
-0.062202 -0.039763 -0.033940 111 119 106
-0.243826 0.336213 -0.050576 112 120 109
-0.069020 0.171416 -0.033336 41 39 31
0.336555 -0.005462 -0.022009 147 148 139
-0.122425 -0.133243 -0.042916 137 150 149
-0.360607 -0.066081 0.334948 50 51 45
0.240593 -0.145069 -0.024368 43 46 47
-0.308316 -0.229018 -0.046847 107 108 102
0.349766 -0.107929 -0.025888 137 139 128
-0.376552 0.223097 -0.066653 77 72 68
0.234499 0.414003 -0.021916 132 133 122
0.212856 -0.063620 -0.017332 57 67 72
0.030013 -0.032505 0.088551 40 54 60
-0.279934 -0.067855 -0.043128 110 118 107
-0.198622 -0.020851 -0.030451 112 123 119
-0.024198 -0.134856 -0.033460 112 117 107
0.257341 0.150665 0.116149 60 65 72
0.347571 -0.103605 -0.024605 140 141 132
-0.344609 -0.291915 -0.047623 105 109 102
-0.297708 -0.172175 0.301112 70 75 65
0.344308 0.031268 -0.020355 135 143 132
-0.331860 0.290148 0.094347 139 135 128
0.324447 -0.126360 -0.024406 124 126 117
0.194591 0.048892 -0.022140 51 61 68
0.243915 -0.049480 -0.015215 60 72 76
-0.029478 0.020101 -0.032277 123 128 114
-0.315124 0.125681 -0.042025 102 104 95
-0.240790 -0.325577 -0.047834 119 121 112
-0.172901 -0.318588 -0.044373 117 121 114
0.131882 -0.155576 -0.029414 53 60 54
-0.106877 0.149614 -0.036866 106 116 104
0.115460 0.513333 -0.033577 55 56 47
0.283420 -0.156025 -0.027750 89 94 84
0.218924 -0.006150 -0.016944 60 71 80
0.207370 -0.113961 -0.020317 60 70 77
-0.185817 0.415681 -0.044291 136 144 133
-0.178035 0.208298 -0.037611 94 96 85
0.165610 -0.113060 -0.021141 50 63 72
0.067225 -0.214571 -0.033664 112 117 107
-0.115139 -0.222245 -0.041237 91 95 88
-0.046568 0.440958 -0.016425 138 145 137
0.123229 0.163661 0.078771 32 42 45
0.161458 -0.072180 -0.021143 54 64 71
-0.341592 0.358216 -0.031121 146 144 136
-0.113500 0.049361 -0.036587 73 77 70
-0.358060 -0.087985 0.323522 46 46 42
-0.036257 0.117309 -0.031076 113 122 113
-0.049965 -0.239043 -0.039925 121 126 114
0.340126 -0.004709 -0.022170 38 38 32
-0.126935 -0.128754 -0.043254 140 151 149
-0.279729 -0.062464 -0.042399 108 113 103
0.228490 -0.226527 -0.030736 127 128 119
0.210359 0.140139 -0.009434 47 61 65
-0.213845 0.449174 -0.005671 136 138 127
-0.293323 -0.204521 0.264054 76 83 77
0.174119 -0.128694 0.009625 57 67 74
0.200380 -0.164297 -0.029314 0 1 0
-0.304241 -0.342336 -0.048473 110 107 102
-0.200653 0.442457 0.057595 131 136 126
0.130643 -0.027676 -0.020480 54 66 70
0.209558 0.024097 -0.016588 58 70 76
0.084504 -0.243992 -0.033003 124 125 119
0.268249 0.078860 0.114562 85 97 99
-0.121724 0.021057 -0.036097 118 126 113
-0.239176 0.422939 -0.047828 122 126 119
-0.073250 -0.289683 -0.042747 120 124 117
-0.248294 -0.192057 -0.045192 107 109 100
-0.117302 -0.045137 -0.038249 131 144 141
0.386292 0.439503 -0.016311 137 133 126
0.070645 0.462116 -0.033516 96 94 86
0.085192 -0.195974 -0.031595 105 107 98
0.330436 0.543175 -0.025121 137 142 128
-0.111728 0.441487 -0.034309 134 139 129
0.004365 -0.196955 -0.035670 0 2 0
-0.241173 0.127424 -0.040659 112 113 107
-0.297006 -0.195366 0.323649 51 51 45
0.242934 0.013821 -0.012687 76 83 91
0.236486 0.371500 -0.020813 135 143 132
0.291027 -0.211254 -0.028635 124 129 119
-0.348880 -0.234494 -0.048382 108 109 103
-0.331127 0.127484 -0.043268 100 105 93
0.090208 -0.162638 -0.031836 0 0 0
-0.350045 0.198519 -0.061581 115 123 110
0.256736 0.081297 0.007621 40 47 53
-0.314544 -0.289283 -0.049088 101 99 91
-0.105385 0.198633 -0.034325 100 102 91
0.204570 0.148676 0.011129 29 39 42
0.135296 -0.035337 -0.022206 52 64 70
-0.205600 -0.028759 -0.033147 114 127 122
-0.287711 -0.189941 0.265621 95 95 89
-0.076790 -0.012071 -0.034144 110 118 107
-0.232634 -0.172352 -0.033899 126 134 131
-0.042682 -0.182423 -0.037437 113 118 108
0.110606 0.531870 -0.029479 133 135 122
-0.291501 -0.202927 0.279273 103 112 105
0.107326 -0.192054 -0.031172 99 99 93
-0.078527 0.355449 -0.043070 134 139 129
0.040225 -0.150773 -0.030219 74 75 71
0.112677 0.161390 0.042273 23 37 41
0.236046 0.438082 -0.024472 140 145 131
0.262549 0.313408 -0.023062 135 137 128
0.021196 0.097464 0.106689 86 96 99
-0.044333 0.130491 -0.030545 93 95 86
0.224947 -0.222613 -0.030539 128 129 123
0.113765 0.080713 -0.026170 45 57 61
-0.096645 -0.089978 -0.040795 136 151 146
-0.030708 0.535937 0.000093 148 153 143
-0.302744 -0.235763 0.130491 3 3 3
-0.118518 0.421640 -0.039112 135 136 130
-0.176076 -0.187154 -0.050362 144 152 151
-0.108975 -0.081450 -0.040856 135 146 142
0.246438 -0.044406 -0.012950 53 65 69
-0.155494 -0.252670 -0.043289 112 117 107
-0.279956 -0.318127 -0.045854 116 118 109
-0.282057 -0.105239 -0.043157 105 109 102
-0.145761 0.457581 -0.002847 135 140 130
-0.166476 0.345669 -0.049767 120 128 117
-0.020752 0.401122 -0.042832 149 157 146
-0.232349 -0.306955 -0.044869 19 15 8
-0.044342 0.450405 -0.010848 140 145 135
-0.317720 -0.167836 -0.045486 101 102 93
-0.242551 -0.135647 -0.036513 123 131 128
-0.296447 -0.176951 0.295566 46 47 41
0.036048 0.044185 -0.004896 28 40 44
-0.279954 0.454693 0.006759 137 138 127
-0.185026 0.463234 0.019049 135 137 128
-0.017767 -0.033819 -0.031579 117 122 110
-0.358026 -0.060901 0.334693 97 111 115
-0.318159 0.032297 -0.041918 108 110 99
0.261144 -0.144672 0.091304 44 56 60
-0.042259 -0.086369 -0.036615 107 114 106
-0.033135 0.332671 -0.040762 145 154 145
-0.269932 -0.066041 -0.042709 58 58 54
-0.306898 -0.235389 0.165962 26 26 26
0.271326 -0.069474 0.117383 82 92 99
-0.236271 0.452536 -0.017774 137 138 127
-0.373529 -0.105937 0.328401 43 44 40
0.151332 -0.235590 -0.030752 122 124 115
-0.057714 -0.281756 -0.038055 124 128 123
-0.323637 0.339864 -0.045465 136 138 129
-0.107708 -0.252045 -0.042198 116 118 107
-0.133715 0.214513 0.060914 144 156 148
-0.276442 -0.242258 -0.047469 114 116 105
0.290448 0.525928 -0.023226 145 146 140
-0.122514 -0.160478 -0.043853 138 151 146
-0.208777 -0.163002 -0.044193 132 140 137
0.370813 0.085035 -0.014642 62 62 56
0.316962 -0.183656 -0.026986 132 134 123
0.230896 0.158173 0.101508 34 44 49
-0.327822 -0.052888 0.296979 109 113 108
0.222240 0.066210 -0.021672 54 66 72
-0.324964 -0.233136 0.306845 25 28 27
0.203246 -0.043093 -0.019844 53 63 70
-0.301317 -0.121721 0.127351 4 7 6
0.046590 -0.280024 -0.036198 115 120 110
0.206554 -0.161744 -0.028471 0 2 0
-0.064848 -0.125564 -0.043627 143 154 150
-0.056560 -0.156130 -0.039573 33 32 32
0.022744 -0.008859 0.108990 73 85 89
-0.177614 -0.115557 -0.023120 48 59 57
-0.162607 -0.048244 -0.043317 129 142 139
-0.074648 0.415855 -0.039598 159 169 157
0.080982 -0.172383 0.102013 81 88 94
0.159305 0.114788 -0.021512 45 57 59
-0.125379 0.094800 -0.036020 110 118 105
-0.086501 0.441355 0.073317 138 143 131
0.189220 -0.170158 0.114455 76 86 91
-0.349507 0.185410 -0.070363 107 112 100
0.389193 -0.150584 -0.024103 143 145 134
-0.373658 0.254552 -0.064217 147 98 99
-0.314526 -0.223578 0.338831 76 101 106
-0.048203 -0.254208 -0.039546 122 124 115
0.269744 -0.068239 0.117506 80 92 98
0.217779 -0.249358 -0.031470 48 48 44
-0.112295 -0.082075 -0.040912 135 146 144
0.367590 0.269707 -0.016581 145 146 133
-0.021903 -0.107035 -0.011565 115 120 108
-0.199246 -0.121356 -0.048672 108 119 115
0.030557 -0.051342 0.080857 38 51 60
0.241839 0.276164 -0.021534 138 144 144
-0.286587 0.416506 -0.040999 129 130 124
0.152394 0.125197 -0.019958 51 61 66
0.126775 0.095531 -0.025634 47 57 62
0.263888 -0.041515 0.099829 50 60 67
0.090161 -0.034136 -0.024287 54 66 70
-0.327148 -0.233744 0.044270 10 18 15
0.354866 0.424760 -0.017046 140 142 131
-0.233138 0.177166 -0.040882 10 5 1
0.015701 -0.179024 -0.034244 119 124 114
0.050798 0.314484 -0.031964 126 131 119
0.147253 -0.173897 -0.029691 83 90 84
-0.050094 0.005593 -0.031187 23 17 19
0.158112 0.098048 -0.026020 43 55 59
-0.325226 -0.309656 -0.047011 103 104 98
0.358163 0.219654 -0.017103 138 143 133
-0.343758 0.351248 0.014561 146 144 136
-0.254076 -0.184581 -0.045859 109 114 104
0.264755 -0.122491 0.110321 70 80 87
0.220939 -0.147056 -0.017694 133 151 149
-0.348302 -0.091687 0.312825 16 19 20
-0.174941 0.113157 -0.041083 109 114 104
0.259193 0.141975 0.095224 41 51 56
-0.008559 -0.026582 -0.030984 120 124 117
-0.359653 -0.109362 0.314409 32 39 33
-0.282097 -0.177349 0.210187 13 16 15
-0.286999 -0.196220 0.243757 11 14 13
-0.318337 -0.065725 -0.039546 108 113 101
-0.015802 -0.210114 -0.036118 122 123 117
-0.115516 -0.147648 -0.042410 132 143 141
-0.332667 -0.119733 0.035111 7 10 9
0.160627 -0.100897 -0.019183 51 65 69
0.361900 0.371007 -0.012803 123 127 120
-0.294741 -0.001816 -0.041324 107 109 98
-0.265537 -0.050731 -0.041016 115 117 108
-0.284619 -0.171895 -0.045264 111 113 104
0.274086 -0.045835 0.111712 85 92 100
-0.310100 -0.099229 -0.044590 104 105 99
0.059822 -0.168305 0.104638 82 94 100
0.290107 0.506264 -0.027083 137 138 132
0.293217 -0.190826 -0.028080 123 125 114
0.142336 0.143533 -0.006789 34 44 47
-0.366520 -0.076365 0.333210 52 52 46
-0.160186 0.196500 0.076677 131 139 128
-0.215727 0.177873 -0.039669 60 61 55
-0.353909 0.257748 -0.062475 95 96 92
0.179317 -0.237379 -0.026666 121 122 116
-0.043034 0.367887 -0.041632 145 153 142
0.001352 -0.053360 -0.029110 26 33 25
0.379135 0.064164 -0.017477 137 139 126
0.265960 -0.010163 0.025973 48 58 65
0.052744 -0.213569 -0.035932 111 119 108
0.267841 -0.199992 -0.028283 119 121 112
-0.248228 0.050583 -0.041013 102 111 104
-0.093807 -0.007275 -0.030840 112 122 108
0.080480 -0.164722 -0.030687 75 84 77
0.107990 -0.253478 -0.032647 48 44 47
0.065324 0.090195 -0.031911 41 55 61
-0.004254 -0.001180 -0.030225 117 125 114
-0.297653 -0.208009 0.316563 41 48 42
-0.287536 -0.120538 -0.043695 109 111 102
0.184234 -0.038828 -0.021706 55 62 70
-0.102932 -0.158479 -0.043927 137 150 145
-0.329220 -0.220229 -0.004896 81 85 78
0.104887 -0.055689 -0.022649 53 65 69
-0.170308 0.432207 0.077568 133 135 124
0.254377 0.365150 -0.017252 133 138 124
0.202646 -0.258013 -0.030839 122 126 121
-0.307756 -0.098779 0.049948 112 117 107
0.390072 0.514059 -0.024968 55 55 49
-0.327849 -0.296148 -0.049464 103 104 100
-0.291550 -0.201473 -0.046351 101 105 98
-0.199956 0.216091 -0.008541 123 125 116
0.173301 0.072121 -0.025402 40 52 58
0.296470 -0.233170 -0.027750 122 126 121
0.230355 0.288479 -0.018614 55 45 45
0.150947 -0.242881 -0.032832 122 126 119
0.207460 -0.169410 -0.029618 0 1 0
0.069084 -0.164355 0.107116 63 69 80
0.373086 0.531960 -0.020623 140 145 133
0.329077 0.526893 -0.026793 138 143 131
-0.045248 -0.185833 -0.038769 112 117 105
-0.053682 -0.272000 -0.038615 122 127 117
-0.218429 -0.312993 -0.047141 122 123 117
-0.064250 0.004862 -0.031562 93 94 90
0.037024 0.150628 0.066522 27 37 40
-0.296619 -0.184903 0.306872 49 53 48
0.209679 -0.173302 0.108056 73 83 90
-0.358388 -0.053021 0.335958 94 123 124
-0.128631 0.092522 -0.037003 33 25 22
-0.235707 -0.206191 -0.045409 81 93 83
0.026063 -0.270268 -0.036410 119 120 114
0.041283 0.456345 -0.034958 136 144 129
-0.045550 -0.273339 -0.039959 128 130 121
0.011507 -0.165028 -0.034126 121 123 112
-0.174856 -0.224317 -0.044830 105 110 100
0.210562 0.434350 -0.023921 140 136 129
-0.276387 0.046445 -0.040396 106 111 101
-0.190096 -0.170827 -0.046046 132 143 143
-0.267469 -0.130614 -0.044521 139 148 141
-0.042414 0.079451 -0.030214 108 113 101
0.164011 0.118682 -0.019054 47 57 62
0.273993 0.030531 0.033288 45 55 60
-0.084364 0.205878 0.054231 127 132 120
0.247780 -0.040766 -0.012346 54 61 67
-0.100852 -0.310493 -0.043740 117 121 114
0.027805 -0.147151 0.098807 40 52 58
-0.074055 0.457989 0.000356 137 142 132
0.336489 0.124902 -0.022874 141 148 140
0.323206 -0.110545 -0.021843 134 138 133
0.031623 -0.231877 -0.033532 115 116 110
0.217685 0.394318 -0.025457 136 141 129
-0.240462 0.322865 -0.049469 115 119 112
0.313872 0.289218 -0.017261 101 97 90
-0.183918 -0.182287 -0.049047 141 150 143
-0.322581 -0.206539 0.172429 1 9 6
-0.345289 0.423065 0.067433 140 136 129
0.045104 0.323995 -0.029484 126 134 121
-0.082392 -0.051871 -0.032366 134 147 142
-0.311000 -0.219326 0.336047 78 103 110
0.156079 -0.207016 -0.030796 112 116 111
-0.076374 -0.014058 -0.033826 108 116 105
-0.295303 0.398273 -0.048045 121 125 118
0.330772 0.469883 -0.022644 140 142 131
-0.116831 -0.156206 -0.043192 136 149 146
-0.379179 -0.004376 -0.067196 119 128 121
-0.141988 -0.136565 -0.044156 129 142 139
-0.174217 -0.248362 -0.042834 109 114 104
0.377244 0.338701 -0.015474 81 81 75
0.053858 -0.002509 -0.022517 46 58 64
0.183741 -0.246845 -0.028257 109 109 105
-0.376230 -0.075395 0.336930 51 55 50
0.255494 0.120695 0.005348 40 50 57
-0.329137 -0.291998 -0.048567 101 105 100
0.112525 0.151218 -0.001260 27 35 36
0.225443 0.400655 -0.024504 137 138 127
0.375096 0.213480 -0.015733 96 84 84
-0.323905 0.417055 -0.048336 138 139 130
-0.344739 -0.300790 -0.048871 108 109 103
-0.138513 0.470178 0.026551 137 139 130
0.220389 0.156499 0.032671 33 40 44
-0.098049 0.211362 0.045589 127 132 122
-0.216237 -0.041824 -0.034426 116 127 125
0.356604 0.453702 -0.022321 138 139 133
0.394955 0.441859 -0.016731 146 147 134
-0.121175 0.171850 -0.037549 114 122 109
0.115690 0.123115 -0.022467 52 64 70
-0.113629 0.145310 -0.039548 109 118 109
-0.223986 -0.243063 -0.043752 112 117 105
-0.222762 0.121717 -0.043044 107 112 100
0.063588 0.047737 -0.029627 48 62 66
-0.268470 0.077074 -0.039296 18 11 5
-0.011878 0.052400 -0.029405 119 127 114
0.081017 0.462604 -0.031262 55 50 48
-0.311638 -0.184034 0.362710 95 117 120
0.217130 -0.084304 -0.021486 55 69 75
0.040948 0.047381 -0.021745 26 36 39
0.145970 -0.190000 -0.030403 104 114 100
0.214683 -0.013692 -0.018868 60 72 78
0.058202 0.364584 -0.027972 130 135 123
0.104418 -0.238932 -0.033082 112 120 109
-0.150363 0.368808 -0.044001 127 132 122
-0.353390 -0.097466 0.315617 22 29 23
0.370062 -0.190076 -0.025558 143 145 136
-0.024155 0.202808 0.061819 122 130 119
0.126100 0.118389 -0.025429 49 61 65
0.360050 -0.162008 -0.025275 138 140 131
-0.148575 -0.176568 -0.045929 140 151 149
0.139666 -0.088023 -0.023091 55 62 70
-0.279574 -0.212533 -0.045988 117 117 111
-0.227582 0.063870 -0.038201 107 112 100
-0.202761 0.445966 -0.017241 134 139 129
-0.059174 0.198229 0.087425 158 172 163
0.243539 -0.009681 -0.009813 67 77 84
-0.168160 0.132989 -0.038581 2 6 0
-0.241042 -0.165841 -0.032807 125 133 130
-0.003549 -0.263403 -0.037073 125 127 118
0.232210 -0.159146 -0.026506 82 86 79
-0.211688 -0.267332 -0.043630 121 122 116
-0.329172 -0.115219 0.145681 53 57 50
-0.115032 -0.163924 -0.044657 138 151 148
-0.017270 -0.169619 -0.036915 114 116 107
-0.052778 0.221654 -0.002922 119 129 115
0.368504 -0.044724 -0.022316 135 143 132
-0.362224 -0.111190 0.288743 96 104 93
-0.076250 -0.276935 -0.041899 121 128 120
0.263037 -0.010587 0.007113 47 57 62
-0.113772 0.018002 -0.034677 115 120 108
0.062320 0.461620 -0.035206 131 136 124
-0.067439 0.453878 0.032427 140 145 135
-0.010469 0.403442 -0.042704 152 157 147
0.085536 -0.188199 -0.030390 101 108 100
-0.306259 0.441712 0.069764 139 140 131
-0.215805 0.131828 -0.042552 108 113 101
-0.344922 -0.130138 0.016698 15 19 14
-0.295156 -0.195543 -0.046170 60 57 52
0.202665 0.505839 -0.027677 71 63 62
-0.233329 0.407809 -0.045147 124 126 115
0.264943 0.547707 -0.021845 133 135 126
-0.320192 -0.159999 -0.044525 96 98 89
0.069514 0.067456 -0.026039 45 57 61
0.319386 0.297032 -0.016334 135 137 128
-0.350125 -0.042915 0.333004 91 116 121
-0.328534 -0.245379 -0.047656 103 103 97
-0.291446 0.435492 -0.014294 132 134 123
-0.181334 -0.116060 -0.043741 77 81 76
-0.054295 0.431693 -0.033063 135 143 132
0.338897 0.315399 -0.015545 144 146 135
-0.073734 0.156410 -0.036291 110 115 105
-0.126990 0.180978 -0.035857 101 106 94
0.116002 0.300599 -0.023573 124 129 117
-0.029647 0.362966 -0.041558 144 156 146
0.091211 0.146018 -0.003836 29 34 39
-0.345272 -0.349124 -0.051030 118 116 108
-0.209148 0.136367 -0.040311 57 55 45
0.379372 0.096275 -0.017820 137 142 128
0.028137 0.343704 -0.030144 101 103 94
0.293017 0.299801 -0.021881 137 138 127
-0.194923 -0.291554 -0.044067 112 120 109
-0.296625 0.450508 0.020791 137 138 127
-0.229503 -0.148594 -0.042370 123 134 130
-0.067098 -0.015955 -0.034053 90 92 81
0.178076 0.383033 -0.022801 117 124 118
-0.322857 -0.172564 0.368308 97 116 120
-0.306404 -0.034553 -0.043883 110 118 105
0.044906 0.007957 -0.019781 28 35 39
0.149600 -0.177419 0.108763 155 179 177
-0.361249 0.180528 -0.077657 94 95 91
-0.332523 0.194225 0.068951 133 131 123
0.162393 0.061818 -0.021119 46 56 59
0.346674 0.009290 -0.021217 139 140 131
-0.369573 -0.114819 0.319686 41 41 37
-0.033615 -0.162380 -0.037975 100 112 104
-0.113052 -0.304290 -0.040805 121 122 116
-0.320604 0.433743 -0.014056 134 135 126
-0.253137 0.220837 0.013454 129 131 122
-0.271631 -0.225971 -0.044943 119 121 112
0.046776 0.044414 -0.021417 28 35 39
-0.205488 0.438626 -0.022209 133 138 128
-0.123734 -0.264051 -0.042583 122 127 117
-0.181203 0.205081 -0.037400 93 95 86
-0.322798 0.047545 -0.041097 102 107 95
-0.005290 -0.254696 -0.036774 127 131 124
0.118924 0.151473 0.004313 26 33 37
-0.202045 0.036517 -0.039268 46 48 39
0.205680 -0.055667 -0.018588 57 67 72
0.265184 -0.065601 0.057950 43 57 61
-0.302704 0.344871 -0.051881 118 120 111
-0.118206 0.456242 0.002639 134 142 131
-0.320321 -0.079297 0.091566 115 127 117
0.227407 0.403915 -0.024688 136 137 126
0.030707 -0.198607 -0.035514 106 110 105
0.165910 0.361577 -0.025626 133 134 123
0.094612 -0.258765 -0.032998 119 121 112
-0.053709 0.459547 0.030125 140 144 137
0.342441 0.232083 -0.016975 145 143 135
-0.132435 0.118008 -0.037610 94 99 89
-0.221878 0.340197 -0.052410 112 120 109
-0.164805 -0.177955 -0.045807 139 147 146
0.145024 -0.094853 -0.020341 57 67 74
-0.049680 0.195424 0.085257 141 148 140
-0.001530 0.261699 0.089329 154 168 157
0.378981 -0.121656 -0.023051 108 108 108
-0.305921 -0.187558 0.350977 93 119 121
0.270591 -0.002109 0.048245 48 58 65
-0.005374 -0.197170 -0.035479 113 117 110
-0.154443 0.468210 0.007432 136 138 129
0.250831 0.100397 -0.013184 46 56 63
0.342060 -0.199203 -0.028311 140 141 132
-0.256656 0.029371 -0.039412 115 117 106
-0.213132 -0.215358 -0.044298 109 114 104
0.323559 0.437553 -0.018681 144 145 132
-0.350347 0.190067 -0.066891 105 113 102
0.395543 -0.048976 -0.020755 138 143 133
-0.327075 -0.133891 -0.042770 104 106 97
-0.150770 -0.135035 -0.043277 134 147 142
0.018272 0.095279 0.106045 76 90 94
-0.154085 0.113498 -0.037791 105 113 102
0.340381 -0.172001 -0.024810 135 140 128
0.109115 0.390746 -0.026044 42 35 29
-0.297226 -0.235403 0.163351 0 5 0
-0.053889 -0.298581 -0.039185 120 127 119
-0.082849 0.367748 -0.043044 132 140 129
0.091559 -0.269639 -0.033354 117 121 116
-0.182881 -0.124167 -0.046849 119 127 124
0.041882 0.398686 -0.032029 48 48 42
0.081793 -0.073885 -0.024480 56 68 72
0.193224 0.422664 -0.027849 130 132 123
-0.299559 -0.214229 0.126504 1 1 1
0.117135 -0.191717 -0.031867 101 108 100
0.027263 -0.062900 0.102473 45 57 63
-0.292617 -0.009054 -0.041947 108 113 101
0.091074 0.116223 -0.027129 51 63 69
-0.306016 -0.190716 0.350066 93 115 118
0.341747 -0.081066 -0.023420 30 27 24
0.284160 0.333561 -0.016691 140 144 137
-0.294981 0.215983 -0.028140 122 127 117
-0.058005 0.221796 0.021532 124 129 117
-0.360120 -0.054803 0.335823 95 119 121
-0.287086 -0.194054 0.266467 19 18 1
0.032428 -0.180860 -0.034168 109 114 104
-0.039646 0.431172 -0.028519 139 148 139
-0.042040 0.453568 0.004390 141 146 136
0.262933 -0.132464 0.112473 61 68 76
0.246148 -0.085932 -0.015305 55 65 70
0.060511 -0.270368 -0.035119 118 120 111
0.046344 0.158273 0.041264 26 36 39
-0.334587 0.231924 -0.038881 33 35 26
-0.216878 0.166758 -0.040738 111 113 102
-0.054796 0.439800 -0.017340 139 141 132
-0.104545 0.434122 -0.021259 134 138 131
-0.049361 0.179696 -0.032470 112 120 109
-0.141853 -0.176929 -0.046148 139 152 149
0.387654 0.358734 -0.015734 140 145 133
0.199365 0.522362 -0.027578 140 145 133
-0.145921 -0.051206 -0.041866 132 145 142
0.039933 -0.242479 -0.034623 55 52 47
0.224328 0.336185 -0.021663 138 143 133
-0.333527 -0.060608 0.297538 108 112 107
-0.262542 -0.149948 -0.041614 109 114 104
0.280737 0.041632 0.099394 86 93 99
0.160452 0.166508 0.060786 32 37 42
-0.064504 -0.293065 -0.039506 122 123 117
0.064075 0.085726 -0.031834 43 55 61
-0.175796 -0.044229 -0.041034 132 139 133
0.362844 0.170754 -0.018732 143 151 140
-0.090869 0.046319 -0.033477 115 128 115
-0.090311 0.106064 -0.035239 106 111 99
-0.371239 -0.053453 0.336608 60 60 56
-0.034586 -0.165705 -0.038690 104 111 103
0.157937 -0.036670 -0.021577 53 65 71
0.209616 0.061211 -0.020717 51 63 67
0.240809 -0.245555 -0.029969 127 136 129
0.250090 0.077703 -0.012720 47 57 62
0.190258 0.298408 -0.021260 130 135 125
-0.144397 -0.180375 -0.047500 142 153 151
-0.017299 0.012142 -0.031036 122 127 117
0.011879 0.250071 0.067014 87 91 84
-0.285495 0.015743 -0.040388 106 111 99
0.231972 0.526585 -0.026724 140 142 131
-0.184470 -0.320722 -0.043534 126 127 123
0.212373 -0.226439 -0.030073 124 129 119
-0.245332 -0.004206 -0.040207 110 118 105
-0.301229 -0.231668 0.131636 8 11 10
-0.172582 0.081116 -0.036982 106 114 101
0.168360 -0.148231 -0.025387 95 110 109
0.034641 -0.265975 -0.035171 105 114 105
0.121127 0.063545 -0.025494 44 58 62
-0.319571 -0.129041 -0.047235 98 103 93
-0.110902 0.224177 -0.011681 121 129 118
-0.013309 0.230208 -0.030038 89 94 82
0.395556 0.277554 -0.011965 139 141 130
0.307417 0.415446 -0.025875 139 140 131
0.368284 -0.185798 -0.025162 140 141 135
-0.171292 0.146135 -0.039229 113 121 108
0.268523 0.279644 -0.017930 137 142 132
-0.278836 -0.000701 -0.041024 106 114 101
-0.093398 0.379616 -0.044103 130 135 125
-0.141850 -0.273314 -0.042858 121 123 114
0.362908 -0.207899 -0.027793 33 21 32
0.279208 0.050228 0.103356 86 96 99
0.260389 -0.177507 -0.029416 111 113 104
-0.042606 0.141813 -0.030507 110 118 107
-0.304762 -0.191091 0.344121 93 119 119
-0.147715 -0.286378 -0.043002 117 119 108
-0.308755 -0.219920 0.302749 37 41 36
0.211785 0.141877 -0.008176 41 55 61
-0.275146 0.212710 0.017551 128 133 123
0.379601 0.045341 -0.018859 143 148 138
0.162116 0.156324 0.033292 27 34 38
0.337795 -0.148780 -0.023250 136 137 128
-0.183813 0.367155 -0.051436 123 128 116
-0.129601 0.202361 -0.033894 77 78 67
-0.237270 -0.201417 -0.045881 104 114 102
-0.020484 -0.210986 -0.036022 117 118 112
0.100899 -0.146339 -0.029604 43 46 45
-0.081676 -0.253887 -0.040429 119 121 112
-0.377908 -0.002348 -0.066636 110 119 110
-0.290837 -0.133688 0.123482 12 18 16
-0.100303 -0.171048 -0.051553 143 154 150
0.221389 -0.093693 -0.022174 59 69 76
-0.196377 0.043250 -0.038087 106 114 103
-0.117869 -0.166051 -0.044982 139 152 149
0.323418 0.445672 -0.018715 143 145 132
-0.110341 -0.083181 -0.041823 135 146 144
0.365862 -0.219655 -0.026938 143 143 137
0.206441 0.105529 -0.021087 50 60 63
-0.100297 -0.281263 -0.041399 113 117 110
-0.281727 -0.188691 0.237647 11 14 15
0.386753 0.240682 -0.015417 143 145 134
0.239806 -0.152812 0.079056 45 52 60
-0.035032 -0.187612 -0.037212 108 113 103
0.195840 -0.076428 -0.020457 54 64 71
-0.297047 0.396299 -0.049434 119 121 112
-0.147654 -0.044093 -0.041600 126 141 140
-0.326735 0.345636 -0.040502 139 140 131
0.135239 -0.066398 -0.021562 54 64 71
-0.234017 0.401249 -0.047389 121 126 114
-0.161340 0.321895 -0.048203 124 131 123
-0.348965 -0.289466 -0.048531 110 111 105
-0.142073 0.102351 -0.036618 106 114 103
0.005462 -0.095259 -0.030826 126 126 122
-0.293618 0.400409 -0.046852 124 129 117
-0.178869 -0.201035 -0.037501 137 148 146
0.104137 0.530467 -0.029676 133 138 126
0.371184 0.219306 -0.015611 136 144 133
0.271260 -0.024126 0.113857 82 92 97
0.143788 0.137748 -0.011182 42 56 62
-0.256142 0.065656 -0.040855 107 109 96
0.061483 -0.218623 -0.034201 117 122 112
0.081290 0.288674 -0.024726 72 64 61
0.088051 -0.004108 -0.025218 53 64 73
0.217201 0.145570 -0.001248 30 42 46
0.291069 0.299486 -0.022053 137 138 127
-0.207962 -0.137829 -0.046707 120 128 127
-0.282881 -0.337283 -0.047700 120 121 112
0.227417 0.159181 0.058805 31 41 44
-0.036996 -0.283695 -0.040340 82 86 81
-0.255046 0.399037 -0.050583 118 120 111
0.004177 -0.254453 -0.037234 73 68 66
-0.336265 -0.129409 -0.012148 112 114 103
-0.144735 0.443762 -0.020914 134 139 129
-0.243199 0.421769 -0.047614 126 128 119
-0.106379 0.165769 -0.037269 116 118 107
0.222091 -0.229342 -0.029718 128 129 123
0.129027 0.425904 -0.027020 133 135 124
0.140634 0.101694 -0.023933 44 56 60
-0.146938 0.220646 -0.008125 124 132 121
-0.221928 -0.218581 -0.044363 112 113 104
-0.204720 0.089988 -0.038234 108 115 107
0.386772 0.089800 -0.018029 146 144 132
0.149664 -0.037656 -0.023255 51 65 71
-0.309268 -0.002155 -0.042624 105 107 96
-0.039974 0.388370 -0.042768 143 150 142
-0.334464 -0.113308 -0.044111 9 6 1
-0.193308 0.441112 -0.027724 134 138 131
-0.286516 0.188330 0.064100 130 132 121
-0.212209 -0.286920 -0.045151 116 117 108
0.355410 0.173830 -0.019282 135 140 128
-0.179635 0.215610 -0.034941 119 127 112
-0.091700 -0.008792 -0.030836 111 124 109
0.034187 0.438881 -0.029827 126 134 119
-0.353904 -0.082579 0.016153 34 43 36
0.099544 -0.238288 -0.032995 117 121 114
-0.335904 -0.216045 -0.041512 69 77 66
0.057389 -0.071772 -0.023521 54 66 68
0.242757 0.157853 0.096427 36 46 51
-0.080189 -0.239851 -0.039730 107 104 101
-0.037079 -0.169740 -0.037793 107 112 102
0.176095 -0.156250 -0.027035 62 63 57
-0.274464 -0.276317 -0.047365 122 122 116
0.076882 -0.185042 -0.030032 99 103 98
0.213212 0.048269 -0.016803 55 65 72
0.229733 -0.108883 -0.017526 66 78 82
-0.288441 -0.212830 0.128694 89 92 95
-0.308528 -0.210793 0.346556 80 106 108
0.353702 0.397090 -0.019083 142 147 135
-0.148475 -0.163584 -0.044096 139 150 148
-0.294395 -0.129794 0.172103 14 17 16
-0.233342 0.535103 -0.010761 138 139 130
-0.371521 -0.114640 0.320938 36 43 35
-0.004870 0.143582 -0.031043 115 123 112
0.117156 0.026111 -0.019241 55 65 72
0.168325 -0.237778 -0.026862 117 121 114
0.147108 -0.031010 -0.022676 52 64 70
0.343400 0.127654 -0.021349 75 70 66
-0.152607 -0.052574 -0.041757 133 144 140
0.067500 0.156861 0.033828 22 34 38
-0.309010 -0.245576 0.167422 5 6 2
0.112409 0.163469 0.115949 159 182 176
0.356313 -0.207607 -0.027326 61 39 43
0.080404 -0.053105 -0.022859 52 66 70
0.122537 -0.209992 -0.030374 110 111 102
0.193958 -0.235879 -0.029300 127 132 122
0.146001 -0.204218 -0.030349 90 87 84
0.048071 0.085458 -0.021627 22 32 35
-0.062098 0.220289 -0.003951 121 129 116
-0.115800 0.436969 0.078383 137 139 130
-0.346838 -0.028182 0.334664 112 120 119
-0.097348 -0.031375 -0.030011 125 136 132
-0.093476 0.446562 0.074534 137 142 132
0.090598 -0.085460 -0.027264 55 65 72
-0.096683 0.127851 -0.033901 120 130 116
-0.345552 -0.223403 -0.045039 16 19 18
0.002824 0.228474 0.044039 93 101 90
-0.134857 -0.067780 -0.041727 136 147 145
-0.135263 0.040501 -0.036054 87 95 84
0.108874 0.062103 -0.027705 46 58 64
0.349176 0.293466 -0.015541 141 146 136
-0.105755 0.135035 -0.034436 117 125 112
0.361652 0.385000 -0.017855 142 144 133
-0.047715 -0.241930 -0.038970 24 15 20
0.166947 0.544550 -0.028243 112 113 104
0.223917 0.427145 -0.024554 138 140 129
0.345411 -0.177383 -0.024973 69 69 73
-0.325803 -0.321416 -0.048157 62 62 58
0.150317 0.126730 -0.019667 52 62 69
-0.298993 -0.212378 0.300934 39 46 40
-0.125789 -0.119634 -0.043590 127 140 137
-0.270087 -0.293786 -0.047423 119 124 114
-0.055063 -0.123668 -0.032844 54 61 53
-0.085762 0.372079 -0.042615 133 138 128
0.149470 -0.244757 -0.032160 118 119 113
-0.281517 -0.177177 0.193086 21 24 23
-0.101500 0.221373 0.027708 124 132 121
-0.354822 -0.113372 0.306704 38 32 36
-0.165775 0.155576 -0.037963 63 67 60
-0.336017 0.095899 -0.040612 47 48 44
0.234293 0.127730 -0.012437 88 100 102
-0.330249 0.359166 -0.038354 140 141 132
0.231730 0.130325 -0.010403 64 76 82
-0.343592 -0.135715 0.014142 12 12 12
0.273455 -0.246077 -0.028050 125 127 118
-0.061566 -0.017007 -0.033509 114 119 105
-0.307769 -0.190714 0.354084 90 116 118
0.379933 0.451424 -0.016204 143 144 133
-0.371322 -0.106329 0.327602 43 47 42
0.080479 -0.078327 -0.022667 59 69 74
-0.269279 -0.244204 -0.047145 72 76 69
0.030566 0.100958 0.107478 27 32 39
-0.290486 -0.217997 0.103447 108 113 101
0.095073 -0.186422 -0.030564 95 99 92
0.273291 0.029983 0.112944 87 97 100
-0.219097 0.215766 -0.007528 123 128 116
-0.126701 0.051332 -0.033730 110 112 101
-0.297430 0.357530 -0.049384 115 117 108
0.043439 -0.160126 -0.030311 84 82 74
0.064834 -0.003230 -0.024668 54 64 71
0.176652 -0.187599 -0.030566 105 109 102
0.357803 0.546217 -0.021191 96 100 95
0.353565 0.186803 -0.019743 141 146 132
-0.215330 0.066453 -0.038217 107 115 104
0.325590 -0.104353 -0.024396 135 136 130
-0.075321 -0.300432 -0.042176 123 127 120
-0.207749 0.010442 -0.038108 46 37 30
-0.113257 -0.070731 -0.042288 136 149 148
-0.264387 -0.310655 -0.047723 111 105 109
0.275078 0.440915 -0.020115 140 142 129
-0.051158 0.057964 -0.032206 112 120 109
0.069190 0.150283 0.002909 23 33 36
0.340246 0.247618 -0.016859 33 30 25
0.371337 0.313183 -0.016008 135 137 126
0.354984 0.265642 -0.014530 146 147 134
0.060632 0.023718 -0.021875 54 66 72
0.209479 0.005514 -0.017833 58 70 76
0.243142 0.368655 -0.021851 26 26 20
-0.302217 -0.228453 0.159808 5 5 5
0.139099 -0.188275 -0.029419 0 1 0
0.055742 0.308444 -0.032496 126 131 121
-0.363919 0.187793 -0.057528 11 12 6
-0.079514 0.127201 -0.034021 105 115 103
-0.111159 0.330243 -0.047374 126 136 124
0.021999 0.058527 0.108075 74 86 90
0.261727 -0.200885 -0.029342 118 120 111
-0.089366 0.460609 0.034248 138 143 133
-0.102517 0.416928 -0.042080 200 208 195
-0.087690 0.215678 -0.019082 120 128 117
0.365994 0.480662 -0.018982 145 146 133
-0.027785 0.070088 -0.030340 113 121 110
-0.073251 -0.276363 -0.042159 123 128 118
0.228570 0.349237 -0.017510 136 138 127
-0.014204 0.385379 -0.041643 147 155 144
-0.013963 -0.274049 -0.038143 122 123 117
0.089520 -0.041225 -0.025393 54 66 70
-0.006270 0.293918 -0.002080 155 164 157
-0.020398 0.227667 0.012119 122 130 119
-0.077183 0.204026 -0.033091 98 103 93
-0.021517 -0.022808 -0.032562 119 124 112
0.118054 -0.160760 -0.031999 67 68 64
-0.344531 0.438742 -0.007755 145 143 135
-0.224753 0.370935 -0.048069 113 118 108
-0.140985 0.081244 -0.036702 105 113 100
-0.310130 -0.135851 0.151551 103 110 104
-0.318153 -0.218295 -0.045110 110 108 100
0.058741 -0.070059 -0.022564 54 66 70
-0.331700 -0.106403 -0.001269 15 16 12
0.361324 0.003212 -0.022367 116 120 113
-0.277226 0.320216 -0.050289 113 118 108
-0.191955 -0.070561 -0.044291 129 140 136
0.270268 -0.035651 0.113131 86 96 101
-0.055044 -0.252155 -0.040671 114 119 109
-0.084421 -0.144363 -0.045231 136 147 143
-0.292745 -0.194449 0.296639 43 50 42
0.164610 -0.180003 -0.031438 93 98 88
0.192017 -0.034538 -0.019320 54 64 69
-0.296068 0.546298 -0.021812 139 141 132
0.016786 -0.121693 -0.028763 63 71 68
0.160421 -0.203189 -0.030381 112 113 107
-0.086894 -0.191011 -0.042141 84 89 77
-0.065919 0.039964 -0.030796 30 37 29
-0.200178 0.346341 -0.050453 109 113 106
0.039453 0.288790 -0.027709 32 33 24
-0.245380 -0.266940 -0.045046 118 120 111
-0.333165 -0.319514 -0.049652 39 35 40
-0.292505 -0.147640 -0.044831 98 103 93
0.077152 0.459244 -0.031703 72 74 65
0.128557 0.010891 -0.023502 55 65 72
0.032250 0.241652 0.002345 82 89 83
0.322528 0.168132 -0.017522 126 137 135
-0.010749 -0.108632 -0.031690 41 44 43
-0.310100 -0.137879 0.169616 35 39 34
-0.003981 0.114637 -0.029502 110 119 110
-0.311431 -0.067056 -0.042028 105 112 104
-0.143078 -0.257871 -0.044802 119 121 112
-0.056613 -0.300375 -0.040184 119 126 118
-0.016361 0.422250 -0.034152 144 153 146
-0.229369 0.063581 -0.038359 103 108 98
-0.343674 0.019990 -0.052193 96 103 95
-0.115467 -0.283718 -0.042737 75 70 66
-0.093787 -0.281837 -0.040017 94 91 88
-0.308015 -0.182047 0.360376 99 121 124
0.110927 0.119080 -0.024717 47 59 65
0.245135 0.037268 -0.012732 75 88 87
0.004615 0.244993 0.089120 155 167 159
0.177166 -0.165661 -0.027728 57 58 54
-0.145994 0.225869 0.004545 124 131 123
0.014615 -0.267592 -0.037747 129 131 122
-0.043141 0.221678 -0.003219 119 129 115
-0.042746 -0.278874 -0.039630 125 127 118
0.362721 0.499285 -0.022005 144 145 132
-0.174027 0.125516 -0.039316 112 117 103
-0.319959 -0.155095 -0.043497 12 12 8
-0.049712 -0.296439 -0.038855 123 127 120
-0.223047 0.183584 -0.040176 102 107 95
0.068615 -0.152234 -0.029962 50 59 52
0.376379 0.009006 -0.020017 143 136 130
-0.127762 -0.013086 -0.024555 117 130 125
0.105168 -0.265682 -0.034036 116 117 113
-0.236835 -0.139039 -0.038716 123 137 128
-0.261255 -0.023202 -0.040212 111 119 106
-0.121444 -0.242071 -0.042305 94 98 91
-0.155810 0.057512 -0.037359 111 119 106
-0.040601 -0.207718 -0.038438 117 119 110
-0.333825 -0.115057 -0.043946 93 97 90
-0.357361 -0.096391 0.325687 15 19 14
0.152060 -0.213936 -0.030939 115 120 110
-0.314411 0.448253 0.024156 138 136 126
0.217510 0.288677 -0.023057 133 138 128
0.266593 -0.038949 0.022445 46 56 63
0.023039 0.141531 0.107026 72 84 86
-0.112186 0.400018 -0.041217 147 148 144
0.002463 -0.096906 -0.032888 4 5 1
-0.275872 0.454084 0.002681 135 137 128
-0.049514 -0.149979 -0.038722 107 109 98
-0.200593 0.348264 -0.049660 107 114 106
-0.198838 -0.192488 -0.034379 130 141 137
0.088187 -0.184694 -0.029578 94 101 93
-0.214947 -0.304856 -0.048034 119 121 112
0.005546 0.311147 0.107859 150 168 164
-0.301062 -0.202394 0.329177 45 49 44
-0.038129 -0.028487 -0.031405 115 123 110
-0.250359 0.452625 0.041064 137 138 127
0.070099 0.164595 0.046182 24 34 37
0.293406 0.428651 -0.023023 140 142 131
0.055556 0.153740 0.031248 23 35 37
-0.030905 -0.065618 -0.032749 30 31 27
-0.268357 -0.164290 -0.043334 14 19 7
0.223413 0.008243 -0.017771 59 73 79
-0.339337 -0.284900 -0.047429 105 106 95
0.268914 0.531506 -0.025491 142 144 133
0.174842 -0.198666 -0.032180 53 54 48
0.285849 -0.093437 0.079840 79 91 97
0.232849 0.453012 -0.023546 137 142 132
0.021314 -0.253016 -0.036758 121 126 116
0.146843 0.037015 -0.021514 51 63 69
0.026318 0.141922 0.107524 60 77 80
0.063238 -0.220052 -0.033287 119 121 112
-0.051274 -0.254705 -0.039817 118 120 111
0.165362 -0.078783 -0.020268 55 65 70
0.341624 0.300006 -0.017015 66 62 55
0.352407 -0.121460 -0.023448 141 149 136
0.393213 0.080177 -0.015987 144 149 139
0.164777 0.036472 -0.021003 49 62 71
0.268457 0.402692 -0.021176 138 140 129
-0.305983 -0.207552 0.136855 0 0 0
0.032444 -0.236168 -0.034506 112 113 107
0.093922 -0.189854 -0.030479 99 103 96
-0.088256 0.025329 -0.034932 112 122 108
-0.003289 -0.111705 -0.034005 103 111 100
-0.098726 -0.132900 -0.040777 136 149 144
0.113960 -0.071420 -0.024037 52 64 70
0.033803 0.297861 -0.024903 115 123 108
0.222538 0.333517 -0.022008 92 92 86
-0.256800 0.455664 0.011544 136 137 126
0.276318 0.329634 -0.017153 73 68 66
0.017039 -0.085529 0.104717 75 87 91
-0.267711 -0.336202 -0.046846 93 91 83
0.097354 -0.086417 -0.025812 54 64 69
0.207457 0.443248 -0.022365 137 142 128
0.264323 -0.075601 0.067250 46 56 61
-0.296699 -0.225207 -0.047032 107 109 100
0.390394 -0.163339 -0.023231 143 148 138
-0.277354 -0.234518 -0.047141 116 120 113
0.204426 0.132550 -0.013386 54 64 69
0.365249 -0.167305 -0.025965 99 107 96
0.113961 -0.192286 -0.031892 99 106 98
0.065308 -0.052453 -0.027614 52 64 70
-0.192062 -0.140084 -0.046578 117 130 125
0.001877 0.393889 0.073429 149 163 154
-0.108474 0.068528 -0.035600 110 118 103
0.208412 0.069906 -0.018420 49 61 65
-0.334980 -0.053697 0.317465 81 103 106
0.027852 -0.069405 0.090514 40 54 58
-0.108739 0.271336 -0.006459 148 160 152
-0.131186 -0.217828 -0.045313 11 15 8
-0.044843 -0.002985 -0.031423 110 120 108
0.346061 0.485965 -0.017679 140 142 131
0.078098 -0.273411 -0.033715 122 123 117
0.378512 -0.093572 -0.021637 131 132 126
-0.229645 0.431705 -0.027175 131 133 122
0.121195 0.096816 -0.026332 46 58 62
0.238991 -0.200338 -0.028978 123 125 116
-0.190054 0.076184 -0.038557 104 114 102
-0.327697 -0.167996 -0.045550 101 103 94
0.262790 -0.140431 0.109154 54 61 69
0.191380 0.158649 0.060603 31 38 42
0.286813 0.327641 -0.018010 134 139 127
-0.323453 -0.285129 -0.047310 102 103 92
