ply
format ascii 1.0
element vertex 1217
property float x
property float y
property float z
property uchar red
property uchar green
property uchar blue
end_header
0.237438 -0.223710 -0.029025 108 109 103
0.175507 -0.220302 -0.032456 102 107 97
0.399663 0.028668 -0.020031 74 76 67
0.259447 0.152722 -0.013582 13 21 20
-0.262840 0.414191 0.077563 161 162 156
-0.110683 0.177273 -0.038874 99 107 94
0.074095 -0.238202 -0.033137 95 96 90
0.131790 0.182601 0.007829 14 17 20
0.033508 0.464114 -0.033058 135 140 130
0.111667 0.466591 -0.024295 79 77 69
-0.178380 0.502957 -0.015725 145 143 133
-0.064085 -0.064457 -0.028780 119 130 128
-0.218566 -0.126243 0.090367 27 28 24
-0.264834 -0.165175 -0.043840 68 70 61
0.142991 -0.082496 -0.016629 15 21 23
-0.138844 -0.260723 -0.042079 109 110 104
-0.015313 -0.127231 -0.041666 124 137 134
0.032517 0.013414 -0.028952 87 91 84
-0.339856 -0.116546 0.321705 89 120 120
-0.143648 0.252395 0.065571 133 141 130
0.361844 -0.223708 -0.024597 107 108 102
0.213490 -0.120277 -0.029983 77 81 74
0.229681 0.031746 -0.020581 18 24 24
0.249746 0.398209 -0.020992 109 111 98
-0.076920 0.261598 -0.016420 123 133 121
-0.029717 -0.131412 -0.042547 125 136 132
-0.293990 -0.256557 -0.047319 133 131 121
0.070997 -0.153953 -0.034328 55 56 47
0.127976 -0.137970 0.101160 57 67 72
0.224801 -0.053249 -0.020145 23 26 27
-0.343323 -0.125789 -0.049122 115 116 105
-0.290187 -0.291081 -0.048707 134 135 126
0.077073 -0.170315 -0.037068 27 31 24
-0.020616 0.135216 -0.029982 95 100 90
0.338363 0.099222 0.111034 69 74 81
0.033446 0.261001 0.002139 120 128 117
-0.220739 -0.078927 -0.042172 106 107 96
-0.062511 0.423885 -0.048693 126 127 123
-0.161982 -0.297558 -0.044664 115 119 112
0.200361 0.497169 -0.025059 61 59 47
0.265283 -0.140616 -0.030785 91 92 88
0.203917 -0.203319 -0.029851 102 104 95
0.245762 0.125574 -0.019835 14 17 20
-0.186689 0.032822 -0.041866 91 101 89
-0.225075 -0.105583 0.027239 92 96 91
0.055196 -0.029317 -0.030333 74 77 76
-0.311402 -0.256698 -0.046811 126 128 119
0.255770 0.082713 -0.020860 13 21 22
-0.018841 0.513984 0.018722 152 153 142
0.215268 0.538152 -0.024613 113 117 110
-0.254351 0.500921 0.024536 170 168 156
-0.171110 -0.006767 -0.040498 91 95 88
0.062772 -0.282930 -0.037256 99 106 98
-0.139927 0.151763 -0.037355 98 106 95
0.050737 0.050167 -0.031774 91 95 90
-0.060171 -0.192855 -0.041253 128 139 137
-0.001915 -0.232455 -0.029764 94 95 91
-0.342082 -0.184367 -0.040173 130 132 121
-0.055679 -0.220674 -0.042595 118 125 119
0.350310 0.506547 -0.023985 83 83 79
-0.105103 -0.020856 -0.035853 85 93 82
0.208740 -0.202407 -0.030111 97 99 88
-0.290438 -0.086329 0.306209 81 82 76
0.379539 0.425572 -0.020926 128 125 120
-0.200369 -0.065879 0.185801 22 25 24
-0.285334 -0.194210 -0.044419 123 127 120
0.207909 -0.172353 -0.030506 91 95 90
0.075394 -0.184981 -0.031455 26 28 19
0.237543 -0.157719 -0.028462 98 99 95
0.269563 -0.021250 -0.019482 33 40 44
0.107983 0.421440 -0.014810 108 109 103
-0.143634 -0.151802 -0.029550 106 112 110
0.254639 -0.212807 -0.030259 96 105 96
-0.258938 -0.236084 -0.046564 136 129 121
0.004407 -0.171157 -0.034665 133 144 142
-0.089904 0.094915 -0.034298 93 98 84
0.220289 0.423815 -0.018285 108 109 96
-0.075916 -0.278357 -0.042009 116 117 111
-0.234357 -0.288684 -0.048819 128 130 121
0.251342 0.376498 -0.022876 108 109 103
0.111026 -0.064092 -0.010971 26 31 36
0.079170 -0.173164 -0.037245 77 77 77
-0.119855 0.483250 0.108976 153 158 144
0.006417 -0.164363 -0.033946 133 144 142
-0.143711 0.022325 -0.035575 98 103 91
-0.211262 0.251488 0.075942 145 152 144
0.062212 -0.140752 -0.033403 65 65 59
-0.076928 0.256525 -0.039825 93 101 88
0.391456 -0.121570 -0.020807 83 90 84
-0.306374 -0.109249 0.305530 65 67 56
0.278902 -0.194373 -0.022853 11 12 3
0.101936 -0.150106 -0.033511 88 89 85
0.182910 0.180969 0.014180 8 16 15
0.245860 0.185965 0.052598 26 33 37
0.063320 0.495473 -0.000506 153 162 153
-0.321180 -0.072516 -0.047074 110 117 109
0.217631 -0.205002 -0.032723 104 106 97
0.260248 -0.150272 -0.028639 89 93 86
-0.354649 0.013547 0.263680 66 70 65
-0.021945 0.509952 0.049940 152 153 140
0.126180 -0.138795 0.078045 53 63 66
0.078041 0.103741 0.110117 84 92 91
0.172027 -0.079630 -0.019164 21 24 27
-0.345563 -0.110613 0.332237 103 127 129
-0.026000 -0.107785 -0.037773 115 130 129
-0.003821 -0.022185 -0.034763 77 86 79
0.395788 0.390453 -0.014750 124 122 112
0.156110 -0.149288 -0.030085 93 98 88
-0.291956 0.279546 -0.039332 140 141 132
0.310532 0.456517 -0.025558 124 129 115
0.311263 -0.224170 -0.030352 109 110 104
-0.234346 0.115693 -0.022730 114 119 107
-0.344616 0.116745 -0.041558 141 146 136
0.075620 -0.136623 -0.039192 0 1 0
-0.262834 -0.296939 -0.047823 90 92 83
0.080011 0.025115 0.107353 61 70 80
0.284764 0.185736 0.092856 29 34 39
-0.087297 0.254934 0.078677 137 146 137
-0.096848 0.031719 -0.031032 43 50 44
-0.137352 -0.152194 -0.035446 103 112 105
-0.272151 -0.107700 0.244748 72 86 75
-0.218791 -0.060029 0.214514 21 28 20
0.186186 0.398451 -0.026512 105 106 93
-0.304315 0.213706 -0.044610 136 138 127
0.336248 0.451297 -0.025198 125 127 116
0.328578 0.104409 0.115030 63 75 79
0.141516 0.145893 -0.022756 16 18 24
0.083084 -0.273645 -0.036309 114 122 109
0.074353 -0.155463 -0.032557 30 31 25
0.215263 0.186248 0.051781 23 33 38
-0.344880 -0.102914 0.339751 112 140 146
0.076962 0.123939 -0.027131 74 79 69
0.090076 0.328905 -0.032497 104 106 95
0.001802 0.222696 -0.031469 110 120 104
0.062949 -0.174199 -0.038482 62 69 63
-0.238535 0.228553 -0.041288 127 132 120
0.374116 0.130122 0.038237 68 73 80
-0.181710 -0.042621 0.194701 20 28 25
-0.051364 0.490479 -0.027854 140 145 135
-0.285471 -0.112085 0.271528 106 114 103
0.165103 0.192360 0.099972 32 42 47
0.265639 0.339409 -0.023611 93 98 88
0.007756 0.260711 -0.012192 120 125 115
-0.058213 0.256772 -0.017312 126 131 121
-0.149298 0.015366 -0.035976 94 99 87
0.186188 -0.139066 0.111151 89 108 110
-0.143837 -0.237545 -0.045696 115 117 108
0.036923 -0.088706 -0.032360 70 74 69
0.078194 -0.245434 -0.031123 0 4 2
-0.201171 -0.073418 0.184676 24 24 24
-0.282365 -0.071222 0.301290 66 75 66
-0.285938 -0.219573 -0.048536 128 133 123
0.273662 0.015265 -0.015278 32 42 45
0.220622 0.190371 0.077028 25 35 38
-0.334643 -0.116645 -0.049732 28 27 12
0.222917 0.189712 0.069011 26 34 35
-0.182757 0.058830 -0.023159 117 118 109
0.174788 -0.233066 -0.030142 107 108 102
0.323306 0.169950 0.111481 49 54 61
-0.254702 -0.071520 0.273477 5 14 7
0.077733 -0.222858 -0.029521 30 30 24
0.020295 0.243650 0.080872 138 147 140
0.071080 0.059230 -0.029358 0 1 0
-0.151140 -0.302983 -0.045062 111 112 106
0.131772 -0.001841 -0.023537 16 26 29
-0.213204 -0.210224 -0.045346 112 120 107
-0.109635 -0.282445 -0.044202 115 117 108
-0.080002 0.261674 0.008584 127 137 123
0.105337 -0.256919 -0.032759 113 118 106
0.259893 -0.176332 -0.027850 98 100 91
-0.256615 0.526116 0.060112 161 159 151
-0.008374 0.002323 -0.031254 87 95 84
-0.270762 0.259471 -0.042975 137 139 130
-0.220821 -0.285213 -0.046349 124 128 121
-0.295598 0.331662 -0.037391 107 104 99
0.209294 0.045950 -0.022184 18 26 25
0.274150 -0.206926 -0.026514 96 100 93
0.052068 0.115171 -0.028483 91 100 91
0.007523 -0.254616 -0.041605 92 101 94
-0.003565 0.496947 -0.016221 142 149 141
-0.102312 -0.195357 -0.042662 109 124 121
-0.123974 -0.031525 -0.037646 86 99 84
-0.142640 0.282606 0.049333 135 143 130
0.174404 -0.243618 -0.030666 105 105 99
-0.314686 0.264874 -0.043491 132 140 127
-0.119516 0.266163 -0.006110 126 134 121
-0.074984 -0.300946 -0.038151 118 119 115
0.267943 0.509111 -0.026604 109 114 100
-0.072700 -0.089034 -0.040587 112 123 119
-0.145685 0.062023 -0.034029 96 101 91
0.327809 0.174641 0.130884 69 71 79
0.135852 0.385149 -0.031144 103 105 96
0.087463 0.158445 0.106104 53 66 65
-0.215569 0.452076 -0.048293 115 115 109
0.153143 -0.250237 -0.031381 83 82 82
0.344919 -0.148766 -0.024770 102 106 99
-0.102502 0.194270 -0.037356 103 111 98
-0.104604 0.025614 -0.034133 91 98 90
-0.215206 -0.255678 -0.043247 126 127 118
-0.104931 -0.177687 -0.042698 113 126 123
-0.151625 -0.272076 -0.042547 114 119 109
0.324286 0.006193 0.087450 47 61 65
-0.034068 0.035057 -0.032152 72 81 72
-0.327927 -0.074448 0.340715 122 144 147
-0.177097 0.046884 -0.037378 103 108 96
0.072749 -0.229068 -0.033996 100 101 95
0.025210 0.398087 -0.049140 129 133 128
0.257488 -0.217309 -0.027890 105 105 99
0.290365 0.346172 -0.018314 121 122 116
-0.128887 -0.010179 -0.035774 1 2 0
-0.206109 -0.212153 -0.045420 119 124 114
-0.297115 -0.301594 -0.047460 124 134 122
0.295425 0.100053 -0.014690 33 40 44
0.281884 0.083908 -0.016419 39 49 54
-0.066659 -0.026606 -0.035823 74 75 64
-0.111632 -0.221527 -0.034684 100 103 104
0.374466 0.460300 -0.018617 76 70 72
-0.151434 -0.145133 -0.023063 110 119 112
-0.064406 -0.251382 -0.029433 12 8 13
0.389528 0.361310 -0.015227 122 120 108
0.391540 0.320096 -0.015989 119 117 109
-0.143321 -0.261606 -0.041659 110 111 102
-0.059593 0.017340 -0.030965 94 95 89
0.160780 0.069763 -0.025812 19 25 27
-0.278714 -0.269172 -0.048322 130 131 125
-0.179037 -0.038277 0.190898 21 24 23
-0.313106 -0.221299 -0.048688 136 136 130
-0.142188 -0.157868 -0.030959 105 112 106
-0.135230 0.183072 -0.038309 109 111 102
-0.081780 -0.158494 -0.007697 39 47 44
0.278197 0.190478 0.111941 45 59 65
-0.231516 -0.175920 -0.043723 117 118 109
0.030119 -0.114994 -0.020139 136 149 146
-0.210885 -0.006662 0.190989 26 33 27
0.079167 0.077381 0.112818 80 91 89
-0.334602 -0.120494 0.283162 30 37 31
-0.109061 -0.235634 -0.025590 129 144 130
0.055153 -0.040296 -0.030894 54 54 50
-0.109406 0.055858 -0.035556 90 98 85
-0.046357 0.517215 0.011636 148 153 141
-0.343407 -0.074164 0.347530 121 145 147
0.017208 -0.115953 -0.024839 129 140 140
-0.249134 0.457639 -0.038334 162 163 150
-0.035869 -0.101144 -0.036841 118 126 125
0.324765 0.393594 -0.019789 123 124 111
0.009441 0.066598 -0.028601 99 103 96
-0.085795 0.501212 0.088107 148 153 141
-0.214706 -0.210555 -0.045138 122 130 119
-0.204922 0.213300 -0.039735 116 121 107
0.238511 0.186723 0.059026 28 35 39
-0.303908 -0.139087 -0.045432 119 123 116
0.083232 -0.127258 0.093809 59 76 79
0.118199 0.152719 -0.012936 24 27 30
-0.079932 -0.030754 -0.036768 82 87 77
-0.129329 -0.138055 -0.037404 59 67 64
0.046336 0.055529 -0.032168 92 89 86
-0.208636 -0.100007 0.194191 1 1 1
-0.151675 0.269613 -0.001065 127 135 124
-0.303924 -0.117990 -0.044633 121 125 118
-0.011538 -0.270492 -0.039031 113 114 103
-0.210705 -0.302806 -0.046919 125 126 120
0.313355 0.174496 0.046575 37 42 51
0.323139 0.162858 0.069702 46 53 59
0.081397 -0.081674 0.106574 54 64 69
0.081609 0.210970 -0.029583 113 122 113
0.028352 0.456417 -0.035354 132 140 129
0.047682 0.443934 -0.038302 138 140 131
0.148287 -0.220488 -0.032614 104 111 103
0.294781 -0.141989 0.109695 62 72 77
0.191324 -0.203754 -0.031176 107 105 97
-0.261531 -0.116935 -0.044651 113 113 107
-0.255853 0.276839 0.061792 157 162 152
-0.047086 -0.251754 -0.035254 75 84 75
-0.134172 -0.206675 -0.027527 103 112 105
0.057855 0.143942 -0.031365 96 104 93
0.232355 0.106798 -0.021233 14 20 20
0.165613 -0.128537 0.093837 39 51 55
0.312093 -0.032962 0.000690 39 49 54
0.242362 0.189951 0.081734 30 35 40
0.213732 -0.069986 -0.018957 20 25 30
0.168058 0.021763 -0.021474 21 29 30
-0.006646 -0.263354 -0.040622 110 114 107
-0.296594 0.238173 -0.038968 28 33 21
0.311876 -0.060351 0.003441 40 47 53
-0.107791 0.248069 0.072626 132 140 127
-0.136296 -0.085145 -0.021137 119 126 120
-0.009896 0.094609 -0.030163 88 93 83
-0.211400 0.003820 -0.038350 101 103 94
0.075358 0.499491 0.059004 158 166 153
-0.015524 0.115860 -0.028365 87 95 84
0.028760 -0.016110 -0.033828 80 84 79
0.366038 0.153460 0.059284 70 78 79
0.119219 0.190853 0.048908 16 22 24
0.235530 0.420110 -0.019247 111 109 97
-0.258672 -0.251814 -0.046865 73 74 65
-0.020438 -0.060106 -0.017889 128 144 135
-0.321632 -0.085044 -0.044184 104 100 91
-0.146370 0.505203 -0.010002 142 147 137
-0.102896 -0.224524 -0.035368 97 105 102
-0.066566 0.511779 0.056554 151 153 140
0.059365 -0.065699 -0.034433 64 65 59
-0.378282 0.050410 0.258650 115 139 139
-0.068476 -0.228191 -0.040482 119 125 123
-0.234594 0.020979 -0.042014 100 104 97
-0.361751 -0.119905 0.286831 38 40 29
0.205694 0.415053 -0.024884 65 61 52
-0.078609 -0.280288 -0.042255 114 115 111
-0.117224 -0.228951 -0.027310 105 121 110
0.182749 -0.121085 -0.035488 98 99 93
0.299270 -0.039946 -0.012003 43 50 54
-0.157251 0.266182 -0.034021 128 133 123
-0.175418 -0.256035 -0.044360 123 128 118
-0.195927 0.074044 -0.025511 4 1 0
0.216099 0.358482 -0.026775 111 107 100
-0.083667 -0.158322 -0.015029 55 70 65
0.212418 -0.028745 -0.019310 20 28 29
-0.195085 -0.095216 -0.039169 15 13 5
0.284255 0.066142 -0.015911 38 49 49
-0.064589 -0.299108 -0.038332 105 109 102
-0.378949 -0.113894 0.228528 32 39 33
0.178293 -0.030815 -0.021722 23 25 31
0.202819 0.468586 -0.027314 100 105 93
0.327110 0.386619 -0.020172 122 124 111
-0.135961 -0.010777 -0.037609 91 96 86
-0.099517 -0.219688 -0.039985 93 100 94
-0.114467 -0.102227 -0.041338 100 106 108
0.232085 0.187414 0.062443 23 35 37
0.171757 0.108617 -0.024849 18 24 26
0.031820 -0.056700 -0.033718 67 76 69
-0.099169 0.140073 -0.036796 97 106 97
-0.175167 0.046060 -0.038995 103 111 98
0.252216 0.079905 -0.020730 15 26 26
-0.004170 0.008516 -0.030142 91 92 86
0.111394 0.115669 -0.014294 21 26 31
0.011537 0.064703 -0.028051 106 111 101
-0.313654 -0.122107 0.281391 39 40 34
0.055775 -0.269481 -0.036663 104 106 97
0.334116 0.447971 -0.025079 125 127 118
0.093716 -0.081275 0.041916 18 30 32
-0.154229 0.216106 -0.037809 121 124 108
0.271623 -0.125754 0.079547 46 56 63
-0.019020 0.241484 -0.030965 103 111 100
0.321832 -0.210239 -0.029681 45 29 34
0.013779 0.029506 -0.029370 95 104 95
0.290092 -0.208826 -0.025863 87 86 86
-0.175768 -0.031275 0.170799 27 33 31
0.097771 0.183646 0.090862 32 34 42
-0.259889 0.281962 -0.036206 94 91 86
-0.265084 0.401428 -0.001227 160 162 151
0.147488 -0.114034 -0.041233 74 78 71
0.025662 -0.214512 -0.039680 76 77 68
-0.268029 -0.113936 0.268581 83 89 87
0.163119 0.321982 -0.034969 99 105 88
-0.257919 0.417052 0.073405 163 161 149
-0.258380 0.434680 0.072197 165 162 148
-0.334710 -0.257968 -0.046082 122 127 113
0.304104 0.189816 0.121513 57 62 67
0.183851 -0.135387 0.107459 70 81 81
0.086171 0.092508 0.109160 58 68 71
-0.044377 0.260342 0.001893 127 131 124
-0.127518 -0.197118 -0.034851 101 104 103
0.322307 -0.142461 0.086355 60 68 65
-0.089835 -0.163854 -0.040216 127 140 137
-0.356350 -0.087021 0.345529 149 169 162
-0.141703 0.006419 -0.034818 94 99 89
-0.242987 0.261092 -0.043348 140 138 128
-0.378643 0.018667 0.263183 64 68 61
-0.194332 -0.084743 -0.037578 27 31 24
0.230009 -0.146007 0.112384 126 140 142
-0.322840 -0.113163 0.313107 57 58 54
-0.220278 -0.307369 -0.047455 130 131 122
0.289720 -0.061301 -0.017410 30 42 46
-0.218778 0.144590 -0.038806 117 119 108
0.118594 -0.165750 -0.031311 54 55 46
-0.051600 -0.058184 -0.024461 121 134 131
0.209615 0.039884 -0.021645 23 26 27
0.048744 0.496005 0.096209 144 149 137
-0.014033 0.234191 -0.029148 110 120 106
0.301871 0.161856 0.005403 38 50 56
-0.260033 0.148701 -0.038027 116 117 104
0.172363 0.394564 -0.028990 102 104 91
0.029490 -0.042284 -0.033955 63 70 64
0.127742 0.194055 0.085427 28 35 39
-0.135320 -0.239203 -0.045469 109 111 102
0.047017 -0.032069 -0.032181 60 67 61
-0.076857 0.104464 -0.034986 90 102 92
-0.140729 -0.138178 -0.033022 101 108 102
-0.252013 0.234747 -0.040575 130 135 121
-0.340471 -0.158934 -0.043767 121 126 114
0.377735 -0.111625 -0.024124 80 81 75
-0.328039 -0.099231 0.335553 124 150 152
0.106196 0.045041 -0.009779 25 32 36
-0.050889 -0.205430 -0.042536 123 134 130
-0.087457 -0.269793 -0.042409 106 113 105
0.183384 0.322108 -0.025385 103 105 94
0.135795 -0.187166 -0.029933 100 104 97
0.119007 0.078072 -0.022812 26 32 34
-0.348682 -0.258963 -0.046000 137 139 130
0.116157 0.198814 0.105440 47 58 56
0.260891 -0.087156 -0.013470 19 24 29
-0.180303 0.251257 0.067978 138 143 133
-0.230876 -0.025484 -0.030354 103 107 100
0.037371 0.220087 -0.029880 108 112 105
0.189014 0.191458 0.068031 25 32 36
0.131537 0.150005 -0.022239 17 25 24
0.092732 -0.063459 0.043887 28 35 41
0.326076 0.013678 0.036686 44 49 56
-0.203634 -0.174327 -0.042800 119 124 114
0.064057 -0.244350 -0.034304 107 112 102
-0.253856 -0.100235 0.256932 16 22 20
-0.133170 0.496106 0.084195 152 157 143
0.161947 0.186679 0.022363 15 18 19
-0.372042 -0.092055 0.335477 125 150 155
0.326608 -0.120492 -0.026298 84 85 81
-0.327678 -0.121359 0.299408 36 45 38
-0.115481 -0.029965 -0.037333 87 95 84
-0.330054 -0.082924 0.341965 118 143 148
-0.057141 0.099095 -0.033243 89 94 84
0.225111 -0.187083 -0.029178 96 97 91
0.091691 0.325890 -0.027991 103 111 96
-0.246344 -0.235290 -0.046927 126 127 121
-0.279964 -0.069149 0.298898 33 34 30
-0.031020 -0.198946 -0.040963 124 137 132
0.051233 0.457322 -0.030200 145 147 138
0.323474 -0.099144 0.114949 73 83 88
-0.274080 -0.263771 -0.047873 134 134 128
0.048909 -0.012551 -0.028179 79 80 74
-0.231240 -0.009902 -0.026414 109 114 104
0.307799 0.185987 0.106664 39 45 47
-0.242512 -0.293039 -0.049451 89 93 86
-0.172208 -0.149552 -0.043135 119 124 112
0.174559 -0.009224 -0.021762 23 28 33
-0.118006 -0.085219 -0.030593 117 128 124
-0.251902 -0.324617 -0.047766 132 132 126
0.089188 0.183445 0.109622 56 63 71
-0.088024 -0.157104 -0.039054 118 131 126
0.171901 -0.075735 -0.020389 18 28 31
0.319116 0.512085 -0.022570 73 73 69
0.399272 0.273360 -0.011483 109 114 100
-0.030943 -0.117112 -0.038979 118 126 125
-0.123584 0.266564 -0.001434 126 134 123
-0.218967 0.222843 -0.037297 124 129 115
0.321326 -0.105721 0.080101 49 56 62
0.102708 -0.270577 -0.033820 111 108 105
0.187582 -0.217000 -0.030319 107 109 100
0.030411 0.229595 -0.032364 108 113 101
0.178373 -0.068699 -0.021868 14 22 23
0.192134 -0.148523 0.101606 120 135 132
0.096541 0.319665 -0.028335 98 103 89
-0.155722 -0.286152 -0.043849 111 112 106
-0.072433 -0.259641 -0.041767 111 113 104
-0.303875 0.291193 -0.044604 132 134 125
-0.226099 0.032095 -0.036377 96 98 89
-0.081212 -0.073338 -0.033454 120 128 127
-0.345865 -0.104795 0.338075 107 132 137
-0.156036 -0.245992 -0.045893 120 124 117
0.383050 0.275637 0.004773 77 74 71
0.026160 0.190229 -0.030387 108 113 103
-0.161297 -0.294472 -0.044634 109 121 113
0.135136 -0.267977 -0.033086 103 104 98
-0.147061 -0.312395 -0.046017 116 117 108
0.017105 -0.216266 -0.023975 106 113 107
0.129336 0.071033 -0.024929 23 26 27
0.112364 -0.134297 0.094634 56 68 72
-0.082343 -0.290224 -0.039973 71 61 61
-0.267759 0.219171 -0.040755 124 132 119
0.221640 0.125041 -0.020345 20 20 24
0.247174 0.192719 0.116907 74 84 89
0.395974 -0.169111 -0.020975 16 12 13
0.191848 -0.228531 -0.030143 109 110 104
0.193077 0.189720 0.100590 31 41 46
-0.168301 0.018608 -0.038282 96 101 91
-0.129194 -0.166139 -0.040326 86 94 91
0.324735 -0.051671 0.065239 48 55 59
-0.367761 -0.110956 0.331663 105 131 131
-0.097949 -0.284975 -0.043565 102 107 97
-0.234493 0.430889 -0.045938 147 149 138
-0.126042 0.016668 -0.032956 103 104 98
-0.277154 -0.097797 0.289658 138 141 142
-0.257857 0.241501 -0.041557 133 138 128
0.065485 -0.061504 -0.032692 64 64 64
-0.153766 -0.018244 -0.037632 91 99 88
0.327001 0.155919 0.106203 51 63 65
-0.232681 -0.001239 -0.032764 103 105 96
0.372784 -0.194475 -0.024185 109 109 103
-0.279764 0.286356 -0.041165 119 123 116
0.258902 0.180894 0.034126 25 32 36
0.145822 -0.139101 0.101073 57 67 74
-0.160910 -0.114818 0.125199 17 16 16
0.243649 0.352532 -0.020712 25 30 20
0.013064 -0.112075 -0.023218 226 235 228
-0.001861 0.443981 -0.039060 135 137 128
-0.071175 -0.154738 -0.002575 35 35 29
-0.351502 0.018057 0.164956 112 116 109
0.008178 0.251836 0.048361 126 133 125
0.184684 0.181160 0.014494 12 20 19
-0.228435 0.173860 -0.041342 121 123 110
0.390663 0.308818 -0.013985 119 117 109
-0.339372 -0.120661 0.308135 38 50 40
0.122200 0.003693 -0.023077 30 41 41
-0.036657 -0.139235 -0.038072 106 115 108
0.325127 0.024097 0.024458 42 49 55
0.329054 0.111909 0.073384 54 59 66
0.301985 0.168830 0.015754 25 35 38
-0.116035 0.129750 -0.036680 98 108 94
0.225735 0.465190 -0.023547 104 105 92
-0.168598 0.218454 -0.038932 121 123 112
-0.096009 0.152489 -0.034067 10 10 4
0.343092 -0.139352 -0.024682 95 99 92
-0.300602 -0.119117 0.270747 38 41 40
-0.105154 0.197638 -0.036275 102 112 100
-0.086884 -0.154932 -0.039959 121 132 130
0.140343 0.186089 0.019319 8 16 17
-0.214620 -0.131834 0.182332 17 24 28
0.078423 0.015242 0.104954 52 63 63
-0.342654 -0.085811 0.346156 122 145 150
-0.064759 0.109153 -0.031125 82 86 79
-0.280208 -0.216969 -0.048198 134 139 127
0.184799 0.183785 0.020925 11 19 20
-0.313621 -0.033017 -0.041939 111 113 104
-0.143336 -0.195840 -0.026135 107 113 111
-0.165401 0.511821 0.010573 147 148 139
0.131535 0.362228 -0.029981 102 103 92
0.335326 -0.037307 0.112275 65 75 80
-0.317232 -0.099701 0.324814 82 91 84
-0.170554 0.466337 -0.048661 113 111 99
0.030522 -0.241837 -0.038920 92 97 83
0.294956 -0.234932 -0.027743 108 108 102
0.083590 -0.020250 0.100563 54 68 74
-0.062035 0.420946 -0.048397 124 128 121
-0.199709 -0.008912 0.181820 1 4 3
0.133286 0.193961 0.058731 14 22 21
0.181151 0.106080 -0.024261 17 25 24
-0.212933 -0.160308 -0.044386 116 120 113
0.306611 0.441902 -0.025530 127 132 120
0.104548 -0.240568 -0.032283 109 113 108
0.283468 0.187317 0.070208 31 39 40
0.246825 0.179229 0.025454 28 31 34
-0.078470 -0.199117 -0.042686 121 127 127
-0.049944 0.119578 -0.028766 37 37 31
0.079000 0.009506 0.105963 54 68 74
-0.119954 -0.067195 -0.017143 122 135 132
-0.029658 0.142502 -0.026988 24 26 17
0.177524 0.545244 -0.026244 119 121 110
-0.227157 -0.090895 -0.038303 108 115 107
-0.319161 -0.088030 0.171779 37 41 34
-0.336845 0.213474 -0.037694 138 140 127
-0.119312 0.266326 -0.022606 127 135 124
0.141476 0.167156 -0.014194 18 21 24
0.025909 -0.252295 -0.036224 101 114 101
0.175895 -0.117547 -0.028393 0 1 0
0.346346 0.424614 -0.022693 138 139 130
0.107182 -0.016650 -0.013043 25 33 34
-0.183538 0.056515 -0.042477 105 106 95
0.089514 0.157912 0.104511 59 70 70
0.226725 0.511075 -0.020689 110 113 97
0.212253 0.105097 -0.021966 16 22 22
0.310268 -0.158985 -0.028912 98 100 91
0.019530 0.095420 -0.028058 107 112 100
0.073236 -0.070500 -0.028623 0 3 0
-0.331209 -0.146807 -0.043422 41 42 38
-0.059264 0.240490 0.081851 134 142 129
0.226272 -0.142979 0.114769 136 147 147
0.368321 -0.201257 -0.025128 106 110 103
0.221656 -0.241348 -0.030550 108 109 103
-0.301445 -0.087353 0.317552 82 87 77
-0.362725 0.045549 0.242552 119 143 145
0.303054 -0.237967 -0.027949 113 110 105
0.329107 0.414187 -0.021294 131 129 117
-0.016879 0.243685 0.069725 128 136 125
-0.003359 -0.068176 -0.021278 122 135 132
-0.046053 0.012531 -0.031701 85 93 80
0.375895 -0.210794 -0.023926 1 8 12
-0.062538 -0.112416 -0.039542 117 128 126
0.104552 0.447285 0.010740 131 141 129
0.059512 0.171980 -0.029465 94 108 99
0.243136 -0.136568 -0.023551 19 19 15
0.364218 0.431629 -0.019580 129 130 119
0.299680 0.129332 -0.013591 35 42 48
-0.052290 0.054689 -0.034308 76 86 72
-0.102592 0.213978 -0.035278 107 112 102
-0.186713 0.131665 -0.035661 104 106 95
-0.323970 -0.094323 -0.045288 119 121 108
-0.025592 -0.185565 -0.038450 130 138 137
0.002387 0.496926 0.097309 147 149 136
-0.065340 0.161658 -0.030898 51 52 46
-0.168293 -0.235958 -0.044373 124 125 116
0.064060 0.419710 -0.028175 152 156 151
0.207139 -0.071030 -0.019607 21 24 27
0.104882 0.162006 0.014137 24 27 30
0.302574 0.059387 -0.010229 41 52 52
0.072831 0.436265 -0.003857 157 164 156
0.238127 -0.232647 -0.029236 103 107 100
0.044606 0.256591 -0.018464 117 125 114
0.100885 -0.191350 -0.032418 102 106 99
-0.339459 -0.073616 0.346005 114 144 147
-0.256267 -0.065175 0.269952 4 7 6
-0.221404 -0.266174 -0.042778 124 132 119
0.058417 0.047924 -0.032244 89 96 90
-0.372684 -0.116513 0.284324 69 81 73
-0.053561 -0.057093 -0.023541 121 134 129
0.046213 -0.048164 -0.034270 64 68 63
-0.298248 -0.098106 0.306323 84 84 78
0.358480 0.489974 -0.022165 127 128 115
0.246969 0.331390 -0.035780 41 41 37
-0.147142 -0.294904 -0.044931 103 110 104
0.168222 -0.085417 -0.014331 19 30 30
-0.253068 -0.137465 -0.042202 114 118 111
-0.117547 0.504663 0.064394 147 152 140
-0.037862 0.136924 -0.031699 94 99 89
-0.207486 0.044120 0.103663 51 49 41
0.329448 0.096458 0.058442 49 54 61
0.312583 0.408144 -0.021839 126 127 116
-0.184449 0.272780 -0.021390 131 139 126
0.363488 -0.223398 -0.024754 107 108 104
0.128335 -0.163810 -0.031932 103 104 98
-0.042856 -0.165855 -0.037663 129 142 139
-0.139633 0.454115 -0.049251 103 105 92
0.213975 0.171472 -0.002598 16 19 20
-0.023349 0.506127 -0.006684 144 149 139
-0.294968 0.203390 -0.040679 55 44 39
-0.129107 -0.087647 -0.025077 115 126 122
0.107469 0.138079 -0.006427 21 29 30
0.280853 0.547506 -0.030132 128 136 123
0.293338 0.455059 -0.025367 124 129 119
-0.215322 0.422075 -0.049898 115 111 102
0.205851 0.190026 0.079076 27 37 40
-0.342380 -0.071572 0.134315 104 105 96
-0.313183 -0.113482 0.305492 52 56 51
0.047832 0.006580 -0.028535 77 79 70
-0.284151 0.045403 0.055063 82 94 84
0.092942 -0.225626 -0.033135 112 119 111
-0.156636 0.046024 -0.035469 98 106 93
-0.241158 -0.122386 0.159345 48 50 41
0.158657 -0.198353 -0.032526 103 107 100
0.150202 -0.040817 -0.024335 18 26 27
0.186026 0.333538 -0.023021 109 110 104
0.015764 0.251706 0.047745 130 135 125
-0.227668 -0.093414 0.243745 18 21 20
-0.104983 -0.238565 -0.022914 142 146 139
0.155050 0.072810 -0.026140 19 25 25
0.137394 -0.225887 -0.030540 113 118 104
-0.316974 -0.090216 0.329799 117 141 139
-0.267453 -0.177653 -0.043610 115 119 112
0.352094 0.441034 -0.021402 70 63 57
-0.011863 0.063490 -0.031153 87 92 82
0.143141 -0.193705 -0.030318 26 27 21
-0.204672 -0.079008 -0.038647 107 114 106
0.210705 0.052291 -0.022475 24 27 28
-0.079866 -0.063267 -0.025652 124 132 129
-0.282403 0.158072 -0.042396 124 125 114
-0.181048 0.270587 0.007858 137 139 128
0.060275 -0.039148 -0.031273 75 79 72
0.370288 0.362007 -0.018683 124 122 112
-0.187563 -0.290186 -0.044443 58 54 57
0.293327 0.470087 -0.026786 129 131 115
-0.329088 -0.214122 -0.043863 95 99 94
0.268471 0.175433 0.021567 22 27 32
-0.264052 0.461092 -0.018789 163 164 153
0.070608 0.447225 -0.010551 155 163 152
0.254344 0.108979 -0.020682 16 22 22
0.312779 0.457342 -0.025914 126 131 119
-0.091153 -0.165500 -0.041209 124 135 133
0.047915 0.260616 0.010491 124 126 115
-0.251524 -0.176075 -0.044493 125 126 120
0.278489 -0.189904 -0.022174 26 19 9
0.319609 -0.154340 -0.027635 102 107 95
-0.174384 0.504560 -0.013384 142 144 133
-0.241384 0.193164 -0.042982 121 123 114
0.322397 -0.075236 0.050121 41 48 54
0.044357 0.408875 -0.043557 124 128 123
0.055561 0.520026 0.028320 148 156 143
0.160052 0.077861 -0.026045 18 24 26
0.078299 -0.122086 0.080194 78 84 86
0.339077 -0.224233 -0.027655 113 113 109
-0.348524 -0.063522 0.345204 119 142 147
-0.215746 -0.114398 -0.042000 115 120 110
0.137850 0.145262 -0.023011 12 18 20
0.383213 -0.202195 -0.022074 16 19 20
0.028805 -0.133230 -0.028349 134 149 146
-0.241363 -0.210055 -0.047152 77 78 74
-0.127209 -0.274149 -0.040573 106 111 101
0.079645 0.070499 0.115092 65 75 78
-0.339694 0.134670 -0.046824 132 140 127
0.083306 -0.090883 -0.031099 80 84 77
0.012850 0.127378 -0.030501 115 119 112
-0.115273 0.265555 -0.017040 126 134 121
-0.276743 0.313409 -0.041790 147 145 133
-0.002568 -0.251871 -0.041377 100 101 97
-0.298503 -0.110067 -0.038927 89 97 86
-0.349421 0.011185 0.254879 54 63 54
0.195934 -0.140941 0.113595 120 140 137
-0.257194 0.115080 -0.012072 12 19 13
-0.317116 -0.109308 0.313373 59 63 56
-0.062618 0.244659 0.063785 131 136 124
-0.183716 0.487103 -0.033886 142 144 133
0.340093 -0.191914 -0.027666 112 113 104
-0.199815 0.268696 0.014032 136 141 129
0.083622 0.219605 -0.024300 112 117 107
-0.231574 -0.022392 -0.028975 99 106 100
-0.247786 0.506101 0.007367 160 158 148
0.399003 0.064101 -0.021844 80 81 77
0.320260 -0.210502 -0.029764 59 43 48
0.067607 0.426765 -0.029022 153 160 154
0.319938 -0.061881 0.033536 41 48 56
0.286170 0.347622 -0.018149 117 122 110
0.195977 0.523374 -0.023260 119 115 106
0.341767 0.357799 -0.025235 119 121 112
0.014722 0.176293 -0.030224 115 117 106
0.266607 0.123981 -0.020590 13 19 21
-0.329956 -0.093020 -0.046871 109 110 104
0.299969 0.125480 -0.014117 37 42 47
-0.204550 -0.001233 -0.037318 10 6 0
0.149755 0.323364 -0.030647 93 98 86
-0.279687 -0.113958 0.271955 78 85 79
0.000887 -0.114940 -0.037786 118 131 130
-0.270287 0.228481 -0.040992 138 139 128
-0.014715 -0.021093 -0.033432 75 83 72
-0.105749 -0.087434 -0.037721 113 126 121
0.095706 -0.177853 -0.032249 105 109 102
0.232313 0.376397 -0.021684 102 104 91
0.035838 0.048864 -0.026991 73 77 70
0.388500 -0.134959 -0.022027 89 93 86
-0.027840 0.381122 -0.046914 120 127 119
0.295895 -0.000813 -0.011022 35 40 45
0.342758 -0.182286 -0.026471 105 110 100
0.269348 -0.179777 -0.025993 101 101 95
-0.327642 -0.147710 -0.043893 121 125 120
-0.147170 0.068279 -0.034602 98 103 91
0.132657 0.164114 -0.015964 16 22 24
-0.253974 -0.304411 -0.047434 133 137 130
-0.004356 -0.114022 -0.038308 117 128 126
-0.251538 0.145787 -0.037670 120 118 106
-0.220195 -0.096101 0.229373 0 2 0
-0.340841 0.139722 -0.044448 132 140 127
-0.201510 0.457619 -0.047442 109 111 98
0.314883 -0.027630 0.007275 42 47 56
0.298692 -0.143443 0.106923 60 65 74
0.077346 -0.091950 0.102007 59 66 72
0.236498 0.066580 -0.020553 20 26 26
0.392611 0.382610 -0.012129 122 120 112
0.220808 -0.207766 -0.031552 104 104 100
0.175809 -0.209607 -0.031387 1 1 0
-0.206082 -0.297536 -0.046856 115 119 114
-0.326511 -0.150986 -0.043906 122 124 115
0.165273 0.180548 0.001406 8 16 17
-0.221582 -0.091525 0.237095 16 19 18
0.319218 0.129745 0.005486 42 54 58
0.079074 -0.155027 -0.030902 61 61 55
-0.317606 -0.073936 0.328767 75 79 74
0.267367 0.177519 0.024897 24 32 33
-0.328630 -0.067372 -0.049318 112 119 111
-0.164174 -0.017516 0.141191 2 2 0
-0.067226 -0.168241 -0.039411 127 140 137
-0.078094 0.219584 -0.035546 109 114 104
-0.006089 -0.096925 -0.032444 127 140 137
0.027969 0.055486 -0.031458 99 107 96
-0.016253 0.026803 -0.032383 82 86 79
0.262032 -0.059531 -0.022734 18 24 26
0.296003 0.490364 -0.023556 129 131 120
-0.310363 -0.113871 0.302451 52 53 47
0.371850 0.304520 -0.017368 114 119 107
-0.289554 -0.212531 -0.046785 117 124 116
-0.360962 -0.003502 0.257490 64 72 59
-0.017718 -0.072693 -0.026378 172 185 180
-0.141650 0.240080 -0.040553 113 118 106
-0.223809 -0.090863 0.240537 19 20 16
0.197568 0.323864 -0.033781 113 122 115
-0.000986 -0.168465 -0.036135 133 144 142
0.292781 0.182886 0.053356 31 38 44
0.349893 0.394342 -0.020038 87 85 75
-0.201598 -0.001545 0.183151 24 28 23
0.242261 -0.002367 -0.019680 23 26 29
0.244599 -0.061508 -0.021437 20 26 28
-0.013390 -0.028253 -0.033849 71 80 71
0.211831 0.344279 -0.022767 92 100 89
-0.121019 -0.262134 -0.042074 105 109 102
-0.206492 -0.296137 -0.046726 120 124 117
0.226675 -0.137846 -0.030459 91 92 86
0.006096 0.108895 -0.026874 107 108 102
0.116461 -0.235559 -0.031450 107 112 102
-0.291038 -0.255977 -0.047510 123 128 114
0.333119 -0.117743 -0.006513 70 79 70
-0.132408 0.143795 -0.036351 98 110 100
0.183163 -0.155997 -0.029457 96 100 95
-0.314131 -0.299659 -0.049930 126 128 119
0.026903 0.072239 -0.028563 103 113 101
0.154854 0.534411 -0.030077 114 113 98
0.134086 -0.007191 -0.023242 15 25 28
-0.248889 -0.064123 0.263403 26 27 23
0.092540 0.345893 0.054578 139 147 132
0.252002 0.363868 -0.023048 102 103 90
0.325412 0.023716 0.084209 56 61 68
0.313584 0.160267 0.020225 42 54 58
-0.251143 -0.081926 0.094611 88 98 86
0.192227 0.187364 0.042097 19 30 30
-0.115055 -0.091540 -0.036372 107 115 114
-0.111588 -0.190764 -0.041687 96 104 103
-0.067863 0.477359 -0.039846 133 138 128
-0.172379 0.065509 -0.035367 109 111 100
-0.318941 -0.119322 0.299106 41 45 38
-0.179771 -0.014705 -0.039835 93 98 88
0.129538 -0.175319 -0.030520 107 108 102
0.254449 0.171811 0.000448 22 30 29
-0.076485 0.259473 0.025178 131 136 124
0.078137 -0.212795 -0.032752 45 50 40
-0.091135 0.128722 -0.037114 93 101 88
0.381908 0.360720 -0.016782 68 66 58
0.236026 -0.069055 -0.019589 14 21 25
0.023489 -0.006121 -0.032748 84 94 82
0.321247 0.058524 0.008819 43 50 56
-0.216327 0.511446 0.034781 154 155 144
-0.015164 0.241413 -0.029614 108 116 103
-0.284330 -0.243453 -0.048507 134 132 122
-0.140678 -0.094896 -0.021299 114 127 122
-0.335276 -0.093620 0.341504 123 147 149
0.095526 -0.098811 0.045201 23 28 33
-0.150444 0.058841 -0.033817 98 103 91
-0.240258 0.498402 -0.011956 153 155 142
-0.008989 -0.169600 -0.037451 132 140 139
-0.232268 0.421181 -0.047177 140 142 131
0.237574 -0.040211 -0.019487 21 24 27
0.096112 -0.128660 0.057339 62 68 68
-0.366118 -0.105252 0.336210 121 144 149
0.285070 -0.070876 -0.017689 37 42 47
-0.344335 -0.138591 -0.043918 125 126 117
-0.131742 0.497868 0.090647 152 157 145
-0.010434 0.506895 0.061087 147 152 142
0.323673 0.160522 0.063399 45 52 60
-0.218216 -0.186945 -0.043400 120 121 110
0.058701 0.250832 0.049599 129 130 124
-0.311315 -0.262591 -0.048427 128 123 119
0.049154 0.255543 -0.036377 104 106 97
0.224024 -0.233532 -0.029769 109 109 105
0.386159 -0.081578 -0.010687 71 78 82
-0.047148 0.513870 0.003142 145 153 140
-0.259259 0.476353 -0.021178 165 163 153
0.316429 -0.092090 0.026385 41 48 54
-0.024123 -0.247989 -0.033487 15 19 12
0.328896 0.102493 0.050280 48 58 63
-0.008611 0.131901 -0.031167 93 98 88
-0.009770 -0.279172 -0.038703 110 109 109
-0.080060 0.038167 -0.033041 79 83 76
0.261589 0.361299 -0.020140 99 100 89
-0.326588 -0.084766 0.339584 118 146 150
0.056358 0.427351 -0.039278 149 154 144
0.174037 0.012957 -0.020592 18 26 25
0.176030 -0.150737 -0.029442 32 33 27
-0.177938 0.509842 0.020663 151 152 143
-0.274441 -0.077908 0.293708 122 129 121
0.164671 0.335433 -0.028706 102 107 95
-0.312295 -0.116246 0.301040 47 54 48
-0.176971 0.084031 -0.036236 111 113 104
-0.331464 -0.107298 0.329688 108 132 132
0.218694 -0.020275 -0.018995 18 26 27
0.292293 0.089515 -0.015250 29 41 45
-0.234786 0.510556 0.044716 154 152 142
0.076943 -0.113065 -0.036698 67 68 64
0.062932 0.389245 -0.024395 149 156 148
0.150085 0.375944 -0.025352 100 108 95
-0.376552 -0.116807 0.263601 44 41 36
0.162164 0.336084 -0.026937 105 103 91
0.177622 -0.137762 -0.027195 64 68 63
-0.222241 -0.145179 -0.043271 113 118 108
-0.013793 -0.035313 -0.035250 76 85 78
-0.256464 0.352373 0.058590 160 158 150
-0.189980 0.252405 0.063814 140 142 133
0.035002 0.030542 -0.026603 99 103 98
-0.215125 0.272335 -0.001236 135 140 128
-0.337532 -0.258596 -0.045596 131 132 119
0.308639 -0.048293 -0.003110 43 50 56
-0.117575 -0.159884 -0.042716 113 121 118
0.106338 -0.274411 -0.033433 113 108 104
-0.063872 -0.005617 -0.034111 79 80 74
-0.294453 0.168560 -0.037822 131 133 120
0.234098 -0.156797 -0.028134 98 99 95
-0.197812 -0.142247 -0.043311 110 118 107
0.311784 0.023351 -0.002683 45 52 58
-0.172319 0.495038 -0.024061 139 141 130
0.224654 -0.028062 -0.019686 23 26 27
-0.062121 -0.269954 -0.041739 105 107 98
0.043996 -0.108759 -0.036990 58 69 65
-0.212752 -0.211759 -0.045389 105 115 99
-0.168087 0.509725 0.071595 151 156 144
-0.277456 -0.172639 -0.043994 120 128 115
0.100309 -0.221241 -0.032996 113 113 107
0.058888 -0.201235 -0.036585 72 77 67
-0.120185 0.495964 -0.023820 140 145 135
-0.132659 -0.124704 -0.037619 99 105 103
0.197609 0.174161 -0.005701 13 19 19
0.305624 -0.075400 -0.001841 46 53 61
-0.245894 -0.047738 0.237594 33 35 24
0.330273 0.048094 0.114316 105 113 112
-0.065065 -0.017176 -0.034739 75 79 74
-0.139552 0.051313 -0.034867 93 103 89
0.064116 0.499091 0.004908 160 161 152
0.082034 0.268081 -0.026419 93 95 84
-0.189670 -0.084259 -0.041211 90 92 83
0.185109 -0.069468 -0.021017 19 25 27
0.083751 0.206396 0.075357 86 92 92
0.031295 -0.246494 -0.037815 102 107 97
0.362490 0.410626 -0.020405 121 127 110
0.118612 -0.010073 -0.023675 33 39 41
-0.253450 -0.324836 -0.048111 133 133 127
0.018804 0.075668 -0.026439 108 116 105
-0.340371 -0.107726 0.333804 108 134 136
-0.213533 -0.094176 0.017459 115 110 106
-0.339839 0.207288 -0.043439 142 147 135
-0.137168 -0.020700 -0.037672 89 94 84
0.258142 -0.114116 -0.040917 51 52 48
0.317685 -0.122658 0.098660 48 59 59
0.175112 0.070002 -0.024430 18 26 27
-0.253762 -0.084988 0.268954 3 3 3
0.337792 -0.180058 -0.026328 107 108 102
0.240033 -0.190683 -0.029336 99 99 93
0.043111 0.261568 -0.012370 121 126 116
-0.155056 -0.316768 -0.045548 114 110 103
0.104720 -0.262845 -0.033687 111 111 105
-0.151657 0.103056 -0.037630 99 104 94
-0.286772 -0.073322 0.305308 69 78 69
0.306203 0.188916 0.120473 56 63 67
-0.256423 -0.330914 -0.049899 132 127 123
-0.103212 -0.005291 -0.035134 82 87 77
0.139677 0.438539 -0.032477 113 114 103
-0.029360 -0.065629 -0.027073 135 141 139
-0.020853 -0.241121 -0.026425 135 138 137
-0.067367 0.503102 -0.017723 147 152 142
-0.281887 0.393576 0.045098 151 164 159
0.130575 0.188241 0.029864 11 19 20
0.224327 -0.146813 0.079645 76 82 84
-0.184908 -0.134291 -0.044089 113 118 108
-0.173053 0.145546 -0.038894 107 112 100
0.159476 -0.165086 -0.030077 103 104 98
-0.254136 0.358300 -0.028927 156 161 149
0.045342 -0.032077 -0.032993 58 65 59
-0.162895 0.482097 -0.041668 133 134 123
0.153394 -0.038438 -0.024134 21 24 27
-0.072329 -0.114399 -0.039206 118 129 127
-0.073179 -0.045948 -0.015051 120 133 128
0.325122 0.149417 0.054735 36 48 50
0.320324 -0.119908 0.111533 60 68 69
0.108306 0.194294 0.094243 25 35 38
0.104528 -0.144606 -0.033542 95 99 94
-0.200805 0.485217 -0.033275 138 143 131
0.277512 0.048691 -0.015143 36 43 49
-0.099584 0.035825 -0.036424 89 98 89
0.155953 0.322057 -0.030383 100 98 88
-0.323023 0.336644 -0.047824 146 156 142
0.314838 0.118524 -0.002551 43 50 56
-0.168784 0.160064 -0.038912 110 118 105
0.136723 0.194215 0.059489 18 24 26
-0.085061 0.262128 -0.013036 126 134 123
0.172817 0.208703 0.106427 122 142 139
-0.214141 -0.026762 -0.041424 106 111 101
-0.166583 -0.291317 -0.042340 34 31 26
0.151517 0.191059 0.042777 15 18 19
0.038645 0.261165 0.006839 121 126 116
-0.098569 -0.223129 -0.038059 93 104 102
-0.220646 0.511786 0.033446 156 154 142
-0.036555 -0.256678 -0.039738 109 110 104
-0.130927 0.263546 0.022315 131 139 128
0.234922 -0.207062 -0.030152 103 107 102
-0.033224 -0.196216 -0.040532 128 139 137
-0.072954 -0.071573 -0.033861 119 127 126
0.373236 0.512280 -0.021025 135 133 121
-0.140942 0.081530 -0.033347 20 6 2
0.078979 -0.113835 -0.038608 66 76 64
-0.163143 0.152793 -0.036222 20 17 1
-0.076152 0.091502 -0.034438 96 104 91
0.006301 -0.126042 -0.037867 127 140 137
-0.121714 -0.025837 -0.036462 88 93 83
0.284295 -0.183313 -0.026475 100 104 99
0.302397 0.182573 0.077618 27 34 38
-0.182335 -0.296851 -0.043676 113 118 108
-0.138039 -0.155879 -0.034935 105 111 109
0.371832 0.333833 -0.017319 63 47 52
-0.154314 -0.257050 -0.043543 115 120 110
-0.091650 0.504522 -0.016324 144 146 133
0.280909 0.544413 -0.029965 123 125 116
-0.238832 0.503109 -0.001781 154 152 144
-0.037347 0.510832 0.056318 149 151 140
-0.255838 0.398057 0.063369 160 161 150
-0.338044 -0.251470 -0.049408 100 97 94
-0.089932 -0.285292 -0.042091 65 66 60
0.106235 -0.042604 -0.008378 22 33 33
0.320833 -0.113771 0.064588 46 58 64
0.264242 0.131679 -0.020137 12 18 20
-0.352177 -0.119859 0.322764 93 110 115
-0.232054 0.410919 -0.048268 135 143 130
-0.246889 -0.335261 -0.048297 111 123 115
0.078213 0.118331 0.076568 88 100 92
0.288630 0.380042 -0.016348 121 126 116
-0.084852 0.106869 -0.034618 95 105 93
0.028710 0.121146 -0.028809 86 90 85
-0.113772 0.476907 -0.038924 125 127 116
0.251688 -0.222749 -0.028838 99 104 94
-0.221916 0.226818 -0.037030 127 132 118
0.060600 0.070082 -0.030912 93 100 92
-0.016373 -0.058290 -0.001889 113 126 125
0.234024 0.364100 -0.025383 102 104 93
0.207908 0.371324 -0.022385 65 63 53
-0.279326 0.225638 -0.039887 130 135 123
0.265466 -0.136929 -0.032167 82 86 81
0.169149 0.190974 0.090922 26 36 39
-0.065876 0.487937 -0.031998 142 143 137
0.323885 0.538708 -0.025171 116 117 106
-0.106608 0.204565 -0.033102 38 34 23
-0.049170 -0.278322 -0.040825 114 115 109
0.216720 -0.237625 -0.031081 105 106 100
-0.075080 0.153304 -0.035350 102 107 97
0.074830 0.396285 -0.000827 159 164 154
0.156214 -0.015868 -0.023571 20 30 33
-0.246594 0.037654 -0.027761 101 105 100
-0.031761 0.511868 0.003123 147 152 142
0.115588 0.000831 -0.023944 27 34 40
-0.225788 -0.097918 -0.043072 103 111 100
-0.051359 0.242339 0.067146 135 137 124
0.050729 0.223374 -0.030422 111 113 104
0.272663 0.036028 -0.015060 30 42 44
0.052620 0.239830 0.074756 129 134 124
-0.266470 -0.076515 0.287152 197 207 195
-0.156336 0.505115 0.046732 151 156 144
0.011661 0.260629 0.005748 124 129 119
0.184954 -0.237150 -0.031245 109 110 99
0.164668 -0.067588 -0.022406 20 27 31
0.047808 0.057705 -0.031845 95 95 89
0.269968 -0.190658 -0.026139 98 99 93
-0.129140 -0.060738 -0.033239 72 72 66
0.017681 -0.173604 -0.028425 144 157 154
-0.272270 -0.097897 0.284272 160 164 159
0.250805 0.345681 -0.022971 101 103 92
0.011438 -0.007556 -0.035021 82 90 79
0.043053 0.193331 -0.029485 100 110 98
0.105111 0.177868 0.054090 26 32 34
0.073809 -0.022638 0.105173 77 91 95
-0.229683 0.217529 -0.039986 35 31 22
0.345955 0.468143 -0.022890 130 132 121
0.063199 -0.166395 -0.036635 51 51 45
0.083160 0.271839 0.098376 145 150 140
0.153390 0.163742 -0.015264 20 23 26
-0.033456 0.513530 0.073520 148 153 141
0.252935 0.158883 -0.011640 13 21 22
-0.111501 0.432113 -0.048991 95 100 88
-0.058553 0.068149 -0.034931 88 93 81
0.068922 0.480330 0.001854 162 166 159
0.130763 -0.171834 -0.030611 102 106 101
0.152649 0.174351 -0.007446 20 23 26
-0.274691 0.332878 0.058147 168 170 161
0.158278 -0.002520 -0.022969 20 26 28
-0.128021 -0.301944 -0.044630 110 118 107
-0.120725 -0.096435 -0.035825 111 119 116
0.152029 -0.239810 -0.031966 108 110 99
0.392046 0.289183 -0.012844 77 77 73
0.388915 -0.160354 -0.023577 101 103 92
0.283165 0.363793 -0.016912 120 118 108
0.038512 0.405354 -0.044261 128 132 125
-0.251997 -0.272316 -0.047189 131 133 124
-0.247577 0.022574 -0.026534 98 100 87
-0.264210 -0.193515 -0.044675 37 39 30
-0.038039 -0.271786 -0.041343 116 112 105
-0.288007 -0.072969 -0.048244 111 112 103
0.238315 0.189715 0.077484 29 34 39
0.321132 0.383096 -0.020747 121 124 108
-0.288937 -0.188243 -0.044257 118 128 116
-0.029747 0.240917 0.075407 128 136 123
-0.271975 -0.087931 0.289506 168 175 167
-0.212796 -0.081721 -0.040492 106 113 105
-0.025232 -0.003185 -0.030831 55 56 50
-0.274557 0.158498 -0.040416 118 120 109
-0.349497 -0.111044 0.333721 98 124 126
0.204840 0.172499 -0.003960 13 19 17
0.281934 0.518726 -0.030353 126 128 117
0.067656 0.224178 -0.025971 108 113 101
0.075430 -0.227598 -0.031101 96 96 90
0.233972 -0.196467 -0.029398 98 103 93
-0.128991 0.038028 -0.028586 4 1 0
0.145012 -0.121302 0.005094 39 42 43
-0.282673 -0.230033 -0.049697 134 129 125
0.229917 -0.227984 -0.029586 106 110 105
-0.230037 -0.133340 0.147473 23 27 22
-0.239975 0.496571 -0.015908 155 156 143
-0.120827 0.498670 -0.020739 141 146 134
0.001056 -0.081408 -0.027029 131 144 139
-0.216770 0.052068 -0.035394 108 109 98
-0.016800 0.245936 0.084508 140 150 138
0.204417 -0.241235 -0.031428 111 111 107
-0.132468 -0.033063 -0.038015 93 98 86
-0.143443 -0.104185 -0.021648 115 126 122
-0.374564 -0.076869 0.333421 121 142 148
-0.217883 -0.262389 -0.043114 124 126 115
-0.342383 -0.137414 -0.041223 123 125 114
0.061136 0.480060 -0.015118 150 158 147
-0.325961 0.201558 -0.041146 127 127 121
-0.053148 -0.202565 -0.042753 123 136 133
0.093586 -0.219402 -0.032671 109 113 106
-0.135235 0.265890 0.011798 131 135 128
0.194197 -0.235633 -0.030556 111 108 103
0.245266 0.408361 -0.021735 54 52 42
-0.163860 -0.185739 -0.041194 123 127 122
-0.345304 0.258575 -0.044450 158 155 141
-0.220538 0.268386 -0.042907 134 135 122
-0.149704 -0.267299 -0.041844 115 113 103
0.212669 -0.149278 0.107322 119 137 135
-0.293198 -0.107625 -0.042610 117 114 111
0.097298 -0.119397 0.083021 18 28 31
0.196254 0.190430 0.081691 23 35 37
0.293304 -0.201926 -0.026835 103 110 104
0.327134 0.127709 0.068992 46 54 55
0.074180 -0.090995 0.102079 63 77 83
-0.331474 -0.275909 -0.046866 124 125 119
0.323336 -0.124445 -0.026234 64 59 57
-0.042813 0.062806 -0.034295 83 91 80
0.202888 0.187084 0.021918 14 19 24
-0.073822 0.520773 0.075854 147 157 145
-0.198317 0.473220 -0.044579 123 128 116
-0.088400 -0.242612 -0.026002 107 119 111
-0.119580 -0.165315 -0.042781 100 109 102
0.226627 0.025523 -0.021023 18 26 27
-0.328165 0.290482 -0.044318 136 134 122
0.219059 -0.226569 -0.031344 101 105 98
0.048354 -0.008788 -0.028327 79 83 76
-0.249357 -0.188836 -0.045477 124 125 116
0.323193 0.004569 0.094761 54 61 67
-0.145186 0.175463 -0.037048 109 111 102
0.110645 0.195177 0.099805 27 37 40
-0.213733 -0.151841 -0.044450 115 120 108
0.293705 0.507978 -0.024817 124 129 117
-0.013204 0.183742 -0.033674 108 113 103
-0.143432 -0.297163 -0.045286 107 111 104
-0.345654 0.106223 0.123573 87 37 43
0.265061 0.151607 -0.013305 10 20 23
0.019736 0.511416 0.004742 147 152 142
0.050865 0.422082 -0.041107 134 143 136
-0.339667 -0.070504 0.345609 122 146 146
0.014546 0.258910 -0.017666 122 127 115
-0.067130 0.112059 -0.033351 92 101 94
-0.248529 0.374968 -0.040322 162 164 153
-0.081806 0.239601 -0.038044 107 112 98
-0.231184 0.397962 -0.049209 137 139 128
0.054830 0.502479 0.056567 148 153 143
-0.362518 0.045931 0.248882 122 145 150
0.062275 -0.029957 -0.029929 69 78 69
0.070633 -0.204049 -0.035798 82 84 73
0.242961 0.079876 -0.020376 23 26 25
-0.131592 -0.264056 -0.041893 110 112 103
0.347298 -0.152170 -0.022037 9 13 8
-0.100002 0.037766 -0.036423 89 98 89
-0.149341 -0.292401 -0.044412 98 105 97
-0.339549 -0.093004 0.343329 116 144 148
-0.110622 0.012082 -0.033420 91 98 90
0.249189 -0.146694 -0.031485 89 93 86
0.108427 0.326335 -0.030266 16 17 11
0.164247 0.007997 -0.022536 20 28 29
0.061576 0.023259 -0.029130 84 88 81
0.293936 -0.133550 0.044315 59 59 61
0.215638 -0.224141 -0.031230 100 101 95
-0.335790 -0.252784 -0.048825 49 34 33
-0.364674 0.022712 0.259909 46 52 50
0.119641 -0.224429 -0.030578 109 110 104
0.173385 -0.249864 -0.030151 96 100 93
0.393070 -0.203404 -0.022725 103 105 96
0.383022 0.344313 -0.014550 122 117 115
0.302427 0.090358 -0.012679 41 48 54
-0.210948 0.197775 -0.039836 124 126 115
-0.088995 -0.196161 -0.042705 121 124 125
-0.191284 -0.245038 -0.043545 130 130 130
0.357341 -0.116074 -0.028000 82 91 84
0.386999 -0.156071 -0.022790 100 101 95
-0.168191 0.093512 -0.038383 107 115 102
-0.185015 -0.114022 0.165903 16 22 20
-0.200951 0.496515 -0.020839 143 145 134
0.018252 0.103984 -0.028776 107 116 107
0.174194 0.471203 -0.034932 106 111 97
-0.312198 -0.075677 0.324589 84 85 76
0.194997 -0.174701 -0.030485 94 101 93
-0.211356 -0.134758 0.137823 23 29 27
0.362089 0.388612 -0.019078 123 125 114
0.298449 -0.134469 -0.031054 86 90 85
-0.292301 0.188078 -0.038305 121 126 114
0.286996 0.333170 -0.025681 101 103 94
-0.048177 0.071466 -0.033167 76 83 77
-0.367685 0.064478 0.259883 119 138 140
0.284637 -0.141533 0.073576 62 62 66
-0.317842 -0.062386 0.322557 73 74 68
-0.003483 0.183411 -0.033421 110 112 101
-0.106193 0.146377 -0.038667 100 107 99
-0.086893 0.515963 0.011503 150 152 143
0.038469 -0.260677 -0.035998 102 106 99
-0.112416 -0.271139 -0.042716 117 118 109
0.173013 0.522136 -0.027950 115 116 103
-0.210551 -0.156646 -0.043686 118 120 111
-0.139745 -0.203294 -0.025938 103 114 114
-0.201483 0.511798 0.056706 158 159 148
0.006937 -0.085820 -0.026485 123 136 131
-0.126995 0.456356 -0.048350 96 100 93
0.042588 -0.250452 -0.029835 16 12 17
0.139936 -0.181749 -0.029332 107 114 108
0.263317 -0.182192 -0.027226 101 103 94
0.082019 -0.049802 0.105182 60 69 79
0.126600 0.468023 -0.034614 115 117 106
0.233298 -0.000401 -0.019606 21 27 27
-0.140672 0.448355 -0.049522 103 104 93
-0.269048 -0.113689 -0.042789 121 123 112
0.136743 -0.182330 -0.029330 99 106 98
-0.286520 0.093321 0.032639 95 97 88
-0.326410 -0.097467 0.335532 119 147 151
0.321726 -0.092495 0.107666 56 63 71
-0.255346 -0.266800 -0.046923 130 134 127
0.240680 0.446157 -0.019759 101 103 92
0.246235 0.477150 -0.022029 111 109 99
-0.273130 -0.317862 -0.049207 124 124 118
-0.358269 0.055604 0.251450 117 140 145
-0.140425 -0.308323 -0.045947 118 118 112
0.313442 -0.139549 0.069009 52 66 68
-0.054376 -0.174019 -0.039988 127 140 137
0.121863 -0.151841 -0.031849 90 90 84
0.125226 -0.116294 -0.007327 35 43 44
