ply
format ascii 1.0
element vertex 1208
property float x
property float y
property float z
property uchar red
property uchar green
property uchar blue
end_header
0.322018 0.303146 -0.024487 135 137 128
-0.305924 -0.140902 0.209927 14 20 18
-0.261216 0.200221 -0.045862 102 104 95
0.048935 -0.109073 -0.016710 37 47 52
-0.139861 -0.287528 -0.045712 119 124 114
-0.245512 -0.245347 -0.050918 124 126 115
-0.296619 -0.187122 0.334567 54 55 49
-0.124172 -0.269602 -0.045980 121 123 114
0.028080 -0.263683 -0.037994 114 115 109
0.339433 -0.145751 -0.028160 139 140 131
-0.001820 0.213080 -0.039502 107 115 104
-0.238815 0.339854 -0.056831 114 119 109
-0.183248 0.433755 -0.041715 135 140 130
-0.155776 -0.024484 -0.037564 124 137 132
0.331991 0.370673 -0.021486 136 138 129
-0.114228 -0.277103 -0.045022 122 124 115
-0.059710 0.209252 0.060314 131 139 128
0.105827 0.229667 0.039709 165 189 177
0.082048 -0.236292 -0.035894 117 119 110
0.115133 -0.223044 -0.034026 119 121 110
0.259736 0.074485 0.010692 39 49 54
0.109736 0.502164 -0.032470 136 137 124
0.269936 -0.169820 0.080316 74 77 80
0.242360 -0.162260 -0.033186 4 3 3
0.333062 0.186529 -0.027005 136 141 129
-0.373044 0.232906 -0.075631 109 78 76
0.087705 -0.169916 0.092557 71 83 87
-0.322042 -0.052739 0.344697 92 116 118
0.382195 0.346362 -0.017685 137 139 130
-0.289684 -0.199203 0.195743 8 11 10
-0.080554 -0.131083 -0.041106 179 191 183
0.370348 -0.065883 -0.027132 138 138 132
-0.085222 0.359749 -0.050318 133 138 128
-0.000274 -0.214530 -0.039308 129 134 124
0.356313 0.267049 -0.023644 144 146 135
-0.024343 -0.276924 -0.040928 126 128 119
-0.295018 -0.183796 0.302549 52 53 47
-0.044173 -0.243714 -0.042421 123 125 116
0.096029 -0.075812 -0.026470 53 65 69
-0.291197 -0.319540 -0.049379 88 82 84
0.014447 -0.149102 0.082739 68 74 74
-0.092299 -0.183411 -0.049848 63 63 59
0.119281 0.082360 -0.027197 46 58 62
-0.120249 -0.123109 -0.051230 139 152 147
-0.182414 0.341699 -0.052735 121 129 118
-0.116263 -0.251146 -0.046662 106 111 101
-0.188869 0.123554 -0.041361 106 114 103
-0.145721 -0.096266 -0.049709 134 147 144
0.338355 0.136677 -0.028797 142 147 135
-0.265533 -0.214706 -0.052703 121 126 116
0.005936 -0.004437 -0.040376 113 122 113
-0.053865 -0.129275 -0.047398 82 86 79
0.190767 -0.151613 -0.028264 59 62 61
-0.341221 -0.081536 0.348578 38 49 49
-0.045378 0.322677 -0.048236 142 152 140
-0.264220 0.154276 -0.044564 109 114 104
0.299596 0.255885 -0.007303 112 115 114
-0.217236 -0.243224 -0.051603 117 119 108
0.072416 -0.078636 -0.026270 55 65 70
0.026683 -0.035860 0.079092 57 71 77
0.289145 -0.105379 0.084671 134 138 133
0.024962 0.042712 0.087140 67 84 89
-0.377800 -0.071586 0.120313 57 53 42
0.014379 0.305393 -0.041080 97 99 88
-0.243242 -0.156846 -0.019931 122 133 129
-0.079414 -0.296603 -0.043158 119 126 118
0.186501 0.169476 0.097515 54 66 70
0.219935 0.436981 -0.027700 138 140 127
0.106625 -0.091469 -0.026466 54 66 72
0.274896 0.037645 0.097715 86 96 101
0.274529 -0.216717 -0.031707 131 132 126
0.245914 -0.218608 -0.032297 119 125 127
-0.322442 -0.231560 0.257609 30 37 31
-0.242399 -0.325770 -0.048436 116 120 113
0.360320 0.467162 -0.020969 142 144 135
0.284529 0.112212 0.098162 109 120 118
-0.229592 0.456726 0.017245 134 139 129
-0.195996 -0.320677 -0.047783 119 120 116
-0.300337 0.428748 -0.039399 130 132 123
0.287112 0.380961 -0.024767 123 123 117
-0.314339 0.077471 -0.045743 99 104 92
0.373626 0.194559 -0.022096 132 134 125
-0.206697 0.455917 0.003805 135 137 128
-0.192059 -0.026339 -0.032463 116 127 123
-0.278590 -0.143555 0.148733 8 11 10
-0.001725 0.225537 -0.040494 96 101 91
-0.337935 -0.238745 0.011167 11 17 17
-0.122727 -0.119992 -0.051375 136 147 145
0.349697 0.211645 -0.025749 137 138 127
-0.311796 0.329419 -0.058440 127 132 120
-0.239977 -0.058925 -0.014701 111 119 116
-0.008724 0.304772 0.005578 147 156 147
0.266734 0.541005 -0.026831 138 139 128
0.200130 0.155620 0.026796 29 39 44
0.275616 -0.233107 -0.032512 128 129 123
-0.216860 -0.279405 -0.049285 70 66 67
-0.277807 0.030104 -0.045333 106 114 103
-0.067445 -0.267645 -0.043062 129 131 122
-0.221668 0.198183 0.073556 137 142 132
0.202905 0.065584 -0.024448 46 56 63
0.254717 0.080489 -0.003963 39 49 54
0.351159 0.322440 -0.021761 137 142 130
-0.206055 0.169710 -0.041631 107 115 104
-0.329510 0.419112 -0.015895 146 139 131
0.092489 -0.273431 -0.036657 123 123 117
-0.120695 -0.149311 -0.051486 135 148 143
0.036152 -0.237997 -0.037633 112 121 114
0.014548 -0.207173 -0.038883 123 124 113
0.080966 -0.165424 -0.034053 77 84 78
0.263311 -0.017775 0.030320 49 56 64
-0.296132 0.349314 -0.058517 122 123 114
-0.352839 -0.090741 0.353977 53 54 48
0.171479 -0.163762 -0.033263 34 35 29
0.323194 0.327258 -0.023454 137 142 132
0.336216 0.060815 -0.029602 136 138 129
0.254621 -0.206378 -0.031694 57 48 51
0.014210 0.344582 0.046080 121 126 114
0.336019 0.074807 -0.029759 140 142 133
0.000842 -0.026167 -0.041366 36 44 33
-0.009976 0.251803 -0.039519 87 95 80
0.117966 -0.115713 -0.025137 57 69 73
0.187875 -0.182008 -0.032297 98 102 95
0.005992 -0.169400 -0.040278 128 125 120
-0.307026 -0.139147 -0.052051 93 94 88
-0.311855 0.186219 0.082236 133 134 128
0.113400 -0.266977 -0.035620 113 113 107
-0.301977 -0.222839 0.380032 78 100 103
-0.098496 -0.301364 -0.043444 116 117 113
-0.077794 -0.250880 -0.044460 121 122 116
0.059361 0.088499 -0.026980 40 54 58
-0.324994 -0.189477 -0.051567 102 103 94
0.243143 0.048260 -0.020932 52 69 74
-0.195973 -0.083847 -0.050287 127 140 135
0.301997 -0.217918 -0.032155 128 129 123
-0.231379 0.104218 -0.042658 102 107 95
-0.073693 0.146692 -0.038719 105 115 101
-0.202946 -0.221088 -0.052828 82 87 77
0.189735 0.071115 -0.024759 42 54 58
-0.294382 -0.140028 0.184627 1 2 0
0.123125 -0.102620 -0.025387 54 66 70
0.066236 0.119122 -0.026362 42 54 60
-0.301329 -0.025345 -0.048876 104 106 97
0.058247 0.155335 0.036477 22 34 36
-0.329853 -0.321569 -0.051561 84 85 81
-0.070301 -0.017390 -0.041147 111 119 108
0.085672 0.154289 0.012925 26 33 37
-0.212501 0.344466 -0.054941 111 119 108
-0.258161 -0.201797 -0.052644 111 118 110
0.275066 0.435110 -0.026255 138 140 129
0.211147 0.167235 0.096579 39 49 54
0.096184 0.464558 -0.032544 84 81 76
-0.130993 0.077964 -0.038488 114 116 105
0.275728 0.413269 -0.025677 138 143 131
-0.304644 0.058023 -0.045523 2 3 0
-0.286481 -0.205589 -0.051983 106 106 100
0.028857 0.129576 0.086828 46 56 61
-0.113668 0.058364 -0.038118 115 120 108
-0.179233 0.435187 -0.039111 134 139 129
0.263261 -0.071138 0.043825 45 55 60
0.026419 0.335361 -0.039918 96 98 87
0.009126 -0.212859 -0.039174 122 127 117
-0.268024 -0.300701 -0.048723 67 69 60
0.081489 -0.179992 -0.034184 102 104 95
0.142273 -0.172810 0.091826 155 175 172
0.013001 -0.134395 -0.040226 119 124 114
-0.355209 -0.292838 -0.052544 112 113 104
-0.067999 -0.036955 -0.043633 92 101 92
0.084109 -0.160179 0.087449 73 85 91
-0.203547 0.351349 -0.054239 107 116 107
0.259440 -0.031272 0.017022 45 55 60
-0.240968 0.070167 -0.043228 105 110 98
0.398075 -0.109450 -0.024536 140 144 137
0.026072 0.145130 0.105708 67 81 83
0.268818 0.433905 -0.026570 141 142 129
-0.230133 -0.150016 -0.038383 121 132 128
-0.016074 -0.149306 -0.042890 107 108 102
-0.258515 0.205504 0.013505 126 131 121
-0.215031 -0.131654 -0.048170 113 128 123
-0.127901 0.467629 0.034501 133 138 128
-0.273418 0.211666 -0.038770 107 115 102
-0.332890 0.458288 0.068964 142 140 132
-0.036948 -0.254915 -0.041435 118 127 118
-0.313867 -0.231623 0.287607 32 32 28
-0.282379 -0.138089 0.207948 16 16 16
0.081537 0.442117 -0.033350 137 139 130
-0.212548 0.468472 0.056708 138 140 131
0.224688 0.329041 -0.029000 135 140 128
0.087401 0.302098 -0.034573 124 129 117
-0.351704 -0.121314 -0.055820 113 113 107
-0.329434 0.170119 -0.048179 109 114 102
-0.203937 -0.314817 -0.047402 117 118 114
-0.062245 0.087551 -0.037417 107 117 103
0.007458 0.283917 0.046299 148 161 148
-0.250971 -0.079424 -0.014891 104 117 114
-0.340449 -0.028032 -0.051686 16 16 10
-0.298671 -0.181381 0.332040 55 57 48
0.190026 0.382738 -0.028916 136 143 135
-0.084721 0.106462 -0.037680 104 112 101
0.056987 -0.248118 -0.037327 108 110 99
0.245780 0.515504 -0.026837 136 144 129
-0.186452 0.061253 -0.040729 107 112 102
0.290648 0.397214 -0.024452 140 142 131
0.121785 -0.090371 -0.026360 53 65 69
-0.194451 0.193799 -0.042495 98 103 93
-0.298382 -0.214195 0.195142 5 14 7
0.069334 -0.226058 -0.036743 116 117 111
-0.119512 0.154944 -0.039005 111 119 108
-0.270435 -0.133410 0.180714 54 55 51
0.338304 0.524450 -0.021596 143 144 133
-0.024105 0.420903 -0.018979 145 152 144
-0.351078 -0.064386 0.366785 94 120 120
0.152179 0.465962 -0.031725 90 82 79
-0.047818 -0.066749 -0.043426 110 118 105
-0.282954 0.363569 -0.058805 113 118 108
0.191654 0.388146 -0.028615 133 141 130
-0.079249 0.043358 -0.039114 110 118 105
-0.024547 0.183765 -0.037642 115 123 112
0.232110 -0.116692 -0.018183 68 75 83
0.062945 -0.164805 -0.036582 78 85 77
-0.294424 -0.204594 0.366312 85 113 117
0.165391 0.118015 -0.025242 46 56 63
-0.195113 -0.313266 -0.047447 117 120 119
0.271353 -0.092011 0.091258 84 91 97
-0.055115 -0.237780 -0.043060 115 123 110
-0.165841 0.392203 -0.053364 120 128 117
-0.348394 -0.060329 0.366044 100 123 128
0.042788 0.103218 0.001283 22 29 35
0.373507 -0.074254 -0.026360 133 140 132
-0.234968 -0.103744 -0.046848 118 126 123
0.105850 0.054627 -0.026005 50 62 68
-0.178473 0.014601 -0.042596 114 124 112
-0.132579 -0.180453 -0.045293 144 155 151
-0.258141 0.058344 -0.043691 107 115 104
-0.361124 0.089729 -0.053979 11 15 10
-0.198174 -0.165684 -0.045612 134 142 139
0.143640 -0.245350 -0.034859 68 64 69
0.011179 -0.290033 -0.040216 118 125 117
-0.003700 -0.143991 -0.041495 116 118 109
0.255072 -0.114334 0.000659 42 47 56
0.079835 -0.262180 -0.037335 122 127 117
-0.258026 -0.329915 -0.048691 118 119 113
0.003957 -0.023492 -0.041742 116 120 113
-0.295208 -0.197932 0.357130 89 112 108
0.232509 0.159815 0.059569 32 39 43
0.293900 0.514882 -0.026069 137 142 128
-0.035148 0.469601 0.035988 140 147 139
-0.297079 -0.213988 0.368108 84 109 114
-0.072959 0.214196 -0.039930 84 92 79
-0.370342 0.068719 -0.058762 0 2 0
-0.078537 -0.003658 -0.040769 116 121 111
-0.018609 0.443613 0.015134 150 154 147
0.187273 -0.208876 -0.032648 112 119 111
-0.036884 0.385019 -0.047655 146 158 148
-0.251805 0.049087 -0.043518 104 112 101
-0.344856 -0.032067 -0.053406 109 114 104
-0.326346 0.037630 -0.047325 108 113 103
-0.371399 0.266146 -0.078818 119 71 75
0.206130 -0.173155 0.093628 55 62 70
-0.099931 -0.295720 -0.043512 128 129 123
0.188848 0.369106 -0.028549 131 132 121
0.201449 0.011922 -0.023430 49 62 71
0.279917 0.353909 -0.025168 139 140 131
0.235625 -0.173597 0.082045 57 64 70
-0.086843 0.210391 0.047284 129 134 122
0.067860 -0.012255 -0.024406 54 68 74
0.384764 0.125984 -0.021877 100 102 93
-0.299743 -0.217577 0.383866 81 105 107
-0.071321 -0.180326 -0.046819 91 98 90
-0.310741 -0.232862 0.330045 30 31 27
-0.258373 0.458024 0.031176 137 138 127
-0.190759 -0.023538 -0.029546 117 128 124
-0.082255 -0.138486 -0.040588 148 160 152
0.262622 0.155789 0.109819 77 84 90
-0.088406 -0.206396 -0.046941 94 98 91
0.105979 -0.191769 -0.033564 13 13 7
0.072284 0.116361 -0.026794 46 56 63
-0.181536 0.466547 0.052598 136 137 126
0.239432 -0.098156 -0.018884 61 72 81
0.120914 0.328058 -0.032171 126 128 119
0.022868 -0.226337 -0.038085 123 127 120
-0.004515 0.110507 -0.037783 111 119 108
-0.172413 0.306105 -0.051192 133 145 137
0.049432 0.159018 0.070722 25 35 40
-0.173300 0.338380 -0.052570 120 130 118
-0.361567 -0.115698 0.345317 42 46 39
0.328834 -0.121353 -0.027877 125 125 121
-0.215848 -0.257447 -0.050161 116 121 111
0.011426 0.060411 -0.040094 103 112 103
-0.229976 0.202228 0.051080 129 134 122
-0.278055 0.203604 0.019464 129 131 120
-0.213740 0.463725 0.047482 135 137 126
0.365805 -0.127841 -0.027998 137 138 129
-0.074912 -0.242657 -0.044232 116 121 109
0.364527 0.012861 -0.026387 140 141 130
-0.359722 0.344656 0.067102 136 149 144
-0.311225 -0.226882 0.244257 51 52 46
-0.126682 -0.102648 -0.046839 51 50 50
-0.229086 -0.095904 -0.050110 114 127 122
0.328130 0.002957 -0.028953 90 90 86
-0.300585 -0.253086 0.115617 6 14 11
-0.305484 -0.230692 -0.050911 101 96 92
0.095396 0.095799 -0.026641 48 58 63
-0.296171 -0.210931 0.323828 45 49 44
0.260753 0.521556 -0.026323 140 142 131
0.356113 -0.014635 -0.027116 133 138 128
0.139168 0.138754 -0.026363 48 62 66
0.278947 -0.209823 -0.031522 76 77 73
0.246301 0.458799 -0.026607 137 142 128
-0.286728 0.442708 -0.011702 132 133 122
-0.329924 0.263127 0.001658 142 144 135
0.091761 -0.173850 0.077370 50 56 54
-0.363118 -0.112986 0.353045 4 5 1
-0.289322 -0.172031 0.190531 15 18 17
-0.353712 -0.061074 0.180297 15 15 19
0.335478 0.174294 -0.027809 136 138 127
-0.328063 -0.158369 -0.053970 102 103 97
0.250316 -0.054547 -0.012437 52 59 67
0.047724 -0.258756 -0.037769 121 126 116
0.257233 0.156834 0.099838 47 54 62
-0.338450 -0.000348 -0.050242 94 94 88
-0.139889 -0.223284 -0.049367 96 103 95
-0.288361 -0.001975 -0.046507 109 111 102
-0.055300 0.214447 -0.003405 122 127 115
0.119488 0.063818 -0.026763 47 59 63
0.060188 0.082246 -0.026593 42 56 60
0.066034 0.052079 -0.025037 47 59 63
-0.301299 -0.215564 0.138063 0 1 0
0.274576 0.501448 -0.025855 140 142 131
-0.259462 -0.126667 -0.012095 116 131 126
-0.021681 0.220379 0.063017 152 164 156
0.263254 -0.155362 -0.032489 94 94 88
-0.303441 -0.241327 0.134794 7 13 11
0.388549 -0.172421 -0.027057 138 139 130
0.032164 -0.004301 0.055213 41 51 54
-0.200185 -0.317053 -0.047639 97 97 91
-0.002874 -0.192368 -0.040176 114 119 107
-0.147856 -0.080547 -0.048803 135 146 144
-0.230397 -0.170642 -0.027149 123 134 130
-0.294285 -0.187596 0.300200 48 55 47
-0.306244 -0.222952 0.253109 57 61 56
0.212516 0.055001 -0.023272 52 64 68
0.271423 0.035302 0.093613 86 98 102
0.240264 -0.185432 -0.031670 113 114 105
0.231166 0.467582 -0.028058 140 145 133
0.362143 -0.117035 -0.027320 145 143 135
0.108592 -0.210136 -0.034319 114 122 111
0.226678 -0.218948 -0.032268 126 130 123
0.229414 0.317468 -0.028805 137 139 128
-0.218766 -0.071342 -0.050886 130 141 137
0.237113 -0.050299 -0.021853 68 80 86
0.271921 0.149800 0.113023 80 94 98
0.259052 0.512842 -0.026735 141 146 132
-0.159274 0.214773 -0.013714 123 128 118
0.117756 -0.180295 0.086348 67 72 77
-0.174334 0.110764 -0.040509 110 115 103
0.342209 -0.184962 -0.029447 135 137 128
0.043150 -0.268410 -0.038664 121 119 111
-0.110129 0.336270 -0.051391 127 136 127
0.087685 0.010563 -0.023791 56 67 76
-0.285325 0.324574 -0.057966 118 120 111
-0.084167 -0.217205 -0.045608 100 107 99
0.214641 0.297494 -0.029686 98 93 91
-0.357910 -0.087504 0.365427 50 57 51
0.278819 -0.153898 0.087981 76 83 89
-0.323768 0.440220 0.012999 140 136 129
0.072476 0.183126 0.095718 86 96 99
0.194870 -0.057972 -0.023136 50 60 67
0.105397 0.121088 -0.026639 47 60 69
-0.011717 -0.140339 0.059517 32 35 34
-0.355875 -0.122439 0.309820 39 45 43
0.172853 -0.156851 -0.027008 10 10 10
0.234243 0.445268 -0.027027 142 144 131
0.001970 -0.234484 -0.039446 130 140 128
-0.157824 0.415472 -0.052299 138 142 135
0.147312 -0.211224 -0.033269 114 119 109
-0.352135 -0.102299 0.323539 26 34 31
0.192772 0.532018 -0.030230 142 144 133
-0.206992 -0.047354 -0.043829 120 129 122
0.130930 0.310364 -0.032423 126 131 119
0.225250 -0.000823 -0.022547 59 73 79
0.057987 0.110898 -0.026166 41 51 54
-0.286089 -0.069539 -0.051053 49 53 46
-0.036623 -0.299656 -0.041322 124 126 117
0.144566 0.292704 -0.031178 120 125 115
0.312441 0.534666 -0.023781 134 142 131
0.237143 0.163531 0.085412 35 42 48
0.183168 0.541175 -0.029888 89 90 79
-0.142023 0.135166 -0.040250 35 27 26
0.025523 0.372356 -0.040567 96 101 89
-0.106613 0.157646 -0.038863 109 118 109
0.046305 0.521855 -0.035561 67 68 55
-0.055199 0.099463 -0.037059 106 116 102
-0.146251 -0.065688 -0.048027 136 147 143
-0.318057 -0.234092 0.288757 27 28 24
-0.107606 0.469957 0.034438 137 142 132
-0.152417 0.164274 -0.039935 116 121 109
0.165281 0.099172 -0.025317 45 55 60
-0.326610 0.323435 -0.039459 139 140 131
0.266998 -0.035012 0.058616 50 60 65
0.333501 0.232733 -0.024995 141 142 131
-0.014791 -0.075532 -0.041949 105 114 105
0.014830 -0.208764 -0.038653 122 127 115
0.257767 0.143256 0.054813 43 50 56
-0.294488 -0.144663 0.150996 0 3 0
0.225783 0.371291 -0.027116 131 136 124
-0.295247 -0.205696 0.275119 89 100 96
-0.277622 0.113156 -0.044736 102 107 97
-0.120939 -0.310965 -0.044559 121 125 120
-0.085157 0.459328 0.004962 137 142 132
0.237608 -0.161250 -0.034275 84 91 85
-0.092882 -0.035252 -0.023234 124 137 132
0.398087 -0.143815 -0.025563 144 146 137
-0.352543 0.410914 0.061513 145 138 130
-0.080378 0.435978 -0.038603 135 140 130
0.041828 -0.224620 -0.037456 115 116 110
0.327790 -0.134596 -0.028831 128 136 125
-0.037041 0.092154 -0.036171 91 96 86
0.336841 0.336811 -0.022086 63 54 57
-0.294727 -0.193471 0.312688 48 52 47
0.294268 -0.222267 -0.032514 126 130 125
0.231363 -0.254070 -0.033953 128 130 121
-0.152061 0.041206 -0.040260 112 122 108
-0.371792 0.001156 -0.058851 0 7 0
-0.125934 0.149073 -0.039037 113 118 108
-0.082243 0.221611 0.064085 153 162 155
-0.109324 -0.041596 -0.038419 128 141 138
0.333883 -0.113581 -0.028395 137 139 128
0.037535 -0.173030 0.086191 58 61 64
0.387329 0.485143 -0.018311 73 69 62
-0.115876 0.207325 0.069849 137 149 141
0.125791 0.540868 -0.031870 139 141 128
0.213008 0.410904 -0.027585 66 71 59
0.349820 0.434655 -0.020837 67 67 61
0.045220 -0.206801 -0.036990 108 116 105
-0.319235 0.195576 -0.047501 102 103 94
0.162402 0.143494 -0.022183 45 55 60
-0.335526 -0.079377 0.347326 85 114 115
0.133197 -0.102561 -0.025012 57 67 74
0.359558 -0.010323 -0.026980 139 140 131
-0.233371 -0.018082 -0.047573 126 123 118
0.264079 0.063763 0.038897 44 54 59
0.033670 0.065145 0.052632 38 45 51
-0.220245 -0.293662 -0.049132 117 122 112
-0.052805 -0.283224 -0.042128 60 56 61
-0.182410 -0.293253 -0.047459 124 125 116
0.375644 0.139059 -0.022462 82 83 79
-0.136286 0.068557 -0.038706 95 97 88
-0.267569 -0.223326 -0.052411 118 119 110
0.302734 -0.231323 -0.032873 129 130 124
-0.296437 -0.195573 0.379612 90 119 120
-0.060963 0.202547 -0.039643 101 106 94
-0.063843 0.345821 -0.049915 128 137 128
-0.106549 -0.165009 -0.047139 138 151 146
0.250791 -0.067102 -0.011547 50 57 63
-0.345728 -0.266648 -0.051221 105 110 100
-0.338248 0.431605 0.028956 144 140 133
0.035024 0.106404 0.033009 36 46 49
-0.289184 0.133317 -0.045207 104 112 99
0.345300 -0.171754 -0.029568 64 70 68
-0.076729 0.419696 -0.050995 150 157 149
0.200284 0.004039 -0.023356 53 63 70
-0.278818 -0.194050 -0.052354 62 59 56
0.263020 -0.156725 0.081890 75 87 93
-0.029651 0.145996 -0.036644 122 127 115
0.261787 -0.194326 -0.030958 120 121 112
0.000129 -0.233290 -0.039295 122 130 119
0.359174 0.070481 -0.027551 140 141 130
0.113462 -0.091993 -0.026241 55 65 72
-0.059365 -0.127241 -0.035067 47 54 48
-0.366819 0.182385 -0.061029 13 20 14
-0.144541 0.032607 -0.040386 113 121 110
0.259147 0.130526 0.034337 37 47 52
-0.006969 -0.061310 -0.041623 109 114 104
-0.271850 -0.154583 -0.054099 30 31 20
-0.203113 0.415255 -0.054788 122 127 117
-0.187929 0.446243 -0.019688 133 137 130
0.011624 -0.127093 0.066567 76 84 83
-0.209389 0.159800 -0.041646 110 115 101
0.340237 0.542207 -0.021466 142 140 130
-0.095159 0.066716 -0.038794 106 116 104
-0.315003 -0.228290 0.265844 49 56 50
-0.199423 0.112565 -0.041511 103 108 98
-0.301269 -0.220546 0.281197 4 4 8
-0.232682 0.332206 -0.055496 110 114 107
-0.327751 0.435455 0.002603 139 137 129
0.281632 -0.033511 0.092637 82 92 97
0.391981 0.257493 -0.018431 140 142 131
0.269477 0.085722 0.084653 47 61 65
0.171286 0.307419 -0.029540 127 122 118
0.342002 0.117954 -0.027635 77 83 83
0.278993 0.379505 -0.025297 11 10 10
0.230779 -0.168499 0.093177 73 85 89
0.353218 -0.047619 -0.027905 137 142 132
-0.318198 0.178893 -0.047055 97 99 90
-0.116149 -0.116411 -0.006840 23 24 18
-0.352064 -0.055400 0.367922 102 124 127
0.390005 0.261664 -0.018345 144 145 132
-0.311538 -0.230593 0.298267 27 31 26
0.155701 -0.186152 -0.032669 101 106 96
0.021550 -0.144942 -0.039470 119 124 114
-0.054151 0.425016 -0.047700 154 161 153
-0.205656 0.464358 0.048838 134 135 124
0.368135 0.216238 -0.023016 140 142 131
-0.322308 -0.238518 -0.051356 69 71 62
-0.015007 -0.291581 -0.040781 123 127 122
0.188225 0.150726 -0.006122 29 36 40
0.161212 0.149594 -0.010427 27 37 42
0.097607 -0.190060 -0.033693 100 104 99
-0.307893 -0.146495 -0.051721 96 103 95
-0.356097 -0.070667 0.367907 59 59 53
-0.275852 0.113576 -0.044801 101 106 96
0.079204 -0.171325 0.091925 63 70 78
-0.101214 0.150143 -0.039414 47 54 48
0.145292 -0.181767 -0.032054 93 97 90
0.066946 -0.167766 0.092190 76 88 94
-0.168641 -0.022147 -0.035601 118 131 126
-0.050050 -0.081430 -0.044525 107 115 104
0.252247 -0.056101 -0.006759 49 56 62
-0.174762 0.434404 -0.040175 133 138 128
-0.289587 -0.178883 0.213612 9 12 13
0.205190 -0.013910 -0.023130 57 67 72
-0.238288 0.408402 -0.056585 121 126 116
0.199810 0.149533 -0.007274 31 41 44
0.179747 -0.099664 -0.022681 53 63 68
-0.155629 -0.205388 -0.029189 138 149 147
-0.198166 -0.056305 -0.050039 132 139 133
-0.260542 -0.174669 -0.054783 109 113 106
-0.059884 -0.024703 -0.041691 111 119 106
-0.301059 0.443950 -0.002086 136 137 128
-0.314071 0.309294 -0.053911 132 133 124
0.203475 -0.014211 -0.023218 57 67 72
0.150910 -0.201290 -0.032686 110 111 105
-0.298116 -0.217916 0.366404 80 106 108
-0.035943 0.017325 -0.037687 112 122 108
-0.186063 0.210976 0.015748 126 131 121
0.322237 0.298580 -0.024847 133 134 128
-0.223733 0.075558 -0.042561 105 110 100
-0.202677 0.203522 -0.042099 90 98 85
-0.224360 -0.088896 -0.051603 120 128 127
-0.155999 -0.069086 -0.049005 132 145 142
-0.211373 0.212449 -0.020265 121 126 116
-0.067878 0.344991 -0.050046 129 142 129
-0.314391 -0.023903 -0.049200 111 119 108
0.281363 -0.149206 0.088862 78 85 91
-0.307465 -0.016953 -0.048363 107 111 104
0.360507 0.360806 -0.020068 143 144 131
0.390166 -0.164246 -0.026858 99 99 95
0.391936 -0.016147 -0.024076 143 144 135
-0.204180 -0.269358 -0.049899 111 118 110
0.029142 0.071043 0.085544 39 51 53
0.364435 0.397547 -0.019868 144 146 135
-0.109363 -0.301689 -0.044166 122 123 117
-0.078070 -0.201393 -0.046380 91 95 88
-0.214534 -0.197540 -0.050691 133 140 132
0.002841 -0.239089 -0.038841 122 127 117
-0.348246 -0.051869 0.366396 100 124 126
0.022036 -0.116815 0.088460 63 80 83
0.092358 0.045620 -0.025457 53 65 71
-0.224649 0.058282 -0.042264 99 109 97
-0.167528 0.487769 0.057470 144 149 139
-0.309506 -0.253032 0.099367 6 12 10
0.019784 0.004772 0.083818 76 88 92
-0.185875 0.036912 -0.041523 113 121 108
0.050950 0.150114 0.028592 25 35 38
-0.256211 -0.307629 -0.048333 115 119 112
0.095749 -0.145828 -0.028860 48 51 50
0.121420 0.165160 0.069362 30 40 43
0.122888 0.525979 -0.032577 137 139 128
-0.187172 -0.319145 -0.047741 122 123 119
0.325000 -0.195606 -0.030701 134 139 129
-0.296068 -0.327692 -0.049625 113 108 104
0.235850 0.543284 -0.027867 138 140 127
-0.346470 0.430895 0.059807 141 137 130
-0.215979 -0.060938 -0.047362 118 129 125
-0.318950 0.447887 0.039771 138 136 126
0.139710 0.182334 0.100217 157 180 174
-0.014202 -0.249557 -0.040235 124 128 121
0.281597 -0.201727 -0.030904 115 123 112
0.221413 0.150641 0.002692 34 39 44
-0.299434 -0.204520 0.391363 95 114 118
0.113070 -0.118861 -0.023388 59 69 76
0.276173 -0.158270 -0.030830 4 4 0
-0.168227 0.165706 -0.040415 47 54 46
-0.278337 -0.185492 -0.052521 110 118 107
0.296472 0.293493 -0.025758 130 134 127
0.376810 0.304861 -0.019842 99 104 94
0.312938 -0.133873 -0.029394 92 87 83
-0.059426 0.437579 -0.034755 139 140 134
0.161213 -0.171134 0.047105 51 51 55
-0.073022 -0.116461 0.002388 45 45 45
-0.068022 0.477330 0.042559 142 144 135
-0.151948 -0.289544 -0.046420 117 121 114
0.163469 -0.183240 -0.032234 100 101 95
-0.269296 0.137592 -0.045135 6 10 3
-0.312342 -0.091466 -0.051339 103 108 98
-0.013478 0.421396 -0.001263 145 154 145
0.274147 -0.075260 0.090493 83 90 98
0.129995 0.340449 -0.032340 77 74 71
0.019752 0.440965 -0.036135 103 104 91
0.367175 0.301083 -0.020988 140 145 131
-0.068885 -0.247850 -0.043897 119 121 112
-0.121873 0.013187 -0.040619 116 121 111
0.127087 -0.048132 -0.026593 57 67 72
-0.281049 -0.140508 0.154615 11 15 10
0.062031 0.341858 -0.034369 134 142 129
0.206780 0.445525 -0.028498 138 143 129
-0.096145 0.053932 -0.038522 113 118 108
0.050247 0.121125 -0.020604 26 36 39
-0.014900 -0.111784 -0.040603 86 94 83
0.026994 -0.222522 -0.037830 118 120 111
-0.013096 -0.138666 -0.042365 116 121 111
0.094682 -0.267142 -0.036577 119 120 114
-0.145212 0.075104 -0.038707 106 114 103
-0.161303 0.207787 0.064435 135 142 136
-0.364069 0.098368 -0.054710 12 12 12
-0.288366 -0.177958 0.205313 11 17 15
-0.123766 0.461025 0.013771 135 140 130
-0.360814 -0.126703 0.343838 37 44 36
0.051839 0.136696 -0.020918 38 45 49
-0.300973 -0.200848 0.396649 99 121 124
-0.333987 0.206161 0.081876 138 147 140
0.301250 0.388884 -0.024078 139 141 132
0.040072 -0.055118 0.004567 33 38 45
-0.334544 -0.080593 0.345330 85 114 115
0.131923 -0.106301 -0.024860 54 66 72
0.245352 -0.209428 -0.032507 113 114 105
0.258003 -0.185568 -0.030900 113 118 108
0.061280 -0.254953 -0.037199 113 117 110
0.228892 -0.059304 -0.021049 64 76 82
-0.322247 -0.215748 -0.051248 107 104 99
-0.353697 -0.090378 0.355173 51 51 45
0.216588 0.419429 -0.027122 87 87 81
0.024536 -0.208660 -0.038357 117 122 112
0.087305 0.085240 -0.025524 47 57 62
0.015143 -0.192499 -0.039395 118 126 115
-0.151191 0.150454 -0.039179 113 118 106
0.215936 0.158414 0.042051 33 40 46
0.246033 0.083928 -0.019064 51 65 69
-0.146292 0.040128 -0.039824 114 119 109
-0.312008 0.075889 -0.045878 96 101 91
0.251985 0.477145 -0.026905 126 127 118
0.212729 0.002565 -0.023015 58 70 76
-0.080720 0.077524 -0.037711 105 110 98
-0.204366 -0.216410 -0.053088 108 113 103
-0.132979 -0.069355 -0.046272 136 147 145
-0.300214 -0.034767 -0.049206 108 113 103
0.091335 0.320132 -0.033964 128 133 121
0.043978 0.083440 0.000206 22 29 33
-0.049997 0.121689 -0.036292 108 116 105
-0.158380 0.052262 -0.040249 21 17 10
-0.197834 0.019039 -0.043291 112 120 107
0.241497 0.162551 0.088486 36 43 49
-0.113564 0.200674 -0.040134 100 102 91
-0.155864 -0.131387 -0.052083 134 147 144
-0.031835 0.136794 -0.036818 66 68 59
0.247080 -0.156388 -0.033735 86 93 87
-0.223866 0.365928 -0.054755 111 119 108
-0.323990 0.084283 -0.046102 102 107 95
-0.099290 0.378914 -0.051434 127 135 124
-0.377200 -0.051613 0.375909 63 60 57
-0.052389 0.473957 0.035780 142 147 137
0.246877 -0.187444 -0.031506 116 120 113
-0.090908 0.165772 -0.039181 112 120 107
-0.325009 0.187899 -0.048596 99 104 94
-0.308352 -0.232139 0.356050 70 94 94
0.399855 -0.097358 -0.024410 143 144 135
-0.064672 -0.148952 -0.028898 1 8 2
0.251082 0.004257 -0.008355 52 61 71
0.263403 0.063354 0.035464 46 53 61
-0.054506 -0.218701 -0.043374 116 118 107
0.358421 -0.180510 -0.029391 138 139 130
-0.135402 0.492005 0.055846 142 147 137
0.360853 -0.127046 -0.028188 131 132 121
-0.253942 0.010679 -0.045599 112 119 111
-0.201739 0.440387 -0.029150 134 139 129
-0.332959 -0.110449 -0.055585 40 41 35
0.271122 -0.106996 0.083932 57 67 72
0.240833 0.441218 -0.026883 136 141 127
0.230268 0.164805 0.090816 34 41 47
0.000041 0.094857 -0.038631 14 19 9
0.258928 0.294221 -0.028362 123 124 118
0.122825 -0.266786 -0.035805 123 124 120
-0.116723 -0.236982 -0.047498 107 104 99
0.284194 -0.074070 0.088009 87 89 95
0.066644 -0.040717 -0.023959 54 64 71
-0.049334 0.181462 -0.038900 109 119 105
-0.060429 0.467928 0.019881 140 144 137
0.090602 -0.011935 -0.023430 55 65 72
0.287981 -0.065921 0.085356 116 120 115
-0.272340 0.005127 -0.046093 98 106 95
0.223062 0.460472 -0.028516 141 149 136
0.108466 0.387195 -0.031705 85 90 80
-0.332642 0.063584 -0.047020 102 107 93
-0.177644 0.467520 0.049911 135 137 126
-0.091583 0.067304 -0.038498 107 115 102
0.223728 -0.028978 -0.022678 60 72 78
-0.210973 -0.262825 -0.050013 120 120 114
0.315010 0.268439 -0.025149 136 138 125
-0.030770 -0.192160 -0.042007 64 61 56
0.160712 0.153581 0.015927 24 36 40
-0.296465 -0.264441 -0.049087 105 100 98
0.358780 0.100472 -0.027073 142 144 131
-0.244597 -0.171619 -0.016551 141 150 141
0.398458 -0.004417 -0.022459 139 141 132
-0.298000 0.061058 -0.044649 107 109 98
0.306008 -0.167535 -0.030131 110 115 105
-0.248457 0.090361 -0.043801 107 112 100
-0.253159 -0.154732 -0.016689 125 134 127
0.031586 -0.078675 0.047945 42 54 58
0.103697 0.146921 -0.023365 40 52 54
-0.023880 0.223842 0.060712 160 174 163
-0.317527 -0.338349 -0.052163 111 111 105
-0.326053 0.165712 -0.047463 110 112 99
-0.271675 -0.326418 -0.049106 117 118 109
-0.361159 -0.310214 -0.062781 115 113 105
0.071101 0.350851 -0.033255 132 140 129
0.089583 0.156567 0.021195 24 31 35
-0.314708 -0.231959 0.291100 30 31 27
-0.099770 0.152437 -0.038982 15 19 12
0.081703 -0.254515 -0.036296 113 117 110
0.246629 -0.227567 -0.032739 126 123 120
0.171793 -0.168838 -0.032203 56 59 58
0.159468 -0.098076 -0.023453 53 65 71
-0.165562 0.154389 -0.039610 92 100 89
-0.048130 0.351906 -0.049669 132 141 134
-0.085806 0.306129 -0.048784 144 153 144
-0.341552 -0.277007 -0.050251 105 102 97
-0.076172 -0.056385 -0.027269 131 142 140
-0.126256 0.438266 -0.031539 135 140 130
-0.111262 0.218291 -0.040982 13 8 4
0.015592 0.089065 0.092863 93 104 102
-0.189359 0.207133 0.044804 129 131 122
0.354645 0.349861 -0.020726 143 145 134
-0.312883 0.429311 -0.034171 136 134 126
-0.021238 -0.113829 -0.043456 35 35 31
-0.180172 -0.121956 -0.016336 51 52 41
-0.318332 -0.235485 0.307185 25 28 27
0.018369 0.431467 -0.032034 104 105 94
-0.177478 -0.031006 -0.041404 119 130 128
0.230755 0.298609 -0.029649 108 108 104
-0.225006 -0.151672 -0.040902 125 133 132
0.112319 0.352029 -0.032577 133 135 124
-0.134237 -0.238322 -0.048660 35 32 29
-0.058969 0.129454 -0.037915 117 121 114
-0.078486 0.161470 -0.038870 110 118 105
-0.293250 -0.189180 0.252187 19 18 1
0.210017 0.091099 -0.023805 52 62 69
0.120869 -0.264204 -0.035524 122 123 119
0.137025 -0.167038 -0.032270 63 70 64
-0.194819 0.416854 -0.054345 124 129 119
0.204139 0.149649 -0.009682 33 40 46
-0.266142 -0.167306 -0.054273 113 117 110
0.286109 0.023662 0.094278 68 64 67
-0.356861 -0.104383 -0.059578 107 108 102
-0.287736 0.108763 -0.044729 104 106 97
-0.357048 -0.089416 0.362563 50 54 49
-0.343598 0.255454 -0.066398 21 21 15
-0.270790 -0.157879 -0.054051 33 34 30
0.026255 0.306865 -0.039424 94 96 85
-0.035019 -0.130163 -0.044240 104 112 101
-0.148099 -0.035622 -0.043810 125 138 137
0.396027 0.341217 -0.016590 142 144 131
-0.003468 -0.012305 -0.039915 117 127 113
-0.112858 0.215446 -0.023471 118 126 115
0.223866 0.164006 0.076738 31 41 46
-0.334825 0.340975 -0.000914 146 143 138
-0.336521 -0.290035 -0.049782 54 51 46
-0.053203 0.059858 -0.036780 113 121 110
-0.090819 0.355864 -0.050425 129 130 126
0.133592 -0.174582 0.092433 155 172 173
0.027601 0.017886 0.082625 57 70 69
0.228380 0.169257 0.102466 65 75 78
0.015994 0.020031 0.080903 84 101 106
-0.179498 -0.053029 -0.049013 128 141 138
0.157984 -0.177794 -0.032314 86 93 87
0.036908 -0.233274 -0.037416 95 99 94
-0.308550 -0.165412 -0.052953 103 105 96
0.223820 0.019809 -0.022504 63 75 79
0.285296 -0.155599 0.081935 104 105 101
0.166837 -0.184238 -0.032200 101 106 96
-0.018250 0.123936 -0.036063 109 119 105
-0.062857 0.181112 -0.039369 116 117 108
0.259335 -0.134581 0.018038 47 54 62
0.242714 -0.197605 -0.031636 12 7 5
-0.158468 -0.201965 -0.031959 141 154 151
0.273951 -0.127210 0.091330 79 86 90
-0.166478 -0.211077 -0.053096 29 24 20
-0.182646 -0.156677 -0.048716 124 137 132
-0.128656 0.447871 -0.015061 137 139 128
0.316907 0.281156 -0.025766 137 139 126
0.073883 0.471085 -0.033147 134 139 125
-0.282475 -0.254050 -0.049153 118 114 105
0.089208 -0.173420 0.084908 52 64 66
-0.280917 -0.119704 -0.052323 113 118 108
0.251683 -0.086271 -0.010796 47 59 65
-0.349965 -0.113577 0.313318 32 32 32
-0.138958 -0.279679 -0.046719 122 124 115
-0.347796 -0.092015 0.347383 51 55 48
-0.221819 -0.131410 -0.047522 111 124 119
0.153462 -0.248169 -0.034690 84 93 84
0.118351 0.291621 -0.030990 128 136 123
0.358489 -0.053746 -0.027929 139 141 130
-0.143576 0.116855 -0.039707 108 116 103
-0.123085 0.442493 -0.023005 135 139 132
-0.308281 0.040101 -0.044887 105 110 98
-0.140404 -0.209820 -0.052012 80 77 74
0.097157 0.169203 0.093316 48 55 63
-0.303455 0.345052 -0.058722 119 120 114
0.334016 0.371050 -0.021372 135 140 128
0.119689 0.320295 -0.032312 127 132 122
0.289401 0.278453 -0.027210 131 140 131
-0.114380 -0.220631 -0.047668 96 100 93
0.337265 -0.182712 -0.029396 137 139 130
0.382275 -0.106649 -0.027170 139 139 141
0.001876 -0.217229 -0.039667 133 135 124
-0.178402 0.461551 0.022363 135 137 128
-0.296291 -0.053119 -0.049676 108 113 103
0.363095 -0.176624 -0.028865 143 145 134
0.263993 0.010532 0.040803 46 56 63
0.377069 -0.119423 -0.026820 118 118 120
-0.272079 -0.133601 0.196544 14 18 13
0.163990 -0.202044 -0.032895 112 113 107
-0.004725 0.231432 -0.039636 94 96 87
-0.301484 -0.145300 -0.051620 94 102 91
0.289682 0.429141 -0.024697 139 141 130
0.319703 -0.135918 -0.029487 121 123 114
-0.076203 -0.209364 -0.045461 102 104 93
0.172814 0.146148 -0.019123 38 50 54
-0.022752 0.423002 -0.014769 148 152 145
0.057278 0.432982 -0.035895 135 137 126
-0.313412 -0.155953 -0.052813 94 98 91
0.333263 0.180100 -0.027255 137 142 132
-0.165296 0.389626 -0.053425 121 128 120
-0.240106 -0.181073 -0.054671 118 125 117
0.380810 0.277149 -0.020009 143 144 138
0.174771 -0.164949 -0.032599 60 61 55
0.112886 -0.060098 -0.026206 53 65 69
-0.202995 0.172934 -0.042006 101 106 94
0.205464 0.537033 -0.029123 140 141 128
0.141470 -0.181529 0.085440 50 50 52
-0.143051 0.213202 0.019681 122 130 119
-0.226044 -0.040441 -0.012120 112 120 117
0.026980 -0.185800 -0.038019 119 121 112
-0.169484 0.429858 -0.046258 132 140 129
-0.028382 0.405740 -0.037490 155 159 154
0.013720 -0.108751 0.079355 73 87 89
-0.263581 -0.195850 -0.053686 83 92 85
-0.214945 -0.260396 -0.050187 124 125 116
-0.280061 -0.247206 -0.049505 112 113 107
-0.361856 0.230010 -0.075054 33 22 17
-0.027431 -0.254803 -0.041142 97 95 87
-0.016448 -0.173153 -0.041792 117 121 114
-0.154751 0.440966 -0.026621 136 138 129
-0.079719 -0.056094 -0.029764 139 152 149
-0.363676 -0.101263 0.361629 56 56 52
-0.314895 0.318837 -0.056155 128 129 123
-0.332558 0.268089 0.006976 143 140 135
-0.188480 0.449107 -0.010903 133 138 128
-0.228964 0.167859 -0.042957 112 114 105
0.368462 0.403404 -0.019484 144 145 132
-0.163832 0.212686 0.013923 126 131 121
0.151070 -0.097783 -0.023936 59 66 72
0.044619 0.140966 0.016841 24 31 35
0.238392 -0.073421 -0.021024 67 77 84
-0.033800 0.339888 -0.046889 143 155 145
0.134490 0.042524 -0.026114 51 63 69
-0.276681 -0.122387 -0.052589 115 120 110
-0.008685 -0.161878 -0.041213 114 116 107
-0.311106 0.142437 -0.045647 112 114 103
0.137767 0.029544 -0.026456 53 65 71
0.061461 0.542518 -0.034513 136 137 126
-0.341639 -0.342726 -0.051020 115 116 107
-0.069330 0.317718 -0.048930 132 141 132
0.180570 0.546534 -0.029939 129 131 122
-0.155001 -0.273329 -0.047267 124 125 119
0.227136 -0.028376 -0.022513 61 71 76
0.125451 -0.177039 0.090500 140 157 158
0.149923 -0.164702 -0.032166 68 75 69
-0.266904 0.095516 -0.044478 39 30 23
0.252098 -0.076654 -0.008174 46 56 63
0.253785 -0.151566 -0.035125 88 93 83
0.101382 -0.216077 -0.034557 121 123 114
-0.042283 0.070398 -0.036776 110 118 105
0.137978 0.061384 -0.026463 46 58 62
-0.257146 0.379725 -0.057669 115 120 108
-0.220985 0.203271 0.052415 129 134 124
-0.293568 0.195828 -0.046489 99 104 90
-0.046820 -0.162727 -0.045628 104 111 103
-0.226226 -0.240149 -0.051354 114 119 109
0.086101 -0.252238 -0.036265 113 117 110
-0.243903 -0.096949 -0.035834 116 124 123
0.047532 0.132987 -0.012270 25 32 36
-0.049466 -0.241511 -0.042678 18 9 14
-0.060486 -0.056168 -0.043640 107 117 105
-0.304368 -0.227145 0.369142 72 98 98
0.112644 0.028194 -0.025958 56 68 74
0.122395 0.054329 -0.026753 49 63 69
-0.171940 0.010126 -0.043028 101 108 100
-0.200129 -0.130391 -0.048683 118 131 126
0.059480 -0.224700 -0.036810 120 121 112
0.055212 0.103785 -0.025819 42 49 55
-0.295579 -0.141790 0.187967 0 1 0
-0.138516 -0.145758 -0.051485 129 142 137
-0.264346 -0.187819 -0.052908 117 119 108
-0.110116 0.084600 -0.038750 106 111 99
0.124680 -0.257625 -0.035246 120 124 117
0.074300 0.360246 -0.034328 44 49 39
0.125478 0.429331 -0.032073 133 135 122
0.131657 -0.250395 -0.035328 120 128 117
-0.229487 -0.250289 -0.051154 122 124 115
0.193703 0.163178 0.064224 30 40 45
0.143098 0.177269 0.102612 156 178 177
-0.102752 -0.038894 -0.032689 125 138 133
0.085537 0.159232 0.032862 23 33 36
0.191258 0.519293 -0.029552 137 142 130
-0.097166 -0.147899 -0.047170 134 142 139
-0.179808 -0.182936 -0.044008 142 153 151
-0.166947 -0.270719 -0.048124 66 67 58
0.381059 -0.185968 -0.028928 31 33 41
-0.121382 0.207967 0.058319 126 133 125
-0.209547 -0.220748 -0.052542 111 113 104
0.132452 0.150516 -0.007617 27 34 38
0.003003 -0.272358 -0.039409 130 132 121
-0.296722 -0.227396 0.077913 28 26 16
0.198581 -0.086090 -0.021441 49 63 67
-0.025172 0.088583 -0.036716 103 110 102
-0.272423 -0.212996 -0.051568 119 119 113
-0.122474 0.464020 0.019677 136 141 131
0.178957 0.112381 -0.025187 44 56 60
0.197795 0.038836 -0.024656 50 60 67
0.354414 0.344255 -0.019979 144 146 135
0.028384 -0.043969 0.074679 46 56 59
0.094972 0.288547 -0.034054 124 132 117
-0.021440 0.407520 -0.024896 147 156 147
-0.014124 0.155897 -0.036474 115 123 110
0.390311 0.294908 -0.018498 76 71 67
-0.169916 0.024126 -0.041985 99 100 91
0.126539 -0.236297 -0.034470 122 123 114
0.102826 0.526802 -0.032394 138 140 127
0.184601 0.461016 -0.030049 133 135 126
-0.120265 -0.137137 -0.051319 130 138 135
0.269210 -0.206860 -0.031838 44 40 41
0.291680 0.360776 -0.023947 135 140 130
-0.300839 -0.211046 0.228081 6 6 6
-0.161561 -0.272847 -0.047948 116 117 113
-0.204491 -0.133011 -0.048622 121 129 128
0.372466 0.414462 -0.018992 142 144 131
-0.090020 -0.279027 -0.043933 121 125 120
-0.222597 0.030025 -0.042907 110 115 103
-0.290162 -0.218161 -0.050662 108 109 100
-0.336011 0.334312 0.006211 143 141 133
0.372206 0.157946 -0.023373 147 148 139
-0.147073 0.149202 -0.039357 113 118 106
0.086945 -0.149350 -0.034251 53 57 52
-0.270994 0.207530 -0.009079 125 127 116
-0.213584 -0.198796 -0.015747 132 143 141
0.001212 0.231589 0.054868 135 144 135
0.322327 0.479919 -0.023715 140 144 137
0.251814 0.435708 -0.026999 142 144 133
-0.262646 -0.178519 -0.054646 112 120 107
-0.033546 -0.112688 -0.037938 89 93 88
0.071707 0.120297 -0.026407 48 57 67
0.398506 -0.224196 -0.028947 138 142 137
0.181055 0.023727 -0.024521 54 64 69
0.372073 0.205918 -0.023118 139 141 130
-0.279622 0.074969 -0.043519 105 107 98
-0.077303 0.205861 -0.039457 98 103 91
0.107742 0.436603 -0.032602 135 140 128
-0.036653 0.216177 0.000112 121 129 118
-0.302848 -0.229333 0.354709 77 105 109
0.339322 -0.031971 -0.028691 144 144 138
0.195856 -0.175287 0.094570 145 160 157
-0.037881 -0.181634 -0.043470 111 113 104
0.346867 0.525989 -0.021012 140 141 130
0.034038 0.017171 0.053449 29 41 43
-0.335235 -0.297452 -0.049546 27 18 13
-0.175386 0.076385 -0.041032 106 114 103
0.137582 0.136454 -0.026707 50 67 70
-0.221642 -0.045228 -0.029118 114 125 121
0.141217 0.443991 -0.031953 133 138 126
0.134051 0.046353 -0.025997 52 64 70
-0.328308 0.300136 -0.024520 143 141 133
0.170452 -0.154163 -0.033037 69 68 68
-0.204819 -0.090434 -0.052054 132 139 133
-0.130858 -0.291881 -0.045911 1 2 0
-0.115979 0.002997 -0.041750 114 124 112
-0.059869 0.453670 -0.009340 137 141 134
-0.085177 0.146689 -0.039105 105 113 100
-0.278629 0.103732 -0.044104 99 104 94
-0.301401 -0.213533 0.140353 2 3 0
-0.320199 -0.062632 -0.052009 105 110 100
-0.001014 -0.251898 -0.039682 123 127 120
-0.120670 0.215974 -0.040640 75 82 74
-0.307322 -0.228368 0.312365 30 34 29
0.399712 -0.196923 -0.027130 145 146 140
0.263690 -0.075685 0.037640 44 54 61
-0.290062 -0.291138 -0.048286 105 106 100
0.379045 0.166893 -0.021328 124 132 121
-0.324406 -0.093081 -0.053249 106 110 103
0.285398 -0.080790 0.089533 86 88 94
-0.110534 0.069388 -0.038043 108 116 101
-0.193141 0.148955 -0.040492 110 115 103
-0.074942 0.460728 0.006126 135 143 132
-0.303675 -0.141111 0.208262 41 44 45
0.204412 0.414592 -0.027984 138 139 126
-0.147953 0.439309 -0.029166 134 139 129
0.187455 -0.193063 -0.033054 103 110 102
0.378661 -0.115854 -0.026582 23 23 23
-0.293174 0.107774 -0.045029 101 105 98
-0.062635 0.190367 -0.039352 105 110 100
-0.155536 -0.254716 -0.048527 112 112 106
0.365061 0.144220 -0.024442 138 140 131
0.008723 0.236168 -0.042278 91 101 89
-0.266893 0.419184 -0.057334 120 125 113
-0.331041 -0.077070 0.335247 78 100 101
0.083529 0.162678 0.053756 25 35 40
-0.299289 -0.214906 0.385409 80 106 108
0.349453 -0.022983 -0.027936 139 141 130
-0.037086 -0.276146 -0.041135 129 130 124
0.176114 0.348835 -0.029496 67 71 66
0.150914 0.021899 -0.025246 54 64 71
-0.106347 -0.093595 -0.046028 132 147 144
-0.234038 -0.128163 -0.043238 121 132 128
-0.079258 -0.271219 -0.043239 123 125 116
-0.227297 0.154109 -0.042429 111 119 106
0.070787 0.320473 -0.033894 130 135 123
-0.088218 -0.227505 -0.045557 108 112 105
-0.164375 -0.131367 -0.051721 135 148 143
0.268391 0.116180 0.085087 45 55 60
0.170679 -0.233211 -0.033598 116 120 113
-0.309081 -0.273124 -0.048217 99 104 94
0.268700 -0.160168 0.087883 75 87 91
-0.280421 -0.004347 -0.046523 108 110 99
-0.082295 -0.291193 -0.043238 116 120 113
0.242030 0.276721 -0.029480 98 105 99
-0.343912 0.400449 0.028060 145 143 135
0.124801 0.438178 -0.032947 133 135 124
-0.106375 0.452009 -0.007660 135 140 130
-0.298111 -0.058935 -0.050345 107 115 102
-0.309897 -0.189985 -0.051668 102 106 99
-0.017093 -0.063303 -0.041562 107 114 106
0.242612 0.116678 -0.020116 60 70 77
-0.318391 -0.220052 0.189458 3 6 5
-0.105155 0.197923 -0.040259 98 103 91
-0.284624 -0.181585 -0.052537 111 112 106
0.114192 0.014687 -0.025542 54 66 72
0.309127 0.400757 -0.023531 140 141 130
0.246068 -0.067264 -0.019215 60 70 75
-0.272870 0.199740 -0.045475 103 105 96
0.160099 -0.069603 -0.024302 54 64 71
-0.050476 0.155621 -0.037834 114 116 107
-0.292999 -0.145926 0.143977 0 2 0
0.284117 -0.077475 0.088500 88 90 96
0.139921 -0.103212 -0.024382 57 64 72
0.008146 0.366039 0.054752 147 165 159
-0.312351 0.199217 -0.047087 105 106 97
0.257147 0.020962 0.004204 48 53 58
-0.207482 0.461419 0.026515 135 137 128
0.248253 0.415109 -0.025938 118 119 110
-0.146908 -0.098381 -0.049512 127 142 139
0.184429 0.048106 -0.024940 48 58 65
-0.364203 -0.139620 0.315148 25 29 24
-0.231274 -0.326737 -0.048430 101 99 91
0.321342 0.324636 -0.023839 137 139 130
0.223873 -0.242092 -0.032993 128 130 121
0.362482 0.426661 -0.020560 142 147 135
-0.334550 -0.177327 -0.052665 105 110 98
0.331227 0.451097 -0.023069 142 144 133
0.070838 -0.068543 -0.025298 54 64 71
0.265214 -0.074123 0.053738 48 55 61
-0.029564 0.312002 -0.042930 146 155 148
0.274272 -0.027371 0.090516 80 92 96
-0.151771 -0.017300 -0.030217 122 135 130
0.039383 -0.042457 0.008596 32 39 43
-0.347277 -0.002834 -0.052962 104 112 101
-0.341175 -0.080807 0.349564 42 56 60
0.177136 -0.089733 -0.022782 52 64 68
-0.044276 0.131905 -0.036746 35 30 28
0.196203 -0.121215 -0.019935 54 66 72
-0.165996 -0.118997 -0.052513 122 133 129
0.354691 0.334747 -0.020548 113 108 104
-0.129767 -0.097366 -0.048148 135 146 144
0.376322 0.043122 -0.024474 78 73 71
0.270292 0.027627 0.082639 57 64 70
-0.078266 0.047477 -0.038774 110 118 105
-0.055583 0.214830 0.066186 161 172 168
-0.228562 0.072596 -0.042894 101 109 98
0.368871 0.325338 -0.020244 142 147 135
-0.016903 -0.220267 -0.041328 121 125 118
0.137269 0.306156 -0.031522 121 126 114
-0.269471 -0.314402 -0.048376 115 116 110
0.129055 -0.150372 -0.026023 53 61 60
-0.246771 -0.068007 -0.009616 108 123 120
0.017244 0.496775 -0.041527 121 123 114
-0.087186 -0.005204 -0.041203 112 120 109
-0.308474 -0.228184 0.287672 31 32 28
0.125624 0.161581 0.049861 28 40 44
-0.292423 -0.110920 -0.052731 36 33 28
-0.243588 -0.144005 -0.027889 126 138 130
-0.019675 0.177836 -0.037428 126 134 123
-0.199146 0.038516 -0.041996 112 114 103
-0.128912 0.315521 -0.050425 121 128 122
-0.341799 0.219163 0.080584 142 149 141
-0.079154 0.361147 -0.050297 134 139 129
-0.272007 -0.128735 0.192508 15 19 14
0.237001 0.031481 -0.021083 69 81 87
-0.294154 -0.190239 0.143008 9 15 13
0.077771 0.419429 -0.033698 65 66 57
0.205794 0.362124 -0.027891 133 138 126
-0.317733 0.383270 -0.056068 131 133 124
-0.001229 0.327646 0.032021 159 173 164
-0.341293 0.030282 -0.051121 5 5 1
-0.124818 -0.089155 -0.048107 135 146 142
-0.252556 -0.157513 -0.018167 134 139 129
0.178328 -0.174129 0.094438 153 172 172
0.240070 0.547180 -0.027765 136 140 133
0.260828 0.052516 0.016441 44 54 59
-0.281608 -0.247464 -0.049610 115 116 107
-0.311343 -0.176473 -0.052294 98 102 95
-0.013490 0.043362 -0.036493 118 126 115
0.247212 0.439677 -0.026512 59 64 54
0.375170 0.257736 -0.020938 122 119 114
0.221926 0.368133 -0.027534 135 140 128
0.225544 0.101794 -0.022314 59 71 77
0.382075 -0.116858 -0.026735 136 140 135
-0.239939 -0.013709 -0.047116 114 121 113
0.272036 0.106155 0.100794 85 93 94
-0.106575 -0.206143 -0.048329 84 92 81
-0.054814 -0.202518 -0.044231 115 117 108
-0.201581 -0.225697 -0.052798 0 4 0
-0.357367 0.313380 0.070932 137 150 147
-0.260642 -0.294854 -0.048890 119 123 116
-0.165917 0.123231 -0.039979 107 112 100
-0.262688 -0.275252 -0.049788 117 122 112
-0.344755 -0.103334 0.329805 3 6 5
-0.357563 0.154366 -0.058397 0 1 0
0.114433 -0.158075 -0.032231 56 65 58
0.342781 -0.035029 -0.028429 27 27 27
-0.256667 -0.274192 -0.049683 116 120 113
0.002512 -0.084034 -0.044366 6 3 0
0.040514 -0.207549 -0.037471 105 110 100
-0.343955 0.392513 0.041506 147 143 136
-0.359151 -0.316507 -0.059276 113 113 107
-0.051974 0.044104 -0.037532 111 119 108
0.370751 0.330419 -0.019852 137 138 125
0.233651 0.414935 -0.026617 136 138 125
-0.177692 -0.298445 -0.047107 119 120 114
-0.117044 0.215514 0.008499 126 131 121
-0.361836 -0.138192 0.322772 59 73 64
-0.114093 0.138473 -0.039474 113 121 108
-0.315377 -0.234015 0.319426 28 31 30
0.269239 0.322160 -0.026326 133 138 126
-0.331447 -0.330501 -0.052677 114 112 104
-0.258531 0.434077 -0.037227 128 130 121
-0.321140 0.199533 0.082551 138 142 135
-0.277946 -0.144503 0.144103 15 18 17
-0.165485 -0.176000 -0.047228 137 148 144
-0.046579 -0.125704 0.009698 69 70 66
-0.259405 0.017330 -0.044931 108 116 105
0.210855 0.482673 -0.028334 138 143 129
-0.139815 0.159768 -0.039276 114 122 109
-0.295828 -0.248415 -0.049853 103 104 98
-0.017508 -0.217304 -0.040899 117 122 112
-0.003830 0.372742 -0.004360 156 176 169
-0.152159 -0.209672 -0.022461 139 147 144
0.150826 0.077965 -0.025943 43 53 56
-0.249329 0.027123 -0.044042 112 117 107
-0.295657 -0.181637 0.138644 11 17 15
-0.333904 0.437437 0.027102 141 137 128
-0.035757 0.430825 -0.023954 140 147 139
-0.310481 -0.225279 -0.050299 109 109 103
-0.309425 -0.321154 -0.050134 43 40 37
-0.247856 0.451199 0.001098 135 137 128
0.079914 0.400937 -0.033737 131 135 128
0.268627 0.142105 0.108216 80 92 98
-0.347150 -0.088271 0.350264 51 52 46
-0.117245 0.083092 -0.038727 105 113 100
0.234183 0.109517 -0.021758 63 75 77
-0.139219 0.455709 0.003681 138 140 129
-0.314986 -0.314693 -0.050402 101 102 98
-0.276800 -0.137021 0.165846 9 12 13
0.280345 -0.100120 0.092448 79 91 95
-0.139703 -0.236090 -0.048938 109 113 106
-0.091676 -0.081437 -0.041659 137 152 151
0.158061 -0.066417 -0.024337 57 64 72
-0.029302 -0.008065 -0.039289 113 120 112
-0.316181 -0.232701 0.160516 66 70 65
0.136617 0.057098 -0.026493 50 62 66
-0.101291 0.026774 -0.039299 48 50 41
0.068342 0.340352 -0.033880 129 137 126
0.340886 0.095604 -0.028807 51 52 46
-0.336466 0.388143 -0.005684 143 144 133
-0.329828 -0.055639 0.354038 94 118 120
0.003321 0.097924 -0.039124 109 121 111
-0.173996 -0.120859 -0.051553 121 132 130
0.170753 0.019932 -0.024980 52 64 68
0.365667 -0.211505 -0.030883 138 140 131
-0.335319 -0.060204 0.360348 92 115 120
-0.184653 0.370861 -0.052850 121 129 118
0.162016 0.346032 -0.030048 126 131 117
-0.303673 -0.149125 -0.051949 61 62 53
0.226039 0.480092 -0.027698 140 145 133
0.142918 -0.251368 -0.035681 83 80 75
-0.039965 0.460104 0.015739 139 147 136
-0.284499 0.206365 -0.044977 101 103 92
-0.314686 -0.227558 -0.050777 108 106 96
0.385067 -0.133035 -0.025994 140 145 133
-0.164624 -0.240242 -0.050592 74 75 71
