ply
format ascii 1.0
element vertex 1223
property float x
property float y
property float z
property uchar red
property uchar green
property uchar blue
end_header
-0.203819 0.201570 -0.036159 89 97 86
0.097880 -0.261546 -0.030553 107 111 104
-0.050637 -0.292294 -0.038248 99 106 100
-0.105149 -0.119391 -0.037773 7 4 0
-0.238306 0.323292 0.047636 1 4 3
-0.223987 0.235539 -0.006750 8 11 10
-0.047137 0.268375 -0.006552 6 6 8
0.330113 0.124081 0.239494 136 147 145
-0.207455 0.192188 -0.037398 97 99 90
-0.198885 -0.106551 -0.039801 115 120 110
0.150412 -0.198429 -0.031700 115 117 108
-0.160130 0.091051 -0.038609 95 97 86
0.318710 0.060220 0.238117 142 148 148
0.251011 -0.154865 -0.030171 119 117 109
-0.157533 0.080308 -0.037473 92 97 85
0.138413 -0.268847 -0.033313 44 33 37
0.011715 0.365042 0.027428 7 10 9
-0.020543 -0.234333 -0.037072 120 121 110
-0.044323 -0.041180 -0.035639 1 0 0
-0.170367 0.086911 -0.038898 41 42 33
0.350194 -0.015334 0.031176 107 108 102
0.045436 -0.089464 -0.030543 76 92 81
0.384969 0.090914 0.241687 141 153 155
0.344324 -0.215481 -0.029417 108 109 103
-0.299835 -0.238899 -0.046101 128 132 125
-0.331561 -0.184806 -0.001083 131 133 120
0.132158 0.042794 -0.023397 62 69 63
-0.093796 0.368674 0.006225 37 39 30
0.118750 0.198470 -0.022364 14 13 13
-0.083182 -0.226767 -0.037547 108 113 103
-0.115483 0.559816 -0.041051 95 85 83
0.152748 0.263556 0.235580 127 140 135
-0.015377 0.106300 -0.007493 50 85 58
0.007177 0.582732 -0.036248 139 146 140
0.091833 0.290789 0.128046 76 83 91
0.170790 0.042147 0.197687 141 149 148
-0.323150 -0.073575 0.330654 107 133 133
-0.188508 -0.121931 0.154466 3 2 2
0.194004 -0.058102 0.045708 138 145 139
0.167434 -0.033738 0.103568 142 148 146
0.114172 0.197688 0.231998 137 140 139
0.162080 0.050782 -0.023293 58 70 62
0.201662 0.126846 0.235919 133 141 140
0.041064 0.593965 -0.029749 131 133 124
0.361059 -0.029779 -0.007041 101 107 105
0.232999 -0.011755 0.233521 143 150 144
0.201113 -0.059946 0.231807 131 142 140
-0.023311 0.084003 -0.023411 33 58 39
0.122212 0.190311 0.233575 132 138 138
0.326172 -0.211255 -0.028150 115 117 108
-0.061977 0.017991 -0.008445 34 61 43
-0.287063 -0.209201 -0.045249 117 125 114
0.077042 0.028115 -0.028622 62 66 61
-0.335544 -0.168285 -0.043973 46 34 34
-0.311505 -0.248473 -0.048286 50 47 44
0.181853 -0.217433 -0.033547 112 112 106
-0.216510 -0.141056 -0.041903 113 121 110
-0.199597 -0.058974 0.185200 14 22 21
0.335215 -0.037389 0.235234 142 145 146
-0.310721 -0.075621 -0.043679 103 108 98
-0.228680 0.184109 -0.035855 94 99 89
-0.333819 0.324232 -0.045604 123 125 114
0.137265 0.647317 0.025427 136 136 130
-0.105808 -0.301805 -0.039144 95 99 94
-0.015510 -0.145050 -0.033751 112 117 107
-0.255604 -0.237111 -0.039764 121 118 113
-0.299334 -0.100762 0.303317 74 79 69
0.383292 0.141144 0.242335 145 151 153
0.155444 0.123676 -0.015947 110 121 121
0.027807 0.111909 0.009874 73 110 87
0.367990 0.115919 0.240271 147 153 153
0.167063 0.000923 0.106376 125 136 132
0.009398 0.085851 -0.021883 55 87 66
-0.158953 -0.197921 -0.041537 118 120 109
0.177801 0.213423 0.017111 104 111 119
0.133533 0.031621 -0.024218 65 68 67
0.310333 0.239364 0.242262 139 145 145
-0.245370 -0.167374 -0.041394 113 123 111
0.323157 -0.044347 0.208149 119 122 123
0.089857 0.037316 -0.025790 4 5 1
0.343486 -0.061246 -0.024351 76 76 70
-0.080677 0.581424 -0.041349 84 80 73
-0.025421 -0.279216 -0.036998 112 117 107
0.384232 -0.011434 0.100629 115 112 109
-0.287802 -0.327964 -0.047909 126 122 113
-0.008708 0.370767 0.092594 4 4 4
0.016200 0.048444 -0.030259 51 85 65
-0.287748 -0.197641 -0.045645 124 126 117
0.146800 -0.053312 -0.026866 94 101 95
0.221972 -0.242656 -0.031450 118 119 110
-0.080780 0.594563 -0.038855 40 38 30
0.328771 -0.037495 -0.007847 104 111 105
0.382794 0.069221 0.240423 148 151 152
-0.162655 0.239305 0.213599 25 25 27
0.050721 -0.000250 -0.029267 74 78 71
0.073639 0.117225 -0.023945 4 4 4
0.001018 -0.079451 -0.032557 100 108 95
0.257162 0.078195 0.236882 135 146 144
0.172212 0.257110 0.236217 129 135 133
-0.123456 -0.264396 -0.040484 115 116 107
-0.333540 -0.193139 -0.044727 133 135 126
0.342632 0.128844 0.241847 141 149 150
-0.179989 -0.222504 -0.042941 126 131 121
0.049879 0.310845 0.005550 3 6 5
-0.286719 0.225562 -0.035401 79 80 76
0.296706 -0.237585 -0.027933 112 113 107
0.342938 0.178611 0.241943 145 151 151
-0.185342 0.239338 0.214533 146 157 153
-0.234543 0.243362 0.008266 6 7 3
-0.158322 0.091344 -0.038449 93 95 84
-0.220334 -0.172979 -0.040873 113 120 112
-0.071109 -0.172902 -0.037188 59 59 59
-0.257323 -0.302374 -0.045391 132 133 124
0.127807 -0.173887 -0.031070 112 117 107
-0.037092 -0.290141 -0.036789 31 25 27
-0.133865 -0.225333 -0.042636 83 78 76
0.102463 -0.085029 -0.027052 47 47 43
-0.004804 -0.209020 -0.032092 96 100 95
-0.309417 0.146052 -0.040078 124 125 112
0.201472 -0.087562 -0.026139 110 115 105
0.078877 0.050293 -0.024220 44 50 48
0.047360 -0.111518 -0.031733 100 107 99
-0.103158 -0.256526 -0.038702 106 107 96
-0.258322 -0.325410 -0.049990 133 133 127
-0.347241 -0.061533 0.340903 117 143 145
-0.241650 0.619565 -0.043642 122 120 110
0.399888 -0.024809 0.232954 126 134 131
0.268269 0.230590 0.240887 134 140 140
-0.189127 -0.201640 -0.042400 127 135 122
-0.094953 0.309057 0.012646 31 35 28
-0.104025 -0.145450 -0.036907 22 23 17
0.183278 -0.122735 -0.029188 119 120 111
-0.046530 -0.261693 -0.038587 118 118 112
0.233223 0.061761 0.235754 145 146 142
0.068056 -0.031728 -0.032053 68 75 67
0.233033 0.166120 0.237794 131 142 142
0.038355 -0.242971 -0.033462 107 118 114
0.201050 0.043493 0.235051 137 147 152
0.301808 0.112679 0.239192 141 147 147
0.061512 0.095409 0.018883 43 68 51
0.103734 -0.245075 -0.033371 81 81 75
0.271331 -0.004407 0.234679 80 86 86
0.031992 -0.048476 -0.031034 67 76 69
0.179632 0.332572 0.236943 133 136 135
-0.258457 -0.255534 -0.044065 122 123 117
0.262908 0.160257 0.239592 133 141 142
-0.088055 0.050297 -0.032113 70 75 63
0.163560 0.143299 0.023694 97 109 113
-0.053893 -0.249738 -0.036166 79 87 84
0.242254 0.273657 0.241306 130 138 137
0.237646 0.361621 0.240759 129 142 139
-0.165507 0.316392 0.023239 30 34 27
0.393851 -0.157020 -0.027722 107 108 102
-0.115138 -0.284101 -0.040087 116 118 109
0.380999 -0.081029 -0.028082 90 98 87
-0.314438 -0.025175 -0.042332 41 39 29
0.382487 -0.052964 -0.027257 82 82 76
0.238551 0.134426 0.236923 133 141 142
-0.101269 0.216870 -0.032137 67 77 65
-0.184552 0.091745 -0.037586 11 19 8
0.045789 0.627416 -0.027345 130 132 123
-0.067847 -0.216291 -0.036585 0 1 0
0.266834 -0.038188 0.236102 135 143 142
-0.255082 -0.300334 -0.046259 132 133 124
0.159634 0.229754 0.235530 132 140 139
0.145164 0.251337 0.021250 97 107 114
-0.258941 0.251697 0.018158 8 8 8
-0.175117 -0.233174 -0.041196 121 126 114
-0.226634 0.216112 -0.030244 75 76 63
0.054996 -0.072875 -0.031872 78 79 70
-0.247848 0.198136 -0.035109 112 113 104
0.331198 -0.177151 -0.031113 108 106 98
-0.086484 -0.080902 -0.035446 4 7 8
0.080043 0.317466 0.055616 48 54 56
0.230792 0.082631 0.237141 138 141 140
0.287423 0.245691 0.240420 130 141 139
-0.232571 -0.210686 -0.044784 117 126 117
-0.088625 -0.189591 -0.036182 113 118 108
-0.252552 0.225029 0.011218 8 14 12
0.375987 -0.011529 0.105182 108 111 112
-0.164993 0.304646 0.016366 34 35 29
-0.256298 -0.279048 -0.048081 138 140 127
0.073357 0.648793 0.087746 142 138 127
0.057663 -0.281104 -0.035684 102 104 95
-0.220142 -0.104727 -0.041304 115 116 110
0.128247 0.310482 0.066198 64 75 84
-0.164431 -0.164573 -0.039452 119 127 116
0.019664 -0.155615 -0.032596 116 117 108
0.291059 -0.015577 0.237253 135 143 142
0.006371 0.126031 0.020997 64 93 71
-0.049092 0.266017 0.027956 1 4 3
0.210669 0.329230 0.239005 132 138 140
0.271895 -0.052191 0.023320 108 114 112
0.237396 -0.195666 -0.030368 107 105 97
-0.254545 -0.041060 -0.019286 2 5 4
-0.318772 0.559578 -0.042398 74 75 64
0.214201 0.048934 0.233483 140 146 144
-0.046530 -0.021153 -0.034725 88 93 83
0.099835 -0.138028 -0.030101 119 119 115
0.373534 -0.179981 -0.026213 68 75 67
0.173260 0.019433 0.232237 134 142 141
-0.058070 -0.042817 -0.033657 72 73 69
-0.177653 -0.140960 -0.040799 124 126 115
0.251357 0.001787 0.235908 143 150 144
-0.190030 0.339838 0.039308 38 39 33
0.289112 0.125076 0.237861 133 144 142
-0.340180 -0.118672 0.318313 96 129 133
-0.306667 -0.100237 0.315954 82 82 78
-0.054138 0.356711 0.018909 32 36 29
0.077670 -0.079364 -0.026394 87 88 82
-0.313910 -0.081844 -0.043720 53 50 45
0.185645 -0.055521 0.228308 132 143 139
0.067983 0.324376 0.098783 6 14 11
-0.163299 -0.156093 -0.038714 117 119 106
-0.291872 -0.085184 -0.043068 109 121 111
0.279231 -0.000242 0.235848 143 149 149
0.394821 0.113332 0.242479 146 152 150
0.358924 -0.013299 0.030289 109 113 108
0.112979 -0.267614 -0.031699 110 114 109
0.370809 -0.023264 0.236471 143 149 151
0.287095 -0.054171 0.200152 119 122 121
-0.074449 0.611495 -0.038264 123 125 114
-0.120352 0.249108 0.028685 0 3 0
-0.299363 0.160499 -0.034298 108 110 101
-0.176277 0.072954 -0.038969 98 103 91
-0.183058 -0.305628 -0.045107 124 128 121
-0.103890 -0.208043 -0.038463 85 95 83
-0.219822 -0.107538 0.195571 19 19 21
0.027166 -0.250641 -0.035728 47 48 42
-0.128055 0.213540 -0.032504 76 73 68
0.067960 -0.278040 -0.034279 117 121 116
0.091588 0.013520 -0.028815 67 74 68
0.043054 0.112486 0.018185 89 123 101
0.244642 0.205751 0.237627 131 139 138
0.359712 0.062966 0.239840 144 152 153
0.320272 -0.083034 -0.030488 98 95 90
-0.210478 -0.143813 -0.040597 117 125 114
0.239244 -0.062471 0.234882 131 142 142
-0.243139 -0.293760 -0.046043 122 123 117
0.210655 0.052118 0.235277 142 149 141
0.056626 0.291291 0.224999 0 0 0
0.381360 0.070501 0.240571 143 149 151
-0.254068 0.229150 0.135624 10 10 6
-0.120407 -0.000071 -0.032754 9 16 10
-0.175755 -0.269270 -0.039934 122 123 114
0.251024 -0.103171 -0.029567 106 107 98
0.116015 -0.052726 -0.029900 99 104 94
-0.168714 0.252541 0.162567 0 9 2
0.304989 0.204208 0.242343 140 148 147
-0.192518 -0.177720 -0.041307 115 119 112
-0.184487 0.178476 -0.033677 8 10 1
0.001111 0.052091 -0.031616 29 54 37
0.083307 0.615998 -0.025528 128 130 117
-0.025092 0.083715 -0.023568 37 62 43
0.064297 0.204817 -0.025835 88 92 87
0.272559 0.282559 0.241922 132 138 140
0.257134 -0.028178 0.236292 137 145 144
0.055824 -0.067631 -0.030940 76 83 75
-0.077075 0.352853 0.077563 10 13 12
0.326893 -0.083743 -0.029755 94 96 83
-0.085701 0.288561 0.145294 1 2 0
-0.292769 -0.113128 0.252232 67 71 64
0.347045 0.018857 0.238361 140 148 149
-0.289173 -0.257095 -0.048017 139 137 129
-0.337369 -0.140239 -0.045443 124 126 115
0.211045 0.114338 0.236049 135 141 143
0.037954 -0.223680 -0.030099 103 105 96
-0.338218 -0.262880 -0.047985 58 72 61
-0.125942 -0.022884 -0.036358 92 97 87
0.307052 0.055937 0.238324 140 148 145
0.112266 0.203408 -0.021585 86 90 85
0.339270 -0.011922 0.237462 140 146 146
-0.238293 0.009560 -0.024769 91 96 86
-0.141803 0.616298 -0.040849 122 120 108
-0.258983 -0.237415 -0.041072 126 122 115
-0.339200 -0.051818 -0.041729 105 113 102
0.264594 -0.218725 -0.030178 114 121 113
-0.266902 -0.290004 -0.048464 27 22 20
-0.137906 -0.017410 -0.036698 87 95 84
-0.159363 -0.306141 -0.043447 118 119 110
0.312785 0.207928 0.242403 139 150 146
0.351981 0.176805 0.242055 148 151 150
0.288024 0.280522 0.243608 133 139 139
0.285602 -0.040625 0.099987 113 116 117
-0.092822 -0.083519 -0.036611 106 120 109
0.279530 0.147196 0.239681 140 143 142
-0.280519 -0.112942 0.274947 86 87 83
0.171296 -0.005958 0.069263 138 144 144
-0.131177 -0.110184 -0.037993 114 119 109
0.063239 -0.251265 -0.030148 10 13 14
0.334734 0.329100 0.243209 141 144 143
-0.031126 -0.018464 -0.033829 86 91 81
-0.219642 0.291301 0.034816 1 0 0
-0.146837 -0.154958 -0.037832 114 119 109
0.154550 0.234587 0.235673 131 139 136
0.273357 0.066652 0.236390 137 145 144
0.198232 -0.074496 0.230250 114 120 118
-0.201158 -0.064088 0.194088 22 25 24
-0.201250 -0.317522 -0.045711 112 119 111
-0.200686 -0.118965 -0.041023 126 130 125
-0.315212 0.102069 -0.039785 1 1 0
0.258256 0.170507 0.239618 133 141 140
0.009628 0.354681 0.023918 12 13 9
0.052891 -0.262980 -0.033824 114 115 109
-0.059012 0.349783 0.019623 37 41 36
0.307527 -0.010818 0.237587 139 147 144
0.142317 0.300294 0.235278 130 138 135
0.019895 -0.048370 -0.032664 87 92 80
0.139380 0.644994 0.063670 138 140 131
0.181309 -0.089491 -0.026597 100 104 97
0.134270 0.132093 0.215240 141 147 149
0.089962 -0.125973 -0.031344 68 60 57
0.237842 0.291718 0.239117 130 138 135
0.148318 0.649071 0.070232 137 139 128
0.176683 -0.022648 0.228988 135 141 143
0.169071 0.127828 0.234544 134 142 141
0.051480 0.085307 -0.004237 81 115 93
0.306359 0.319506 0.243633 134 140 140
0.182829 -0.014109 0.230034 134 140 140
0.256603 -0.062004 0.235101 135 141 139
0.119149 0.161087 -0.023258 103 106 105
-0.232833 -0.204299 -0.044355 109 110 106
-0.278976 0.516840 -0.042380 126 127 114
-0.114027 0.263413 0.219254 150 162 154
0.132159 -0.075708 -0.027346 100 107 101
-0.190835 -0.276615 -0.039428 116 117 111
-0.105499 0.046332 -0.035439 86 94 83
0.300452 0.209117 0.242241 139 145 143
0.160938 0.071098 0.234002 132 143 141
0.193463 -0.122347 -0.029855 119 115 108
0.388448 -0.106463 -0.030034 97 97 97
-0.049537 -0.283323 -0.037808 108 108 102
0.214242 0.113703 0.235398 135 141 141
-0.192037 0.185235 -0.035888 95 97 86
0.276735 0.347571 0.243963 133 139 137
0.268538 0.327744 0.243760 132 140 137
-0.147225 0.125008 -0.036229 34 35 31
0.040327 0.249901 -0.024004 60 64 59
-0.298394 -0.067728 0.306356 71 72 66
0.218723 -0.070058 0.153585 113 116 115
0.343587 -0.222867 -0.031550 104 105 99
0.049270 0.283756 -0.021098 0 4 0
-0.005394 0.216750 -0.028430 77 86 77
0.344406 -0.018939 0.037767 105 109 102
0.021713 0.254364 -0.022602 63 67 60
-0.182023 0.060350 -0.033409 11 8 5
-0.128957 0.248848 0.216858 9 16 10
-0.222540 0.152881 -0.035320 99 107 94
0.055174 -0.189623 -0.034265 109 113 106
-0.300237 -0.060855 0.308781 67 68 59
0.224158 -0.064539 0.117974 111 119 116
-0.317691 -0.192863 -0.046905 133 135 124
0.256249 0.137875 0.237666 135 141 141
0.211718 0.027763 0.234805 134 146 152
0.090212 -0.046732 -0.025043 2 2 2
-0.187523 0.150928 -0.034495 95 104 97
0.393482 -0.035840 -0.023990 61 69 58
0.107274 -0.067591 -0.028467 88 92 85
0.240522 0.151886 0.238968 131 142 140
-0.258943 -0.298052 -0.046117 130 132 123
-0.045204 0.063719 -0.024983 35 62 44
-0.227202 -0.327899 -0.045444 106 109 108
0.154040 -0.027861 0.226982 145 153 150
-0.186184 -0.133278 0.167875 11 17 19
0.185439 0.118713 0.023901 97 109 111
0.173353 -0.003275 0.051846 136 143 137
0.191947 0.101306 0.024731 101 115 121
0.380410 -0.181707 -0.027197 108 110 101
0.179001 0.337936 0.238232 131 137 135
0.186814 0.019525 0.234261 131 142 140
0.268735 -0.054875 0.034147 110 113 112
0.293137 -0.192497 -0.027584 116 117 111
-0.141148 0.612650 -0.040317 121 119 109
-0.293997 0.180457 -0.038026 127 128 117
-0.280422 -0.242284 -0.043748 130 135 123
-0.292435 -0.115835 0.273069 3 0 0
0.306845 -0.125663 -0.026838 110 110 104
0.108688 0.293002 0.049282 79 84 93
-0.274082 -0.112502 0.271453 83 89 87
0.167429 -0.023049 -0.023423 124 131 125
-0.213125 -0.197916 -0.042259 117 119 108
0.296142 0.250036 0.242548 140 146 144
0.214823 0.303806 0.238786 130 138 137
0.079338 -0.110924 -0.030906 103 107 100
0.060596 0.635927 -0.025764 130 135 123
0.234801 0.266698 0.240003 128 136 135
0.262231 0.054715 0.235458 138 138 142
-0.117704 0.334004 0.015796 30 31 27
-0.343971 -0.069156 0.348373 112 141 140
0.096521 -0.064144 -0.028800 88 93 83
-0.225700 -0.265983 -0.039973 119 123 116
-0.037622 0.097304 -0.007322 44 73 51
0.149135 0.644129 0.110736 140 141 130
0.185759 0.129796 0.018935 67 70 87
-0.339193 -0.058321 0.332939 112 136 136
-0.110738 -0.277165 -0.041082 115 117 108
-0.273872 -0.146581 -0.042564 33 34 25
-0.247351 -0.183853 -0.044035 121 126 114
0.091144 0.641508 0.107692 138 140 131
0.031689 0.629902 -0.027063 132 130 118
0.380661 0.077476 0.239897 148 151 154
-0.245776 -0.070385 0.262319 22 31 24
-0.102358 0.249603 -0.011206 0 0 0
0.168609 -0.028256 0.129853 132 138 136
-0.155835 0.279807 0.000413 1 4 3
0.355432 -0.222696 -0.028904 111 108 103
0.177310 0.035748 0.162271 140 148 147
-0.242610 -0.115982 -0.042112 59 63 56
-0.271256 -0.083641 -0.041394 101 105 98
-0.113864 0.254554 0.029716 0 2 1
0.263884 -0.064380 0.024245 107 110 109
0.130163 0.047094 -0.024994 63 67 62
-0.046468 0.634708 -0.032200 119 124 112
0.265218 -0.069922 0.191377 119 125 123
0.303237 0.075586 0.237884 145 148 147
0.342696 0.058203 0.238932 145 151 151
-0.179219 -0.278986 -0.039926 111 111 105
-0.324001 0.328124 -0.041154 114 111 97
-0.272469 -0.094468 0.283277 244 249 237
-0.295163 -0.180529 -0.045778 124 126 117
-0.247926 0.516227 -0.049107 163 176 171
-0.174244 0.226062 0.021060 6 6 6
0.103336 0.166821 -0.023731 84 93 84
0.305295 -0.036242 0.011256 114 115 111
-0.304930 -0.280129 -0.047993 129 131 122
0.007853 0.055107 -0.030802 56 81 62
0.120931 -0.231400 -0.033200 119 119 115
-0.017122 0.307877 0.005486 1 4 3
-0.324355 0.145882 -0.037843 128 130 119
-0.208951 0.028472 -0.038315 91 96 86
0.134606 0.037533 -0.023772 70 74 67
0.371860 -0.076252 -0.026528 92 93 80
-0.334312 -0.122782 -0.042830 125 126 120
0.206051 -0.244090 -0.030494 98 94 99
-0.150105 -0.212564 -0.041456 117 119 110
0.366693 0.204419 0.242881 142 150 147
-0.291434 0.503732 -0.044539 128 130 121
-0.018872 -0.203021 -0.034713 107 114 106
-0.339433 -0.278227 -0.049993 128 130 121
0.305720 -0.079484 -0.028175 85 89 84
-0.310883 -0.111486 0.307652 57 58 54
0.078011 0.306269 0.164271 85 91 89
-0.073982 0.267406 0.220819 138 146 145
-0.315222 0.228593 -0.035064 137 139 128
-0.092335 0.036021 -0.033800 75 89 78
-0.291801 0.167309 -0.035084 117 122 110
-0.017903 0.210211 -0.029772 6 12 12
-0.107551 0.323665 0.009688 38 39 33
0.292791 -0.186350 -0.027290 112 113 107
-0.156825 -0.199396 -0.040649 117 119 110
0.113457 -0.115430 -0.028932 109 114 104
0.153551 0.251148 0.235501 132 140 137
0.076721 0.600004 -0.029892 122 126 119
-0.177071 -0.050820 -0.034981 23 23 17
0.197222 -0.038532 0.232357 133 144 142
0.309555 -0.096170 -0.027794 99 99 93
0.257543 0.059882 0.236360 102 114 120
-0.173356 -0.283694 -0.041434 105 109 102
-0.235755 -0.221135 -0.044328 121 116 112
-0.164786 -0.315476 -0.046087 66 71 61
0.364638 -0.134355 -0.029274 98 107 98
-0.327282 -0.205522 -0.043946 128 132 125
-0.109684 -0.085095 -0.036306 99 107 96
-0.225725 -0.308635 -0.045540 126 131 121
0.156951 0.132778 0.024977 87 101 105
0.256920 0.024095 0.235216 85 87 111
0.359387 -0.146977 -0.028312 109 110 106
-0.353663 0.050997 0.251815 113 138 143
0.082714 -0.255454 -0.029393 101 109 98
-0.166775 -0.245764 -0.041396 35 30 28
0.290619 -0.061671 0.194506 115 126 124
-0.277217 -0.272358 -0.046571 136 137 128
-0.205001 0.643197 -0.035645 124 126 115
0.131710 -0.029191 -0.025631 93 94 88
-0.196401 -0.158162 -0.041224 109 111 95
0.107343 0.638224 -0.019720 126 127 116
0.199644 -0.077204 0.230448 141 144 145
-0.199578 -0.211361 -0.043811 113 122 113
0.105155 -0.011462 -0.026804 72 79 73
-0.375173 0.005168 -0.044087 13 12 12
0.209610 -0.202922 -0.026628 115 116 107
0.221696 -0.167164 -0.028108 108 115 107
0.015730 0.385700 0.080268 5 5 5
-0.317234 0.186890 -0.037802 140 138 128
0.304141 0.042356 0.237883 140 148 149
-0.268907 -0.113848 -0.042284 113 121 110
-0.207461 0.228143 -0.020968 8 9 5
0.008836 -0.286512 -0.036874 112 120 109
-0.364540 -0.006533 0.020118 67 74 68
0.082060 0.201008 -0.024575 7 10 9
0.379297 0.083611 0.240474 144 152 153
0.211068 0.275426 0.238076 126 137 135
0.064774 0.378787 0.103212 5 11 11
-0.281542 -0.092724 0.294022 75 72 67
-0.036087 -0.006043 -0.011951 81 101 84
0.296243 0.167611 0.239906 140 148 145
0.301070 0.147323 0.238552 141 147 147
0.089386 0.602535 -0.026212 34 32 20
0.090577 -0.019102 -0.029044 58 59 55
0.139567 -0.065373 -0.027303 97 104 96
0.080166 0.311820 0.047578 42 49 53
0.390349 0.107537 0.241821 150 153 154
-0.342625 -0.134413 -0.044744 99 96 91
-0.268597 0.257467 0.120580 10 10 10
0.187199 -0.087187 0.224309 137 137 137
0.231351 -0.140851 -0.028285 51 46 44
-0.196854 -0.069814 -0.039274 110 111 105
-0.140120 0.619553 -0.040462 122 124 111
-0.058066 -0.293691 -0.037580 98 107 100
0.256746 0.043779 0.235073 140 149 140
-0.252777 0.617567 -0.044448 101 102 93
0.088907 -0.085895 -0.026931 0 2 0
-0.173607 0.198087 -0.035035 85 86 77
-0.285018 -0.278129 -0.047781 132 130 122
0.182782 -0.087538 -0.026366 13 11 3
-0.066311 -0.036886 -0.033751 94 99 89
-0.258574 0.232212 0.082897 12 13 9
0.220704 -0.070062 0.146699 112 119 113
-0.193467 0.272615 0.001634 3 3 3
0.244804 0.162059 0.239214 134 140 138
0.365726 0.036620 0.239387 142 150 151
-0.113686 0.636683 -0.032072 104 106 93
0.141516 0.648840 0.071553 139 141 132
-0.184656 -0.133707 -0.040442 117 125 114
-0.316149 0.503891 -0.047827 62 60 52
-0.172532 -0.225952 -0.042886 122 127 117
-0.210489 0.326472 0.037312 40 41 32
-0.204478 -0.326829 -0.045474 132 134 125
0.003440 -0.043930 -0.033287 82 95 82
-0.249669 0.232878 0.137702 7 10 9
-0.180483 0.137376 -0.035518 93 95 86
0.108957 -0.144968 -0.029142 122 124 113
-0.010090 -0.102720 -0.033250 100 110 98
-0.320515 0.318391 -0.034869 68 69 63
-0.174169 -0.202268 -0.041929 121 125 120
-0.187905 -0.109420 0.164631 14 20 18
0.171725 0.059836 -0.021394 84 90 88
-0.015174 -0.009394 0.000736 43 63 48
-0.225505 0.630636 -0.038049 89 89 83
0.380079 -0.114664 -0.030312 102 106 99
-0.155250 0.232820 0.001873 5 5 5
0.044744 0.619725 -0.029362 117 119 110
0.259446 0.643189 -0.023907 131 138 132
-0.094967 -0.283480 -0.040362 108 115 107
-0.001016 0.202386 -0.029901 25 32 26
-0.303760 -0.301122 -0.048300 125 127 116
-0.083936 0.599562 -0.038338 126 128 119
-0.208662 0.020501 -0.038485 89 94 84
0.011405 0.034094 -0.031699 50 75 58
0.349378 -0.066599 -0.026220 83 85 74
-0.214769 -0.074138 0.221733 12 18 16
0.008504 0.051145 -0.030732 56 81 60
0.247675 -0.237155 -0.028143 112 112 106
-0.055893 -0.009838 -0.034091 89 97 86
-0.200432 -0.048839 0.190023 16 12 13
-0.230486 0.558855 -0.044169 127 128 115
-0.150039 0.120614 -0.037252 44 49 37
0.373762 0.056103 0.239684 146 152 152
0.183555 -0.045726 0.228931 135 144 137
0.332328 0.314605 0.243974 141 147 147
0.144556 -0.244213 -0.031557 111 112 103
-0.260020 -0.324376 -0.049120 137 138 129
-0.229309 0.072541 0.065828 109 111 102
0.117683 -0.221687 -0.030613 119 124 114
0.165136 0.075822 0.233487 137 145 144
0.187130 0.099087 0.023212 102 114 120
0.026743 -0.167344 -0.033456 12 2 0
-0.213664 -0.129006 0.192980 2 5 4
-0.291055 0.278273 -0.034216 0 2 0
-0.128923 0.339865 0.020829 34 38 31
-0.256695 -0.097324 -0.041363 111 112 103
0.067402 0.155759 -0.029269 76 84 81
0.082767 -0.042408 -0.025753 81 82 76
0.312353 -0.154983 -0.030677 110 111 102
0.167255 -0.032401 0.014899 147 158 154
0.275428 0.173328 0.238576 136 142 142
0.130866 0.192924 0.026086 101 111 116
-0.262450 0.234938 0.070104 4 12 9
0.036326 0.225161 -0.027259 70 79 72
0.139756 -0.137390 -0.029843 107 109 100
0.004577 -0.060147 -0.033783 100 108 95
-0.271723 -0.221035 -0.045329 41 38 33
-0.167394 -0.311616 -0.045636 116 120 113
-0.115107 -0.222298 -0.040981 116 118 109
0.181092 -0.258536 -0.032798 119 116 111
0.079559 -0.001698 -0.030437 46 46 46
0.320842 0.219681 0.242379 139 147 146
0.149000 0.161437 0.233658 133 139 139
-0.388475 0.022229 0.271027 68 69 63
-0.223569 -0.130342 0.188243 22 24 15
0.291336 0.028432 0.237561 137 145 144
0.026228 0.041665 -0.028638 50 79 59
-0.233757 0.278495 0.007323 6 9 8
-0.093370 -0.148252 -0.037931 115 120 110
-0.362704 0.015867 0.267110 39 35 38
0.051654 -0.255714 -0.033760 113 117 110
-0.118955 0.255651 0.216921 154 165 161
-0.321068 -0.293383 -0.049650 115 117 106
0.085714 0.279324 -0.020521 16 16 16
-0.294220 -0.096629 0.305335 81 85 78
0.211499 -0.234129 -0.030369 123 119 110
0.160666 0.213805 0.017655 70 76 87
-0.300454 0.253866 -0.034691 132 134 123
-0.151960 0.137401 -0.036435 5 6 2
0.199251 -0.252509 -0.032044 97 98 92
-0.294007 -0.062784 -0.035091 27 31 26
0.337926 0.107300 0.240672 142 148 146
-0.315367 -0.119812 0.286659 42 42 38
0.292934 0.100344 0.238891 139 145 145
-0.134520 -0.060682 -0.036029 100 108 97
-0.275849 -0.123089 -0.040281 58 56 46
0.228454 0.006418 0.233116 135 135 135
0.239093 -0.062045 -0.007056 110 113 112
-0.186789 0.217202 0.032174 4 4 4
0.015223 0.384714 0.055929 5 6 2
0.339178 0.200852 0.241810 144 152 149
0.205018 -0.011795 0.234429 141 147 145
-0.266888 -0.077497 0.130847 5 12 6
-0.321086 -0.117167 0.287297 39 46 40
-0.324268 -0.251379 -0.045872 117 122 112
-0.166659 -0.301743 -0.042110 108 109 98
0.055433 -0.150189 -0.034229 114 115 109
-0.209361 0.003506 -0.036833 93 95 86
0.150117 -0.211195 -0.030831 34 29 27
0.081560 -0.275802 -0.033345 121 126 116
-0.243487 -0.190195 -0.042728 121 126 114
0.275592 -0.075545 -0.025319 68 75 67
0.308943 0.083299 0.238468 143 149 147
-0.032298 -0.224087 -0.036457 72 66 68
0.340162 -0.044300 0.229628 126 129 128
-0.330271 -0.095210 0.337173 117 146 147
0.361241 -0.205151 -0.027681 100 107 99
0.305418 0.028125 0.237641 140 146 146
-0.056619 -0.286279 -0.036295 109 113 108
0.280412 -0.035456 0.236167 134 142 143
-0.002412 0.585513 -0.035239 129 131 122
0.016466 0.237052 -0.023410 13 17 12
0.374862 -0.097123 -0.029923 102 107 97
0.079607 0.314705 0.070692 53 55 61
-0.011885 -0.171631 -0.038056 115 123 112
0.272266 -0.169942 -0.032371 0 0 0
-0.017013 0.239341 -0.027202 10 14 7
-0.177197 0.253664 0.217671 167 175 172
0.244334 -0.200590 -0.030852 112 114 105
-0.306692 -0.114147 0.251409 9 5 8
0.233978 -0.055805 0.234047 135 141 143
-0.351064 -0.035117 0.297254 61 70 63
-0.241578 -0.110540 0.231487 0 6 6
-0.018437 0.614532 -0.030683 124 125 112
0.021985 -0.029039 -0.033297 36 40 35
0.249819 0.337577 0.240434 132 138 138
0.175810 -0.030510 0.228882 132 143 139
-0.065003 -0.076459 -0.036162 104 112 99
0.169938 -0.044046 0.190069 138 149 145
0.299834 -0.052165 -0.007114 102 105 104
-0.205050 -0.237610 -0.045614 119 124 112
-0.042390 0.068053 -0.024280 37 64 44
-0.061514 0.224433 -0.030289 60 64 57
-0.085068 0.194071 -0.031201 29 32 31
-0.051861 -0.177911 -0.036031 119 121 112
0.374107 -0.050761 -0.028007 75 76 67
-0.232343 -0.105119 0.175750 4 10 8
0.234778 0.262186 0.240340 131 139 138
-0.222307 -0.020927 0.193687 2 2 0
0.201987 0.265393 0.237347 128 136 133
0.006732 -0.008804 -0.016471 81 98 80
0.237369 -0.147436 -0.030559 111 113 104
0.043857 0.267474 -0.023907 60 67 59
0.008414 0.090390 -0.019050 56 90 66
0.283266 0.009811 0.236314 68 88 124
-0.085500 0.003818 -0.034387 79 91 81
-0.268565 -0.086979 0.284313 144 154 142
-0.119364 0.244447 0.025783 4 4 4
-0.013203 0.240243 -0.027279 69 73 68
-0.234688 0.537521 -0.042648 126 129 113
-0.022525 0.124414 0.023888 46 74 49
-0.064329 0.260414 0.216875 15 15 17
-0.076881 0.038335 0.003857 49 71 53
0.083952 -0.064359 -0.024877 89 94 84
0.346423 -0.024188 0.004727 107 111 106
0.223084 -0.053617 0.234154 132 143 141
-0.125016 0.093107 -0.036684 82 90 75
0.262756 0.077297 0.237511 138 149 145
0.114893 0.287527 0.030148 85 99 105
0.114117 0.303941 0.064286 64 71 77
0.285441 -0.221194 -0.029894 117 118 112
0.180936 -0.044415 0.228239 135 147 139
0.122181 0.265100 0.235088 133 139 139
-0.302511 -0.109487 0.297861 58 59 55
-0.128109 0.241071 0.011876 4 7 8
0.269463 -0.034743 0.236307 135 141 141
0.097025 -0.267894 -0.028664 104 112 101
0.091762 0.290810 0.146686 77 84 90
-0.351112 0.015562 0.264331 64 65 59
0.243796 -0.139348 -0.031773 112 116 111
0.204406 0.238339 0.237939 130 138 135
-0.280214 -0.287846 -0.048367 88 75 81
-0.047954 0.003657 -0.030271 64 74 60
0.138689 0.295960 0.032524 87 98 107
-0.249861 -0.097538 -0.042073 112 113 107
-0.153572 0.249991 0.218420 170 179 172
0.123873 -0.253578 -0.033316 8 3 1
-0.273931 -0.063477 0.285177 107 111 104
0.259675 0.196087 0.239337 131 139 138
0.300677 0.354941 0.242589 132 143 139
0.148921 -0.143905 -0.030365 114 118 111
0.129102 0.162840 0.233348 130 141 139
-0.315720 -0.129022 -0.045228 116 120 113
-0.120153 0.054793 -0.033813 81 91 77
-0.343878 0.049595 0.238394 23 13 13
0.207478 -0.001667 0.234081 136 139 142
0.350625 -0.022385 0.238734 140 148 147
0.316521 -0.020192 0.238615 139 147 146
-0.255990 0.611250 -0.045402 117 119 106
0.097924 0.242489 0.230212 133 139 137
-0.053073 -0.156767 -0.035067 118 119 113
-0.031870 0.573318 -0.039709 140 149 142
-0.001119 -0.123605 -0.033516 63 61 53
-0.150617 -0.140301 -0.037631 120 124 117
-0.204340 0.088296 -0.038897 97 98 92
0.144020 0.605877 -0.028200 132 138 136
-0.146974 0.594766 -0.040010 112 108 101
0.213700 0.637537 -0.023523 127 131 124
0.103358 0.248246 0.232279 133 141 138
0.268546 0.209140 0.240327 134 140 140
0.194627 -0.176968 -0.027804 112 116 109
0.066752 0.065753 -0.003486 85 122 97
0.139389 -0.189646 -0.030189 121 119 111
0.279559 -0.047208 0.113795 114 117 116
0.146770 0.258225 0.235186 126 137 135
0.069062 0.086772 0.011443 26 38 30
0.193350 0.183935 0.235269 130 141 137
0.394617 0.108227 0.242198 146 154 153
-0.210230 0.298519 0.025941 39 44 34
-0.174838 0.239657 -0.020040 6 9 8
0.003095 -0.014180 -0.001419 79 104 85
0.175462 -0.063135 0.072166 150 158 155
-0.225182 0.253590 0.013403 2 2 2
0.114028 -0.156959 -0.030431 119 119 113
-0.222580 -0.105426 0.214531 16 22 20
0.010026 -0.251894 -0.037247 119 124 112
-0.088532 -0.071742 -0.036612 97 110 97
0.352781 -0.035689 0.232704 139 139 139
-0.037478 0.274241 0.220834 20 26 26
0.212543 0.008734 0.234453 129 140 136
-0.113745 -0.277697 -0.041086 114 118 111
-0.074090 -0.166933 -0.036701 114 124 112
0.360569 -0.035350 0.193897 120 126 124
-0.320229 0.244525 -0.038158 16 6 6
0.142716 0.029462 -0.024018 61 68 62
0.034168 0.264457 -0.022708 60 65 55
-0.207140 -0.207864 -0.043838 119 127 116
-0.289396 -0.146973 -0.045039 120 125 115
-0.230779 -0.133067 -0.042548 117 119 108
-0.242096 0.176180 -0.035394 103 108 98
0.198687 0.648528 0.060631 137 139 128
0.362550 0.068206 0.240478 139 150 148
0.196690 0.281712 0.236764 130 138 137
-0.042505 0.238231 -0.026901 57 69 61
0.070597 0.296889 0.208900 41 51 54
-0.198922 -0.055270 0.187561 0 1 0
0.328446 0.068230 0.239430 145 151 151
0.128271 0.176363 -0.019590 71 75 68
0.144774 0.028227 -0.024715 65 68 67
-0.213309 -0.157756 -0.041814 118 120 111
-0.294141 -0.109767 -0.042226 116 117 108
-0.238335 0.584028 -0.042936 127 129 113
0.293157 0.259841 0.242319 135 143 142
0.102363 0.221630 -0.021090 88 90 81
0.030446 0.058916 -0.024997 59 88 66
0.289541 0.081765 0.239662 136 147 143
-0.270797 -0.172939 -0.044451 123 124 118
0.213854 -0.241125 -0.031144 122 122 118
0.285361 -0.063839 0.193590 119 125 123
0.034779 0.064723 -0.022613 150 167 149
0.287317 0.062187 0.237578 139 145 143
-0.229744 0.059516 -0.034905 94 107 94
-0.150863 0.107709 -0.037892 5 12 4
0.192183 -0.061942 0.026937 134 147 144
-0.230155 -0.002904 0.134166 105 105 99
0.272150 0.266667 0.243045 131 139 136
0.157269 -0.231451 -0.031026 116 118 109
-0.272375 -0.106520 0.271649 118 128 116
0.262070 0.089919 0.239143 135 143 142
-0.084903 -0.219341 -0.036819 112 112 106
-0.203024 0.225595 -0.022694 70 77 71
0.281490 -0.206599 -0.029728 114 118 111
-0.289492 -0.058022 0.301457 129 126 121
0.176290 0.047466 0.169129 124 131 139
-0.210032 -0.110830 0.190836 3 3 3
-0.102375 0.573291 -0.035823 119 120 109
0.194133 -0.149014 -0.029616 117 122 112
-0.311568 -0.275100 -0.048309 132 134 125
-0.253789 -0.214972 -0.043408 119 124 114
-0.206419 -0.048497 0.018556 96 104 93
0.209473 -0.216607 -0.027993 115 117 108
0.391983 -0.002415 0.027996 110 113 112
-0.260608 -0.113645 -0.043337 109 118 109
0.284572 -0.051562 -0.001866 112 112 112
-0.166316 0.040478 -0.036563 90 97 91
-0.247917 0.279516 0.029139 6 6 6
0.301373 -0.116743 -0.026409 94 88 92
0.152280 0.179191 0.234145 133 141 140
0.260895 -0.062278 0.234363 132 140 137
0.005524 0.320391 0.155172 4 4 0
-0.395440 -0.106369 0.258856 61 72 68
0.352918 -0.035839 0.195074 120 123 122
0.013888 -0.064588 -0.031710 91 100 91
-0.029184 -0.261506 -0.039385 117 115 105
0.325946 0.055367 0.237671 145 151 149
-0.203964 -0.102362 0.155730 0 5 3
0.371127 -0.167320 -0.028567 72 73 69
-0.137887 -0.089923 -0.038082 112 117 105
0.224056 -0.078834 -0.023596 107 111 106
-0.216040 -0.100977 0.154243 0 1 0
0.283048 -0.035030 0.236399 135 143 142
0.012015 0.072522 -0.027069 62 92 67
0.209652 -0.028139 0.234999 138 144 146
0.354778 -0.186093 -0.028159 106 110 105
-0.058506 -0.271454 -0.038010 115 119 112
0.299356 -0.175373 -0.028891 102 103 99
-0.380663 0.012383 0.270647 33 39 37
0.165910 0.207692 0.234611 133 141 138
-0.314875 -0.266278 -0.048801 125 126 120
-0.287912 -0.255497 -0.047124 141 142 133
0.293877 -0.043266 0.236341 136 139 142
0.060866 0.259250 -0.023973 66 70 65
0.309411 -0.178231 -0.029371 105 106 93
0.257368 -0.037024 0.235919 136 142 142
0.126542 -0.057015 -0.027458 94 95 91
-0.275850 0.151075 -0.036486 119 120 109
-0.150958 0.603059 -0.036784 129 130 121
-0.063671 -0.090938 -0.035397 112 116 109
-0.313271 0.109601 -0.037001 59 60 56
-0.192605 -0.087487 0.165760 4 4 4
0.220472 0.338834 0.238632 133 136 137
0.094014 0.007942 -0.028222 63 67 60
0.090492 -0.035514 -0.025347 7 13 11
-0.366639 -0.075910 0.336618 111 139 143
-0.116067 -0.158629 -0.040253 122 123 114
0.137254 -0.174442 -0.028252 123 124 118
-0.288996 -0.084106 0.300878 78 87 80
0.244187 0.024622 0.235256 153 157 150
-0.186468 0.000111 0.177304 12 12 6
0.102902 0.078062 -0.025336 27 27 27
-0.228151 -0.197284 -0.042727 125 126 117
0.138737 0.084866 -0.024190 51 58 52
-0.105479 -0.259960 -0.038902 105 107 98
0.209155 -0.009219 0.234142 138 141 142
-0.033848 -0.161382 -0.035695 116 120 113
0.346694 -0.037693 0.192904 124 124 124
-0.130723 -0.165704 -0.037017 99 106 98
0.247180 0.064019 0.236985 138 144 144
0.220674 0.080449 0.237090 135 143 142
0.081422 0.149379 -0.028294 58 59 55
0.189779 -0.168941 -0.031604 26 18 15
-0.261239 -0.325921 -0.049983 131 128 125
-0.001569 0.278894 0.012702 2 5 4
0.016580 0.626801 -0.030770 125 126 113
-0.313225 -0.050477 -0.041615 0 1 0
-0.117425 -0.250993 -0.040724 110 112 101
-0.229940 -0.136209 -0.043165 120 118 108
-0.178604 -0.299102 -0.044039 127 128 117
-0.005043 0.109328 -0.005248 48 75 53
0.328172 -0.051235 -0.020420 62 68 66
-0.182884 0.196024 -0.035022 73 74 70
-0.261210 -0.320323 -0.048278 135 136 132
0.159159 -0.072513 -0.026769 4 8 1
-0.102667 -0.192317 -0.035669 1 2 0
0.047954 -0.205556 -0.033148 111 112 101
-0.294582 -0.105617 0.296571 62 72 60
-0.315587 -0.215043 -0.043294 126 131 121
-0.268860 0.252354 0.035460 10 11 7
-0.295782 0.237299 -0.034245 133 135 124
0.252569 -0.177023 -0.030846 114 115 109
0.188661 0.041617 0.233744 134 140 138
-0.105782 -0.283951 -0.040026 103 115 105
-0.177468 -0.071134 -0.040349 72 74 65
0.282692 -0.227667 -0.030363 123 123 119
-0.164848 0.026901 -0.037299 92 96 89
-0.128721 -0.092051 -0.037292 110 114 107
0.228325 0.068460 0.236942 135 141 139
0.001888 0.058110 -0.031110 25 50 31
-0.191872 0.558054 -0.042995 127 128 115
-0.227743 -0.088219 0.245112 24 24 24
0.329976 0.330486 0.242851 136 142 142
-0.176169 0.050756 -0.036509 93 98 88
0.138224 -0.124166 -0.029878 105 113 102
-0.303131 -0.188042 -0.048251 123 125 116
0.010823 -0.024900 -0.034962 87 95 84
0.129945 0.227372 0.234842 132 138 138
0.081129 0.313722 0.083894 79 87 86
0.067410 0.184843 -0.029302 87 91 86
0.310300 0.186048 0.239888 140 146 144
0.217673 0.096415 0.235730 137 140 141
-0.305362 -0.165288 -0.046094 54 43 38
-0.319264 0.517268 -0.043760 122 124 115
0.018386 0.113800 0.010384 65 98 81
-0.042619 0.003178 -0.026827 81 101 82
0.141287 0.267576 0.023484 91 100 110
-0.286933 0.605696 -0.044712 82 87 77
0.092475 -0.268669 -0.028800 108 109 103
0.133838 0.173310 0.002186 114 122 123
0.376528 0.095962 0.241672 147 155 154
0.074566 -0.189799 -0.032119 106 113 105
0.104955 -0.074719 -0.029877 96 97 91
-0.302653 -0.086714 0.318365 80 84 77
0.092080 -0.219537 -0.033357 120 121 112
0.382335 -0.021958 0.194471 128 129 125
0.375796 -0.166616 -0.027898 103 107 102
0.073478 0.050694 0.001526 40 51 47
0.096463 -0.076749 -0.028701 89 99 87
-0.046035 0.247288 -0.027260 57 69 59
-0.193079 0.335755 0.037314 41 45 38
-0.202634 0.523925 -0.045477 160 172 164
0.322544 0.179497 0.239625 143 149 149
0.310339 -0.044151 0.235804 137 145 146
0.099967 -0.185223 -0.031910 76 76 72
-0.150967 0.639061 -0.034085 125 126 115
0.156187 0.081264 0.232835 134 142 139
-0.293583 -0.073318 0.307509 74 76 67
-0.320416 -0.220549 -0.044362 133 129 122
0.104901 -0.207894 -0.033167 122 129 121
0.181068 0.645475 0.085904 136 138 127
0.154950 0.031644 -0.023399 82 82 82
0.054337 0.615576 -0.029132 121 123 110
-0.077306 0.083496 0.013410 61 90 68
-0.011622 -0.247000 -0.035023 119 121 112
0.097980 0.245059 -0.022563 77 81 74
0.244271 0.295408 0.239164 129 135 133
0.064186 -0.163453 -0.034521 22 19 16
0.282681 0.246639 0.240390 132 140 137
0.299262 0.242693 0.242436 138 144 144
0.058371 -0.188929 -0.034744 110 114 107
0.119663 0.614596 -0.024398 115 120 110
0.165007 -0.186698 -0.029746 97 99 90
0.185912 -0.203696 -0.028436 114 116 107
0.066727 0.287023 -0.020170 48 54 52
0.173873 0.013616 0.231268 135 143 142
-0.208589 -0.075192 0.188168 19 25 23
0.157344 -0.259977 -0.030967 110 117 111
0.162256 0.246673 0.023465 66 76 90
0.270992 0.116993 0.238534 138 144 144
0.031094 0.286075 0.223858 15 15 17
-0.217551 -0.006013 -0.036990 92 100 87
-0.308276 0.176589 -0.037006 127 128 117
-0.195832 -0.275908 -0.039879 117 119 110
0.176971 -0.237072 -0.031073 111 119 106
0.170734 0.254615 0.236255 131 139 136
-0.240973 -0.092369 -0.041490 87 91 84
0.187968 0.106300 0.235039 133 139 139
-0.168765 0.058157 -0.035818 103 104 91
-0.051007 -0.043014 -0.034358 81 89 86
0.298414 -0.092118 -0.025208 61 58 53
-0.086759 -0.176942 -0.039128 122 127 117
0.089578 0.298370 0.087591 73 83 88
0.311643 -0.093651 -0.029253 99 100 91
-0.345109 -0.090837 0.346539 119 143 145
0.268975 0.302425 0.242750 133 139 139
-0.225295 0.021420 -0.039075 92 97 85
0.009350 0.373972 0.051928 3 3 3
-0.116619 -0.024868 -0.036346 89 97 84
0.013905 -0.288482 -0.037418 105 109 102
-0.318970 -0.184605 -0.047145 126 126 120
0.197175 -0.075836 0.229501 135 141 139
-0.206202 0.232126 -0.016159 11 12 8
-0.121331 -0.101373 -0.037377 112 122 110
-0.115037 0.198080 -0.033178 69 73 68
0.258038 0.118482 0.237395 134 142 141
-0.259987 0.155552 -0.038028 108 110 101
0.325216 -0.038317 -0.007440 102 110 107
-0.016733 -0.290838 -0.037803 23 14 17
-0.062073 0.064186 -0.012929 44 76 53
0.344218 0.200782 0.240899 141 149 150
0.127081 0.303193 0.056956 71 83 89
0.261249 -0.038012 0.236501 135 143 142
-0.042813 0.374499 0.016528 28 34 32
0.002438 0.239916 -0.025208 32 34 25
0.307821 -0.235598 -0.028280 87 91 84
0.023223 -0.079785 -0.029648 81 91 79
0.132095 -0.130730 -0.028670 109 109 105
-0.231700 0.257263 0.016051 1 1 1
0.199111 -0.077933 -0.019303 107 114 106
-0.367401 0.004814 0.264651 65 66 62
-0.032496 0.260980 -0.001850 67 75 72
0.236082 0.020114 0.234469 73 81 109
-0.122547 0.249365 0.215699 29 29 29
0.199323 0.646926 -0.014784 117 119 108
-0.072225 0.292861 0.011535 1 1 1
0.268672 -0.063999 0.193255 116 116 116
-0.228115 0.324266 0.060481 4 5 1
-0.202754 -0.159341 -0.041296 124 125 119
0.181994 -0.080940 -0.025531 107 109 100
-0.189186 -0.212965 -0.042730 114 122 111
-0.351220 -0.118811 0.268967 34 36 27
0.047317 -0.239993 -0.032675 119 120 114
-0.189436 0.535625 -0.044684 131 135 130
0.121347 -0.098704 -0.027886 100 105 95
-0.227791 -0.063226 0.251670 11 7 8
0.207617 -0.068895 -0.015117 113 117 112
0.222483 0.316152 0.239383 129 135 135
-0.288232 -0.059444 0.299510 79 72 64
0.257275 -0.065006 0.193866 113 116 115
0.007761 0.023298 -0.031437 30 59 41
-0.010958 0.273888 0.218851 11 11 13
-0.271754 -0.100849 0.277119 214 219 207
0.040397 0.290102 0.224373 13 16 17
0.302570 0.013404 0.237134 140 146 146
0.126981 0.153355 0.232622 135 141 141
0.151292 -0.077180 -0.027933 105 110 98
0.074435 -0.252290 -0.030178 73 77 72
-0.144330 0.071728 -0.036010 85 90 78
-0.236604 -0.142516 -0.043818 113 118 104
0.117953 0.312619 0.078312 56 61 79
-0.245199 -0.082369 0.265057 30 31 27
-0.066772 0.328367 0.012509 36 37 33
-0.184057 0.037835 -0.038574 93 98 88
-0.007541 -0.267015 -0.037655 122 123 117
-0.162757 -0.260384 -0.042150 120 125 113
-0.079482 -0.302573 -0.042506 116 116 110
-0.307129 0.641818 -0.043329 123 128 114
0.184392 0.108087 0.024252 98 112 116
0.182268 0.130407 0.235097 133 141 142
-0.181892 -0.125249 0.154596 1 1 3
0.080914 -0.254375 -0.028783 104 114 100
0.333323 -0.045770 0.180099 114 125 123
0.194272 0.160841 0.019407 104 110 121
-0.260071 -0.094978 0.271210 170 165 161
0.235041 -0.169525 -0.028318 14 15 6
0.310489 -0.043990 0.194337 115 118 117
-0.342312 -0.011920 0.240019 122 129 123
0.232399 0.077860 0.237042 135 141 141
0.098037 -0.136518 -0.030683 41 38 33
-0.114300 0.591130 -0.040696 53 46 40
-0.302722 -0.260739 -0.049739 81 74 66
-0.324978 -0.075868 0.333385 111 140 141
0.217460 -0.191509 -0.029708 114 110 103
-0.329922 -0.070147 -0.043428 114 119 107
0.197828 -0.165735 -0.032120 114 118 111
0.029313 0.387991 0.064610 3 3 3
0.093880 0.247535 0.216428 122 135 134
-0.008150 0.638897 -0.029947 122 113 104
-0.166700 -0.168418 -0.039309 126 130 123
-0.038406 -0.004737 -0.003188 75 102 84
-0.217101 0.580729 -0.043691 73 78 68
-0.082412 0.355476 0.062137 27 32 22
0.315060 -0.113938 -0.027450 104 104 98
0.155794 0.063439 0.233448 132 143 143
-0.018051 -0.246608 -0.035074 113 114 105
-0.272974 -0.067047 0.284033 128 129 125
-0.180369 0.341520 0.051405 12 12 8
-0.342908 -0.322661 -0.049958 126 126 120
0.178043 0.050861 0.234080 135 143 142
0.337186 0.305456 0.243419 141 144 145
0.004943 0.124221 0.019985 64 93 73
-0.359462 0.040942 0.258230 112 142 145
-0.054542 -0.288698 -0.037369 77 74 71
0.216748 -0.162908 -0.029436 117 118 112
0.161629 0.179833 0.233622 132 140 137
0.211398 -0.178416 -0.029231 113 118 108
-0.265916 -0.082052 0.286782 136 141 131
0.303666 0.194897 0.241426 137 148 146
-0.227579 -0.072354 0.251712 33 23 23
-0.049903 0.323355 0.011091 20 20 20
0.186655 0.221172 0.236384 129 135 133
0.165543 0.160522 0.234824 133 141 140
0.217818 0.644663 -0.023264 122 123 117
-0.350747 0.043156 0.246839 42 55 50
0.045696 0.101298 0.009614 85 117 96
0.095853 -0.244834 -0.034076 119 117 109
-0.332086 -0.189372 0.002664 137 139 126
-0.272598 -0.105462 0.272242 127 136 127
0.017513 0.231795 -0.025785 60 64 59
-0.001782 -0.023855 -0.034344 88 93 81
-0.328489 0.040239 0.252600 47 33 27
0.179542 0.103360 0.233985 135 141 143
-0.188707 -0.105893 0.176640 9 12 11
-0.185768 -0.008796 0.175176 0 1 0
-0.008923 -0.291043 -0.037077 42 24 32
-0.341215 -0.034416 0.288451 59 64 50
0.243328 0.010406 0.234454 118 125 117
0.279363 -0.060330 0.231684 130 133 136
0.102070 0.275654 0.022951 87 99 105
-0.297348 -0.336684 -0.049335 79 74 70
-0.191165 -0.134570 0.139649 21 20 22
-0.075460 -0.218044 -0.034969 104 105 101
0.328889 0.141477 0.240078 145 151 149
-0.148198 0.589435 -0.041276 36 27 22
0.334072 -0.039877 0.195724 114 117 116
-0.242186 0.211015 -0.021312 97 104 98
-0.211640 -0.099124 0.194249 3 6 5
0.176289 -0.202082 -0.029513 117 118 107
0.072682 0.246371 -0.025777 70 79 70
0.384428 -0.061244 -0.027891 81 85 78
-0.201658 -0.060977 0.196979 11 11 11
-0.269255 -0.191780 -0.042406 127 124 119
-0.290742 -0.306423 -0.047578 126 127 121
0.393882 -0.009103 0.238907 144 152 151
-0.225951 -0.106758 0.215799 10 22 14
0.323233 0.332817 0.243315 134 142 139
-0.302523 -0.230135 -0.044621 129 125 118
-0.319794 -0.051846 -0.041506 106 114 101
-0.159441 -0.311835 -0.044633 117 124 116
0.142312 -0.089627 -0.027436 103 110 104
0.148207 0.082851 -0.024483 55 63 60
-0.032593 0.260150 -0.024096 64 68 63
0.117523 0.245681 0.234245 144 152 149
-0.180999 -0.036885 -0.038337 75 76 67
0.288366 -0.191709 -0.027990 120 120 116
-0.135151 -0.107687 -0.037156 108 115 107
0.001467 0.222665 -0.027998 64 75 71
-0.294249 -0.301040 -0.047704 122 123 119
-0.204671 -0.090845 0.192854 21 24 23
-0.250745 -0.095490 0.254850 14 20 18
0.142977 0.079626 -0.024272 56 65 58
0.163394 -0.042798 0.226897 135 146 142
0.198990 -0.113349 -0.027978 110 114 109
-0.232326 -0.165491 -0.039511 22 17 13
0.275259 0.122993 0.239021 138 144 144
-0.100886 -0.265405 -0.037953 103 105 96
0.227716 -0.079654 -0.024351 103 112 105
-0.071796 0.015547 -0.032431 83 91 76
-0.047419 0.311335 0.148507 5 6 2
-0.059286 0.276617 0.221934 150 154 149
0.264388 0.000481 0.234570 126 138 130
-0.067420 -0.211172 -0.037728 32 29 26
-0.303249 0.278373 -0.034703 119 121 110
0.210067 -0.183557 -0.028671 115 113 105
0.055289 -0.064102 -0.030967 76 77 71
0.068818 0.119524 -0.018345 51 58 52
-0.324822 0.107787 -0.041715 117 121 114
-0.200256 -0.315856 -0.045926 121 128 120
-0.203510 0.050544 -0.035127 100 108 93
0.170184 0.110030 0.234309 130 141 139
0.150404 -0.212553 -0.031593 63 70 64
0.383735 -0.095220 -0.030885 99 99 93
0.309947 0.027867 0.236911 141 147 149
-0.163033 -0.321100 -0.045232 1 7 9
-0.215301 -0.077055 0.237869 59 59 59
0.288623 0.049064 0.237670 141 144 145
0.165866 0.228715 0.236078 131 139 136
0.323763 -0.098179 -0.029529 97 98 92
0.192431 -0.073252 0.120333 131 143 133
0.127229 0.223002 0.234405 132 143 139
-0.226979 0.315048 0.073653 5 5 5
-0.239450 0.231117 0.003993 10 11 7
-0.045863 -0.292839 -0.038852 99 108 101
0.077117 0.313062 0.146299 70 73 76
-0.312042 -0.111674 0.307550 58 59 55
0.240843 -0.051474 0.009183 115 119 114
0.079491 0.047013 -0.025486 40 48 45
0.388112 -0.197559 -0.026358 103 104 98
-0.320405 -0.332098 -0.048713 66 61 59
0.171793 -0.058930 0.175416 137 148 144
-0.129534 -0.102870 -0.037623 112 120 109
0.272968 0.071032 0.237413 137 145 142
-0.022850 0.645676 -0.030696 128 133 119
0.233280 -0.116756 -0.029400 102 106 101
0.221003 0.214040 0.237746 131 137 135
0.392844 0.125475 0.242126 148 151 154
-0.221402 -0.133951 0.193952 122 127 117
-0.046305 0.173411 -0.032275 78 85 79
-0.208081 0.334004 0.043821 21 25 18
0.168813 -0.141681 -0.031174 117 125 112
-0.249632 -0.187462 -0.044620 118 120 111
0.286985 -0.026928 0.236919 134 142 141
0.250825 0.242753 0.240870 132 138 138
0.141819 0.121619 -0.021364 68 77 70
-0.313359 -0.171727 -0.046818 121 126 114
-0.105069 0.044358 -0.035401 82 86 79
-0.393568 -0.109936 0.207270 12 20 19
-0.211418 0.238245 -0.013003 4 7 6
-0.352887 -0.120400 0.323395 85 111 113
-0.160243 -0.167446 -0.038493 131 133 124
-0.216000 0.238110 0.212488 168 179 175
-0.015133 0.172516 -0.034573 82 86 79
0.072473 0.328898 0.080672 31 42 42
-0.318692 -0.155704 -0.046134 122 123 114
0.209217 -0.243498 -0.030743 113 117 112
0.105232 0.212444 0.231121 133 141 140
-0.197989 0.014475 -0.038164 91 96 86
0.156440 -0.239312 -0.030272 113 114 105
-0.304991 -0.233416 -0.046168 105 103 95
0.346930 0.150505 0.240795 143 149 147
0.062312 -0.120840 -0.031551 1 1 0
-0.307731 -0.341454 -0.048830 125 125 121
-0.334576 -0.067059 -0.043979 113 118 108
0.111615 0.270713 0.026176 87 97 104
0.301301 0.041772 0.237850 136 147 145
-0.338451 -0.108277 0.335314 103 132 131
-0.175860 -0.119755 0.158807 7 16 9
0.146332 0.219095 0.234747 130 138 137
-0.075193 0.065013 0.003331 48 80 57
-0.248962 -0.092588 0.255613 21 27 27
-0.179985 0.588965 -0.045473 129 127 115
0.198550 0.302064 0.238710 133 139 139
-0.103597 0.582629 -0.042049 117 119 106
0.360568 -0.232193 -0.029655 101 103 94
0.320254 -0.095436 -0.029415 98 103 93
-0.111835 -0.308594 -0.039782 101 106 96
0.334391 0.074526 0.239505 143 146 147
0.109593 0.215227 0.202290 130 138 137
-0.184822 0.147497 -0.035279 8 9 5
-0.382038 -0.004096 0.263132 62 62 62
0.208563 -0.250888 -0.032018 121 123 114
0.069689 0.310533 0.018223 11 11 11
0.310365 0.249237 0.242638 138 144 144
-0.393939 -0.105253 0.192699 49 57 54
-0.095230 0.270339 0.162617 3 4 0
-0.321059 -0.037554 0.039019 15 19 14
0.089539 -0.180617 -0.032168 124 126 117
0.251948 -0.025745 0.235376 97 105 133
-0.021105 0.341543 0.012617 34 35 31
0.002149 -0.094897 -0.033767 101 109 96
-0.344370 -0.214546 -0.046669 124 134 122
0.095719 0.291654 0.234563 134 140 140
-0.333531 -0.076833 0.342324 118 144 146
0.318224 -0.127179 -0.025709 86 87 81
0.179672 -0.261877 -0.031801 118 118 112
-0.106825 0.268160 0.220751 148 159 155
-0.013355 0.029424 -0.028237 28 47 35
0.322481 -0.031686 0.236743 138 146 145
0.263642 -0.092579 -0.028246 6 5 5
