ply
format ascii 1.0
element vertex 1232
property float x
property float y
property float z
property uchar red
property uchar green
property uchar blue
end_header
-0.042542 0.206694 0.137171 6 12 10
0.126415 0.237349 0.286993 147 154 158
0.016169 -0.096393 0.028289 86 98 88
-0.086911 0.151425 0.038180 74 89 84
-0.029420 -0.053228 0.027164 94 109 95
0.134247 -0.022583 0.239166 154 170 178
0.081263 0.185585 0.270912 145 159 165
-0.308606 0.247826 0.011410 126 136 124
-0.152950 0.196368 0.294188 172 185 184
-0.026580 0.048674 0.041664 33 65 44
0.185648 0.227708 0.285164 149 156 160
0.139235 -0.052094 0.224523 154 168 170
0.033470 0.041970 0.089438 97 136 114
0.163832 -0.051628 0.268690 155 165 168
0.212337 0.121532 0.284707 153 163 168
-0.174203 -0.046437 0.017706 102 112 100
0.352412 -0.139403 0.041226 105 105 109
0.234631 -0.094446 0.108303 121 127 127
-0.454384 -0.030312 0.331747 76 84 81
-0.056772 -0.191528 0.020241 121 133 125
0.146117 -0.077513 0.215461 151 161 164
0.036534 0.037575 0.090456 99 138 114
0.318379 0.058153 0.281467 174 173 180
-0.068930 0.190636 0.096025 67 79 71
0.330414 -0.063106 0.082139 108 114 114
-0.372634 -0.109618 0.349582 135 171 177
0.059736 -0.122195 0.029784 109 121 113
0.118915 0.113915 0.278073 143 157 163
-0.256345 0.161688 0.246987 21 29 30
0.153794 -0.091065 0.232657 158 171 170
0.383578 -0.102357 0.043646 53 52 52
-0.203250 -0.141865 0.175566 23 34 30
-0.202846 0.119334 0.027614 97 110 97
-0.264167 -0.105388 0.303898 159 174 169
0.201773 0.003544 0.285068 114 120 120
0.270991 0.301284 0.286958 162 162 166
-0.089999 0.195610 0.142956 9 15 15
-0.542479 -0.022639 0.007158 93 95 86
0.131862 0.051816 0.132777 109 126 138
0.320883 -0.056390 0.264134 155 157 163
0.262982 0.230191 0.283825 163 165 171
0.105003 0.151892 0.158475 82 99 113
-0.183740 -0.016647 0.015671 29 40 40
-0.257258 0.160646 0.253582 25 30 35
-0.258217 0.158164 0.170313 25 33 32
-0.092461 -0.191393 0.019703 126 138 130
0.285936 -0.066560 0.268423 153 158 165
0.095074 0.045548 0.041346 29 36 42
0.146953 -0.058888 0.249997 157 170 169
0.333238 0.107872 0.282736 169 174 179
-0.013888 0.217526 0.158882 8 14 12
-0.198282 -0.165061 0.017652 125 137 129
-0.054312 -0.106481 0.025065 45 56 52
-0.276724 -0.179139 0.011506 128 135 127
-0.181352 -0.151476 0.019241 125 137 127
-0.059032 0.263116 0.263392 149 152 153
0.135688 -0.017904 0.198532 148 164 172
-0.366245 0.104180 0.013204 116 128 120
0.168122 -0.045119 0.271770 147 161 165
-0.224867 -0.140170 0.016531 120 136 127
0.260339 0.024456 0.284711 163 170 174
-0.131190 -0.066882 0.022206 99 115 104
-0.444632 -0.103083 0.208942 102 126 126
0.138927 0.161286 0.283190 146 156 159
-0.093376 0.196115 0.172294 35 44 37
-0.052859 -0.117129 0.024321 59 74 71
0.040367 0.018051 0.090765 99 138 116
-0.253856 0.157877 0.096848 36 44 43
0.177602 -0.137422 0.039698 131 138 130
-0.491794 -0.025608 0.349249 75 78 77
0.041554 -0.052925 0.032163 76 90 81
-0.416341 -0.036771 0.319273 73 80 72
-0.012314 0.048872 0.045707 59 95 77
0.180663 0.048760 0.285704 150 160 165
0.084645 0.001247 0.037318 69 85 76
-0.000153 0.226226 0.217908 7 13 13
0.010674 -0.068770 0.028801 75 89 80
0.238659 0.241763 0.284218 158 164 166
-0.327519 -0.073147 0.363960 122 157 160
0.032685 -0.082279 0.030325 78 92 83
-0.275931 -0.123424 0.295425 85 100 99
-0.092745 -0.104183 0.023310 107 121 110
-0.190718 -0.036027 0.173685 19 27 24
0.131751 0.089277 0.169715 74 76 82
0.038711 -0.128691 0.027394 110 122 112
0.157075 -0.138771 0.038151 125 132 124
-0.442557 -0.032022 0.326844 74 77 76
-0.178527 0.172428 0.153652 15 22 16
0.184512 0.093169 0.285485 148 158 161
0.182802 -0.171380 0.036184 135 140 130
-0.530788 0.028865 0.397725 166 157 152
-0.200062 -0.018673 0.015661 76 90 81
-0.237321 0.158153 0.126766 12 18 16
-0.259463 0.104949 0.021542 117 126 117
0.232133 -0.073591 0.272767 154 164 167
0.325101 0.067270 0.281143 171 173 179
0.284569 0.342356 0.288148 170 167 162
-0.290944 -0.077719 0.014308 116 128 118
-0.226176 -0.070346 0.266385 13 19 19
-0.220908 -0.154431 0.017049 126 135 128
-0.249631 -0.127608 0.016171 120 129 120
-0.367146 -0.000560 0.319282 86 95 88
0.290561 -0.007251 0.279038 165 170 177
-0.248322 -0.060768 0.025062 63 71 70
0.164091 -0.059189 0.264541 144 156 158
0.081795 0.038071 0.039801 54 67 62
0.244158 0.092332 0.285139 163 168 173
-0.143599 -0.087128 0.021343 113 128 112
0.184816 -0.021839 0.280122 149 156 160
-0.223179 -0.122262 0.199906 73 87 78
0.261430 0.038070 0.284825 163 170 174
0.285845 -0.026161 0.277483 165 170 177
-0.191947 -0.010413 0.199814 26 34 33
-0.207980 0.096285 0.026713 100 114 103
0.254052 0.024034 0.285321 162 169 173
0.170650 -0.139015 0.039063 129 136 128
-0.321646 0.290816 0.008259 89 89 83
-0.230387 -0.112120 0.260929 18 26 23
-0.119315 0.158180 0.037388 69 79 67
0.110759 0.091529 0.048780 78 91 86
0.268713 -0.130162 0.045584 122 127 117
-0.421643 -0.107724 0.184185 81 96 93
0.379131 -0.150995 0.038616 130 131 122
0.093808 0.141527 0.115622 105 121 131
-0.478725 -0.035939 0.330595 62 70 71
0.306437 -0.151843 0.041448 129 131 122
-0.328678 -0.074972 0.011429 118 130 120
0.197373 0.125025 0.284738 151 161 166
0.249123 0.207396 0.284151 162 167 172
-0.347863 -0.103529 0.363216 130 169 174
0.136278 0.047434 0.278706 147 159 163
-0.447726 0.001512 0.355418 173 173 169
0.260729 -0.002480 0.281944 163 168 173
0.129646 0.072952 0.150818 109 124 137
0.189317 -0.081398 0.268858 150 162 166
-0.174318 -0.038568 0.017191 99 108 99
-0.478487 -0.026382 0.343033 83 84 78
-0.311406 -0.040422 0.025691 105 117 109
-0.106170 0.207391 0.296044 160 171 169
-0.299788 -0.112035 0.331394 79 92 87
0.141811 -0.021932 0.264035 159 173 179
-0.252585 0.161768 0.287322 182 190 189
-0.011462 -0.164740 0.023490 121 133 123
0.201936 -0.166536 0.037533 130 130 126
0.133513 0.083326 0.173292 76 87 96
0.137316 -0.054853 0.153380 152 166 168
-0.176183 -0.151556 0.019550 38 53 48
-0.287885 0.170407 0.017487 59 59 59
0.070863 0.133357 0.049507 91 102 98
0.170819 -0.063986 0.268115 149 161 165
0.000982 0.065676 0.077373 71 110 86
0.367648 -0.157789 0.037754 134 132 124
0.287227 0.220347 0.283902 166 168 174
0.311842 -0.082899 0.050567 80 87 79
0.219865 0.102867 0.285222 159 166 170
0.139355 -0.062007 0.136858 153 166 165
0.228812 0.219761 0.283428 158 163 168
0.095728 0.193568 0.280979 154 161 167
-0.477729 -0.022609 0.346933 100 101 95
0.020228 0.235235 0.243500 14 22 21
-0.199375 -0.114527 0.020858 116 130 119
0.197489 0.106444 0.284923 150 160 165
0.142742 0.239313 0.287424 149 154 159
0.153110 -0.125014 0.039656 124 133 124
0.208235 0.019385 0.286716 148 153 158
-0.039155 -0.029870 0.026070 76 96 79
-0.445906 -0.040134 0.316581 42 38 39
0.146701 0.066202 0.282421 146 158 164
-0.198934 0.113136 0.027214 95 108 95
0.308618 -0.148455 0.041881 122 127 115
0.338237 0.148151 0.284130 172 174 182
0.117981 0.213414 0.283956 144 154 157
0.274389 0.128276 0.284265 166 168 174
-0.319224 -0.165801 0.006688 140 147 139
0.164168 0.138864 0.283119 146 156 161
0.277233 -0.079438 0.129421 120 128 127
-0.086660 0.196874 0.147350 11 17 15
0.109583 0.116249 0.130466 71 86 103
0.243218 0.249938 0.284443 160 165 170
-0.049972 0.214756 0.269335 20 28 27
0.024175 0.235836 0.260304 15 23 24
-0.206110 -0.130787 0.184436 86 94 95
0.117092 0.103536 0.145277 105 116 116
-0.339673 -0.092847 0.366778 126 170 175
-0.335128 0.333420 0.004106 140 141 130
-0.344238 0.090878 0.014562 161 174 157
-0.184922 0.065685 0.025409 100 115 99
0.368867 -0.114894 0.043049 124 122 114
-0.216990 0.168963 0.213497 13 19 17
-0.105672 0.192867 0.173674 35 42 36
-0.547021 0.025022 0.015922 88 92 85
0.191060 -0.049495 0.274508 151 163 167
0.180148 -0.110487 0.083364 120 128 127
0.269107 -0.143585 0.043150 60 59 61
-0.216748 0.163381 0.150979 11 14 13
0.295046 0.135093 0.283028 169 171 177
-0.266833 0.176245 0.290467 182 188 186
0.072063 0.213260 0.273562 144 156 160
-0.332175 0.137378 0.016402 137 149 139
0.155239 -0.094273 0.240422 161 172 170
0.143211 -0.012058 0.273425 172 186 192
-0.249448 0.161317 0.270691 38 45 51
-0.391099 -0.104785 0.270171 122 127 132
-0.341790 -0.018691 0.321175 51 58 52
0.211804 -0.099983 0.151816 124 132 133
0.123305 0.257904 0.289380 145 153 154
0.174239 0.213966 0.284421 147 154 158
0.140109 0.197731 0.284040 148 155 159
-0.239531 -0.126379 0.243829 25 36 34
0.267825 0.077230 0.283973 162 169 175
0.312276 -0.091812 0.049838 67 70 69
0.058871 0.235132 0.234172 90 99 109
-0.277629 0.166073 0.021246 123 136 123
-0.417339 0.006257 0.345924 167 174 168
0.230751 -0.111378 0.048142 101 103 90
0.078349 0.199957 0.155126 95 112 124
-0.017362 0.222732 0.061706 39 50 50
-0.000076 -0.034965 0.029670 70 82 74
0.070365 -0.117213 0.031221 38 47 40
0.151619 -0.090969 0.220816 161 173 175
-0.301104 0.160372 0.015296 139 147 134
0.063598 0.229836 0.282600 148 155 159
-0.255880 0.161818 0.252040 23 28 33
-0.345715 -0.076409 0.369900 134 169 172
-0.145921 0.112792 0.028672 80 94 85
0.152208 0.252794 0.288717 148 154 156
0.234017 -0.109981 0.049417 80 77 72
0.318440 -0.141511 0.042260 76 75 75
-0.294430 -0.170249 0.010543 137 141 134
0.393174 -0.083267 0.046984 115 115 109
0.282379 -0.148632 0.042417 119 124 114
-0.417346 -0.090706 0.250855 92 99 91
0.180903 0.030120 0.285297 150 160 165
0.292410 0.248821 0.284353 166 168 174
-0.044296 0.195973 0.049915 69 83 74
-0.215258 -0.108458 0.217170 15 23 20
-0.022009 -0.171480 0.022656 122 136 125
-0.158219 -0.019857 0.019090 70 85 80
-0.371207 0.122280 0.069540 71 72 66
0.217439 0.038256 0.286589 104 112 127
0.109645 0.115955 0.137764 86 101 116
0.328008 0.113124 0.283043 172 174 180
0.154377 -0.049061 0.263247 145 162 163
-0.527993 -0.020681 0.363003 79 74 70
0.123610 0.019031 0.042476 69 82 79
0.201129 0.073542 0.285689 152 162 167
-0.091746 0.050836 0.023207 65 85 70
-0.359807 -0.013854 0.315147 91 98 92
0.140786 -0.003357 0.275635 167 177 182
-0.091145 -0.015636 0.023920 54 68 57
0.030510 0.203556 0.057071 71 84 79
-0.341459 -0.082972 0.369153 131 167 173
-0.308147 0.123503 0.018257 134 144 130
-0.006623 0.217739 0.143709 8 14 12
0.121833 -0.005369 0.039470 35 43 40
0.128711 -0.029983 0.037986 52 63 59
0.339899 -0.153090 0.039717 129 130 121
0.072957 0.196555 0.125676 96 112 122
-0.133968 0.188307 0.199578 34 42 39
-0.000012 0.223524 0.295642 92 106 110
-0.123817 -0.022956 0.022364 35 51 42
-0.280441 0.000305 0.250123 96 97 91
-0.338550 0.010855 0.289429 119 154 157
0.071940 0.265399 0.289273 148 156 157
-0.240678 -0.179789 0.014198 131 145 134
0.352688 -0.062626 0.051275 93 94 88
-0.396816 -0.013707 0.001032 126 136 124
0.113092 0.231825 0.286020 144 154 157
0.094459 0.217521 0.283393 144 154 157
-0.440043 -0.037221 0.319732 53 59 57
0.258467 0.022683 0.284811 163 170 174
-0.217176 0.172982 0.036971 84 93 84
0.124719 0.087335 0.149450 104 122 131
0.011074 0.228477 0.287827 35 39 51
0.285830 -0.148636 0.042444 117 124 116
0.202359 -0.163120 0.037719 131 133 124
0.205325 0.080709 0.285692 152 162 165
0.150420 -0.069300 0.248331 160 171 169
0.356532 -0.092043 0.045433 119 119 113
-0.223818 -0.111182 0.021597 116 130 121
-0.062158 -0.014278 0.025720 40 59 47
0.135603 0.007863 0.273392 161 171 178
-0.213305 0.171322 0.253180 17 25 24
0.073684 -0.048135 0.034895 83 97 88
0.374683 -0.049392 0.159800 136 139 140
-0.528605 0.072491 0.027728 133 134 123
0.097164 0.175405 0.172556 97 112 125
0.367660 -0.102379 0.043600 102 101 101
0.115333 0.239311 0.286870 146 153 157
0.210369 -0.008913 0.283838 85 97 129
-0.084043 0.203751 0.291437 156 169 168
0.005962 -0.005117 0.037491 52 89 68
-0.013610 -0.173383 0.023353 125 137 129
-0.241885 0.167358 0.290100 180 191 189
-0.288645 -0.117542 0.318471 72 81 74
-0.065359 0.211471 0.053667 57 69 61
-0.281774 -0.112946 0.015213 123 135 127
0.164780 -0.114302 0.105178 121 129 130
-0.491537 -0.005448 0.372870 165 165 167
0.305250 -0.067385 0.193354 124 130 130
0.074070 0.196538 0.256914 143 155 161
0.078007 -0.037074 0.035939 83 92 83
-0.302960 -0.102014 0.340094 85 103 99
0.359022 -0.086781 0.046196 112 112 108
-0.125134 0.106110 0.029492 73 85 75
0.050522 0.242509 0.288916 147 164 169
-0.263461 0.159959 0.254382 26 31 38
0.030845 -0.084029 0.030009 80 94 83
-0.313033 -0.098242 0.355563 124 163 168
-0.062087 0.160326 0.042204 45 48 49
0.060941 0.212591 0.117992 95 109 115
0.206959 0.020956 0.286889 137 144 152
0.089897 0.169386 0.137849 102 119 131
-0.336558 0.095220 0.030929 156 164 151
0.161856 -0.142279 0.038100 102 103 99
-0.345408 -0.110168 0.359976 119 158 163
0.243303 -0.076391 0.272228 157 164 168
-0.402734 -0.038471 0.299693 65 68 67
0.293507 -0.143477 0.042870 58 61 64
0.229270 0.121516 0.285044 158 168 173
0.058137 0.002847 0.033238 63 79 70
0.167275 0.138873 0.283165 147 157 162
-0.314068 0.333640 0.007632 82 82 82
-0.229349 0.166635 0.224732 14 20 18
0.109101 0.261903 0.289282 147 155 156
0.006390 -0.048295 0.029582 78 92 81
0.095422 0.184876 0.200098 89 104 117
0.269729 -0.180561 0.038628 91 90 90
-0.230694 -0.129386 0.193630 60 68 65
-0.397069 -0.105529 0.246494 58 66 55
0.241411 -0.044268 0.277556 153 163 170
-0.539148 0.011276 0.390120 168 158 156
0.138866 -0.032511 0.039633 106 124 118
-0.399453 -0.035655 0.303193 75 81 79
0.170628 0.068791 0.284294 150 160 165
-0.280838 0.197616 0.246103 154 154 154
-0.048835 -0.102573 0.024286 107 123 114
0.130221 -0.054311 0.085707 138 156 154
-0.035449 0.038006 0.033995 31 65 43
0.135154 -0.022799 0.246237 154 170 178
-0.191792 -0.146146 0.019040 126 135 126
-0.522409 -0.007959 0.376279 130 126 117
0.045747 -0.018505 0.032557 69 88 78
-0.537671 0.036035 0.402509 162 153 146
0.282634 -0.018487 0.278369 164 169 176
-0.054489 0.204539 0.149220 9 15 13
0.020547 -0.026623 0.075454 72 111 89
0.198298 0.298843 0.287996 151 157 159
-0.197570 -0.198803 0.015071 131 138 130
0.207637 0.187575 0.283262 150 157 161
-0.377822 0.123017 0.053158 108 114 112
0.022935 -0.039164 0.030846 72 91 79
0.139810 -0.143439 0.035884 55 58 59
0.034071 0.014206 0.073874 86 125 103
-0.128612 0.188392 0.188195 41 45 38
-0.140085 -0.041902 0.021269 95 110 96
0.138843 -0.042396 0.225029 153 170 173
0.270990 -0.170544 0.039797 134 132 124
-0.464309 -0.036133 0.322933 39 39 41
0.088071 0.216086 0.282575 150 160 163
-0.074839 0.201821 0.047281 54 68 59
0.107491 0.149484 0.277971 145 157 161
0.273889 0.054216 0.284159 167 172 177
-0.183536 -0.124934 0.019610 121 133 125
-0.188937 0.082111 0.025860 98 111 98
0.213780 0.095158 0.285750 154 164 167
-0.065690 0.200251 0.130437 5 11 9
-0.056131 0.205559 0.168679 26 35 28
-0.086941 -0.071679 0.025573 97 111 102
0.109379 0.021362 0.041542 72 85 80
0.330355 -0.195005 0.034794 128 130 121
0.150753 0.037494 0.198232 112 127 140
-0.234494 -0.161051 0.015563 128 137 128
-0.331856 -0.130986 0.008881 134 141 133
0.138945 0.081245 0.183463 87 100 109
-0.354868 -0.010356 0.314612 85 94 85
-0.190875 -0.022806 0.016335 89 108 96
-0.152269 0.178321 0.129630 6 12 10
0.314260 -0.105553 0.047416 59 62 63
-0.353100 -0.011258 0.296691 74 88 79
-0.236600 0.163235 0.212765 14 22 21
0.241396 0.144784 0.284248 161 166 171
-0.306119 -0.147630 0.011172 122 129 121
-0.009429 -0.196849 0.021097 133 145 135
-0.534398 -0.011871 0.372805 105 106 97
0.147942 -0.024190 0.271627 174 185 194
0.074128 -0.112066 0.032123 105 114 107
0.049017 -0.047433 0.032781 76 92 83
0.261286 -0.007379 0.281835 162 169 175
-0.316861 0.314789 0.009369 137 139 126
0.188759 0.280663 0.288877 148 154 156
0.136163 -0.073116 0.087599 143 158 157
-0.341849 -0.104420 0.362302 123 162 167
0.369103 -0.135706 0.040790 127 125 117
-0.098938 -0.166027 0.021583 122 136 127
-0.487887 -0.019018 0.355945 87 90 89
0.139725 -0.108390 0.038117 117 127 115
0.121642 0.143544 0.281101 144 156 160
-0.223766 -0.103447 0.261792 21 29 26
-0.040129 0.217656 0.055119 31 46 43
0.172832 -0.071441 0.267281 148 162 166
-0.368093 -0.110817 0.352243 137 171 177
-0.513187 0.089088 0.032059 137 141 134
0.045330 -0.184196 0.025344 62 71 64
-0.043461 -0.099033 0.024699 39 59 56
-0.508720 0.012921 0.386019 161 152 155
0.124372 0.062105 0.058057 98 113 112
-0.073864 -0.194875 0.020004 125 137 129
-0.321563 0.345029 0.002393 135 139 132
-0.117309 0.177039 0.039313 70 79 70
-0.299900 -0.094656 0.339463 89 102 97
-0.374945 0.119645 0.077789 73 80 74
0.020455 0.063003 0.090702 92 131 109
-0.121689 0.026461 0.022647 83 98 84
-0.034250 0.126014 0.037761 80 95 92
-0.095009 0.195588 0.170058 35 44 37
0.164844 0.018871 0.284003 145 157 161
0.160954 0.150022 0.283335 147 157 160
0.136470 -0.052799 0.168954 151 165 167
-0.383163 0.128646 0.046815 115 126 124
-0.206064 0.091135 0.024413 87 104 90
-0.299496 -0.112349 0.013164 124 133 124
0.251773 -0.066156 0.273855 158 163 168
0.221573 0.308323 0.287657 159 159 163
0.024375 -0.137288 0.026209 115 127 119
-0.208962 -0.127514 0.188500 65 71 71
0.014405 0.234554 0.299460 151 162 162
-0.073388 -0.172953 0.021577 132 141 132
-0.066105 -0.089972 0.024934 108 122 113
-0.039327 0.159340 0.044258 28 41 40
0.329735 -0.149829 0.040584 129 131 120
-0.056729 -0.129581 0.023856 115 129 118
-0.317533 -0.002429 0.199354 44 55 51
0.337241 -0.060400 0.204762 145 145 147
0.172569 -0.113140 0.101754 123 131 130
-0.090563 -0.077084 0.024989 111 125 114
0.062013 -0.088353 0.032126 96 110 99
-0.315673 -0.090102 0.358803 129 168 173
0.354125 -0.198207 0.033904 125 125 119
-0.026039 0.219366 0.218126 39 45 43
0.066400 0.199720 0.060171 74 87 82
-0.277926 -0.123811 0.299831 102 113 111
-0.109522 -0.031632 0.024886 90 105 89
0.049142 -0.045557 0.032856 72 91 81
-0.386262 0.128262 0.039800 119 130 128
0.139844 0.093535 0.191738 99 115 125
0.001549 -0.038716 0.029458 20 36 25
0.234229 -0.042948 0.278010 105 117 135
-0.055122 -0.012829 0.050542 35 67 48
-0.111107 0.197612 0.262032 14 20 22
0.140901 -0.169024 0.033659 132 139 131
0.012743 0.234240 0.299780 151 161 164
-0.358051 -0.117371 0.354782 132 168 174
0.021127 0.235055 0.268473 19 27 28
-0.135734 0.188529 0.287449 73 82 92
-0.293719 0.100816 0.016659 121 131 119
0.098242 -0.133701 0.032608 117 125 114
0.112685 -0.047067 0.037494 102 111 104
-0.107036 0.194805 0.205231 36 47 43
0.235932 -0.092447 0.244508 138 146 145
0.216242 0.091574 0.285750 157 164 170
0.233045 0.013899 0.284991 143 154 163
-0.145202 -0.150054 0.020592 34 46 38
-0.274664 0.098605 0.017097 119 130 126
0.241966 0.165954 0.284122 164 166 172
-0.255668 -0.110140 0.294880 166 182 171
-0.172743 -0.021066 0.017065 87 103 94
-0.243361 -0.089543 0.281605 28 41 40
-0.212916 -0.123489 0.199088 10 18 15
0.151036 0.016503 0.193505 106 121 134
0.048438 0.235063 0.135968 70 83 94
-0.123426 0.189644 0.186554 36 43 37
-0.425964 -0.108495 0.211025 90 119 118
0.133410 0.016371 0.083156 128 142 148
0.245916 -0.086341 0.160566 121 129 128
-0.104555 0.200428 0.292641 160 171 171
0.152176 -0.094410 0.217507 158 173 172
0.350052 -0.120404 0.043288 115 111 112
-0.536865 0.003566 0.385954 182 178 169
-0.380549 0.122484 0.026983 123 131 128
-0.395988 -0.101210 0.279135 79 92 91
-0.439619 0.004262 0.353645 253 254 248
-0.166948 0.196970 0.293187 174 185 183
-0.249771 -0.124074 0.016364 119 128 119
0.091289 -0.178249 0.029143 125 126 120
-0.163786 -0.187513 0.017783 138 147 138
0.088891 0.168028 0.133461 104 121 133
0.236761 0.288862 0.287964 160 163 164
0.092316 0.150499 0.054039 60 68 69
-0.107076 0.192240 0.165660 27 34 28
-0.040791 0.224936 0.306920 154 162 163
0.364352 -0.054818 0.117052 122 122 124
-0.077768 0.204518 0.225558 35 44 37
0.328235 -0.122495 0.044134 128 121 115
0.093915 0.233604 0.285936 144 154 157
-0.109785 0.153868 0.037382 71 86 72
-0.258494 -0.164091 0.013771 128 137 130
-0.111014 -0.007703 0.023469 89 104 90
-0.336042 0.235025 0.008782 149 150 144
-0.241126 -0.077873 0.282505 20 31 31
-0.112893 -0.013584 0.023438 88 103 89
-0.186056 0.168160 0.128408 6 12 10
0.163899 0.223086 0.285377 146 154 155
0.294078 -0.104639 0.050035 108 112 105
0.143890 0.065067 0.188557 115 126 137
-0.268762 0.165082 0.220667 116 119 120
0.151023 -0.007700 0.045368 57 67 70
0.149492 0.182577 0.283461 146 156 159
0.177705 0.284616 0.288979 150 156 158
-0.200258 -0.113349 0.192948 15 19 14
0.259199 0.017862 0.284391 164 169 174
-0.489743 -0.017563 0.358491 59 53 59
-0.159128 0.191103 0.293351 174 185 183
0.099258 -0.018255 0.037343 81 92 88
0.266371 0.176544 0.283478 165 167 173
0.079121 0.217900 0.280243 145 155 158
-0.102674 0.080246 0.026648 70 86 75
0.116033 0.249961 0.288827 147 154 158
0.145691 0.000336 0.153393 138 153 166
0.136434 -0.016037 0.191065 148 164 174
-0.206139 0.163242 0.112756 12 18 18
0.015912 0.225898 0.153922 12 18 16
0.161247 0.213598 0.284600 145 152 156
-0.058761 0.076728 0.086265 63 92 72
-0.451072 0.019526 0.365791 153 143 141
-0.122249 -0.057672 0.022892 78 84 86
-0.055936 0.182749 0.045677 79 93 82
-0.090554 -0.177936 0.020774 118 134 123
-0.125191 0.070760 0.024369 81 97 86
0.173982 0.072065 0.284757 148 158 163
0.132845 -0.056926 0.038764 105 116 112
0.137461 -0.040883 0.141101 148 162 166
-0.138888 0.185286 0.189449 39 46 38
0.242631 0.245960 0.284232 158 163 168
0.119885 -0.117018 0.036738 125 137 129
0.129630 0.110022 0.180530 85 100 115
-0.421236 -0.031894 -0.002898 126 138 130
0.078201 0.192748 0.134556 83 98 111
0.017593 0.228034 0.191413 15 21 19
0.289193 0.287782 0.285623 165 165 169
0.020981 -0.071163 0.030371 79 93 82
0.210470 0.119636 0.284730 154 164 169
-0.127072 0.053542 0.021349 20 29 22
0.003995 0.218353 0.118191 8 14 12
-0.231494 -0.024568 0.221020 23 34 30
-0.081258 0.145342 0.037414 79 93 84
-0.076508 -0.082579 0.024870 104 118 109
-0.202978 0.125592 0.028006 93 105 95
0.172240 0.050843 0.285002 147 159 163
0.332571 0.029784 0.279800 171 173 181
0.312858 0.037726 0.280581 170 175 182
0.137053 -0.028980 0.221464 153 169 177
0.041300 0.186896 0.055132 57 65 64
0.253213 0.294698 0.286682 162 162 166
0.153312 0.002400 0.280420 146 158 162
0.106175 -0.183408 0.029185 62 63 57
0.340614 -0.101188 0.045340 115 117 108
-0.059209 -0.155779 0.022530 122 136 125
0.282887 -0.188574 0.036446 128 130 121
-0.361065 -0.094297 0.363827 133 170 173
-0.258079 -0.088417 0.308316 125 149 137
-0.437877 -0.082368 0.241977 69 78 69
-0.316889 0.216203 0.009259 77 77 79
-0.006067 -0.159595 0.023847 123 135 127
0.090171 0.166776 0.135401 103 120 132
-0.268065 -0.124527 0.284041 83 97 88
-0.171393 0.173883 0.166872 39 46 40
-0.329238 -0.098293 0.361164 127 166 171
0.303087 -0.055074 0.271176 166 168 174
0.103481 0.118133 0.050363 62 73 71
0.015842 0.045459 0.065779 82 119 96
0.204875 0.104669 0.284983 151 161 164
0.213731 -0.166701 0.038189 132 134 125
0.132080 0.089893 0.175230 70 67 64
0.043346 -0.052917 0.032160 76 90 81
-0.295804 -0.127612 0.308892 54 66 58
0.019687 -0.033423 0.030862 69 90 77
0.101057 0.104309 0.264951 151 164 173
0.382022 -0.048049 0.135723 128 131 132
-0.513069 -0.014784 0.368256 116 111 107
-0.027636 0.171131 0.046936 81 95 86
-0.176114 0.184442 0.291661 175 186 184
0.252762 -0.082457 0.188936 120 126 126
0.103595 0.108288 0.072142 128 142 144
-0.395954 -0.002450 0.337655 94 90 95
-0.412938 -0.039487 0.315885 40 46 46
-0.384873 0.065787 0.268296 141 166 171
0.284005 -0.077502 0.061091 93 96 99
-0.037617 -0.176565 0.022238 60 68 69
-0.109197 -0.007733 0.023562 88 103 89
0.354132 -0.054849 0.055559 85 88 87
0.153619 0.217314 0.284820 145 155 158
-0.001312 0.074001 0.084640 78 117 93
0.298272 -0.146869 0.042447 119 126 118
-0.122365 -0.076374 0.022663 102 116 107
-0.500847 -0.005356 0.374922 182 183 177
-0.265578 0.163692 0.025530 110 122 112
-0.477286 -0.001268 0.368932 72 75 78
-0.439925 -0.098929 0.222102 104 130 130
0.068178 0.048903 0.038188 42 60 56
0.153181 -0.050065 0.261987 147 161 163
0.054703 0.236194 0.192679 106 118 124
-0.411043 -0.028262 0.323343 86 95 88
-0.370503 0.115626 0.070228 55 58 59
0.087323 -0.098025 0.033806 104 113 106
-0.149894 0.153032 0.034367 61 75 64
-0.413899 -0.111277 0.206219 82 108 108
-0.200941 -0.124757 0.018924 123 135 127
0.175715 -0.113977 0.044634 96 102 100
0.160146 -0.080027 0.258373 147 161 163
-0.019503 -0.070255 0.027434 106 120 111
0.091037 0.142734 0.258274 150 161 170
-0.011688 -0.133268 0.024459 115 127 117
0.155752 -0.192530 0.031655 133 138 128
-0.168051 0.176029 0.157740 25 33 30
-0.473650 -0.031383 0.336020 49 57 54
-0.361875 -0.082962 0.366114 136 168 175
-0.159354 0.178439 0.157424 21 27 25
0.145080 0.100017 0.282714 145 157 161
-0.171570 0.195546 0.294802 173 184 180
-0.528802 0.051115 0.016673 116 120 113
-0.007439 0.149886 0.045937 53 66 61
-0.258691 0.169666 0.291668 182 190 189
0.267136 -0.061355 0.273888 163 165 171
0.190088 0.108214 0.284875 150 160 165
-0.276117 -0.089025 0.014902 38 46 43
-0.119892 0.018569 0.022310 27 36 27
0.106186 0.248083 0.288412 146 153 157
0.241424 0.227865 0.283720 162 164 170
-0.168510 0.180169 0.275372 34 41 47
0.194845 -0.135917 0.040686 79 82 81
-0.318379 -0.134696 0.315762 58 69 65
0.152920 -0.083036 0.243554 163 171 172
-0.189865 0.021940 0.018327 63 71 68
-0.239487 0.163323 0.218145 12 20 19
-0.310278 0.314585 0.013219 133 135 122
0.132853 0.030711 0.277800 147 159 165
-0.339281 -0.080211 0.369239 127 163 169
0.368594 -0.084710 0.045606 110 110 104
0.062960 0.203209 0.102621 102 116 122
0.135364 0.007457 0.041862 33 40 44
-0.012004 0.041436 0.040006 56 93 72
0.210298 -0.109441 0.047564 74 77 76
0.093643 0.174210 0.155913 94 114 125
0.072411 0.255910 0.290542 152 160 161
-0.172372 -0.048533 0.018221 103 115 105
0.223691 0.264930 0.285993 156 161 166
0.207357 0.101044 0.284995 152 162 165
0.092924 0.178908 0.161314 95 112 124
-0.439953 -0.025425 0.334085 121 125 120
0.141391 -0.028794 0.150108 149 166 171
0.087662 0.195661 0.185044 85 100 113
0.158734 -0.033735 0.274563 147 159 165
0.151245 -0.103191 0.087494 151 164 161
-0.316115 -0.110709 0.352702 124 165 169
0.108397 0.123325 0.275077 143 157 163
-0.365212 -0.109192 0.354686 134 170 176
-0.103778 0.229259 0.286941 150 159 152
-0.255892 -0.055782 0.271402 39 45 47
-0.371064 -0.128023 0.341860 109 140 140
0.241092 0.207365 0.284030 158 163 168
-0.115906 0.060549 0.024144 80 97 83
0.381317 -0.113225 0.043564 115 116 110
0.216360 -0.098405 0.220249 128 134 134
-0.117320 0.174920 0.039125 69 81 71
-0.194065 0.163249 0.096091 8 16 13
0.269359 0.220167 0.283758 167 167 171
-0.271174 0.106615 0.018178 114 123 114
-0.133022 -0.087440 0.022359 110 124 113
0.136649 0.104108 0.281916 146 158 162
0.002029 0.230095 0.273906 23 28 33
-0.325847 -0.096573 0.360515 126 165 170
0.033695 0.138816 0.046914 86 100 91
-0.276434 0.094745 0.016299 81 94 89
-0.301288 -0.120710 0.325690 64 76 68
-0.246342 -0.122807 0.261501 12 20 17
0.037343 0.228695 0.110375 15 23 24
0.215124 -0.019313 0.281959 158 164 162
-0.065858 -0.145440 0.023322 121 137 126
-0.145309 -0.107079 0.020586 112 127 124
0.142623 -0.073741 0.166047 155 169 173
-0.517311 0.019088 0.221349 119 125 123
-0.143374 -0.196151 0.018264 87 87 87
0.147051 0.012520 0.165769 118 133 146
0.024516 0.237186 0.248786 14 22 21
0.108762 0.147410 0.278221 145 157 161
-0.013291 0.072728 0.079145 65 102 79
-0.039210 0.034267 0.033277 31 65 43
0.029663 -0.045077 0.031388 70 86 75
0.231939 0.277022 0.286817 158 161 164
-0.232725 -0.036497 0.218022 59 71 61
-0.037670 -0.035975 0.026912 80 97 83
0.077199 0.178357 0.055115 78 86 83
-0.375447 -0.082523 0.356795 136 166 171
-0.511631 0.023257 0.393054 167 158 153
-0.312844 -0.075285 0.354631 86 116 119
-0.271879 -0.103568 0.014408 114 120 118
0.196950 0.039913 0.286340 151 161 166
-0.536548 -0.003368 0.380532 129 125 116
0.308951 -0.172018 0.038873 131 133 124
0.027795 0.228515 0.171124 13 19 19
-0.049524 0.074816 0.082355 55 89 67
-0.156248 -0.043356 0.019882 90 102 92
-0.404234 -0.018830 0.328517 120 125 130
-0.088449 -0.154014 0.022410 120 134 123
-0.151305 0.183265 0.286430 38 50 66
-0.035025 0.077118 0.082041 53 90 67
0.301317 -0.071282 0.157452 115 121 121
0.276945 -0.080220 0.073760 103 109 109
0.350813 -0.069112 0.048558 90 88 76
-0.166899 -0.056280 0.018637 42 46 41
-0.033159 0.218912 0.279193 27 37 44
-0.033010 0.220552 0.250230 14 22 19
-0.543038 -0.031875 0.000911 81 86 76
-0.007152 0.161650 0.048346 72 87 84
0.023503 0.005146 0.045808 59 96 75
-0.243347 0.157887 0.065384 90 103 98
0.311427 0.196172 0.284460 170 172 178
-0.232997 0.177730 0.291674 182 190 189
0.279759 -0.043476 0.276517 163 168 173
0.132016 0.301389 0.281662 144 152 149
0.177275 -0.026158 0.278959 149 161 165
-0.141829 -0.088903 0.021134 114 129 115
0.246852 -0.070604 0.273254 158 163 168
0.166430 -0.114047 0.094048 114 122 121
-0.075441 -0.189797 0.020157 124 136 128
-0.267745 0.068157 0.014852 108 121 108
-0.236734 -0.126384 0.243870 24 32 31
0.008703 -0.140526 0.025030 114 123 116
-0.394882 -0.004394 0.335736 255 248 247
-0.053090 0.039850 0.047144 45 82 61
-0.354589 -0.124798 0.350228 107 143 149
-0.493523 0.030610 0.385114 153 139 133
0.397986 -0.048363 0.048818 94 95 89
-0.244134 0.163004 0.221257 15 23 22
0.039378 -0.004964 0.086759 90 129 107
0.251613 0.098266 0.284553 163 168 173
0.217092 -0.104862 0.050171 63 67 60
0.229876 -0.083380 0.270355 150 160 165
-0.218580 0.170347 0.243971 14 20 20
-0.387748 -0.096708 0.336624 141 167 169
0.065336 0.135479 0.049489 90 101 97
-0.227933 -0.114488 0.255686 14 22 19
0.108950 0.117762 0.051125 92 106 110
-0.314971 -0.120569 0.347299 114 151 154
0.120707 0.069404 0.274249 147 159 165
-0.512811 0.074316 0.032577 132 133 127
0.043860 0.246339 0.265449 68 80 82
-0.366704 -0.028471 -0.001076 36 44 45
-0.363849 0.136693 -0.002954 32 43 41
0.077506 0.193278 0.059883 73 87 91
0.361168 -0.055035 0.148053 133 133 133
-0.238684 -0.188209 0.013509 60 71 67
0.061415 -0.024671 0.033590 43 56 53
0.020223 0.226687 0.173417 14 20 18
-0.273584 -0.172451 0.012435 132 144 136
-0.424713 -0.072506 0.258330 79 86 80
0.131248 0.082161 0.161946 106 122 130
0.148818 -0.013184 0.044491 97 111 102
-0.252563 0.157120 0.134582 10 18 19
-0.425851 0.007418 0.348888 172 173 169
0.158153 -0.099981 0.246753 160 171 169
0.022714 0.027996 0.060761 78 118 99
0.096643 0.157657 0.274545 144 156 162
-0.089638 -0.124139 0.023468 116 128 118
-0.276445 -0.121873 0.302050 144 153 144
0.247572 0.094200 0.285115 162 169 173
-0.008026 0.218533 0.169370 8 14 12
-0.061129 -0.102536 0.024084 97 116 106
0.222136 -0.047451 0.277266 132 144 158
0.256817 0.232171 0.283780 161 166 171
-0.329346 0.056968 0.073921 121 129 116
-0.275234 -0.124243 0.290402 85 99 90
-0.532902 0.010178 0.389628 205 196 199
-0.281382 -0.112923 0.317668 74 88 79
-0.038164 0.121897 0.037346 27 38 34
-0.422014 -0.078707 0.254980 92 96 89
0.338470 0.072659 0.281298 172 174 182
-0.396132 -0.004543 0.335963 142 134 133
0.174045 0.024762 0.285624 143 159 167
-0.500070 -0.015908 0.365447 124 125 119
0.201451 0.130812 0.284555 153 160 164
0.020126 -0.151210 0.025362 115 129 120
-0.178353 -0.123072 0.019419 36 44 41
-0.304262 0.282113 0.014081 138 143 129
0.130574 -0.132850 0.035943 124 131 125
-0.109314 -0.017569 0.023666 88 103 87
0.062187 0.184508 0.055735 89 96 88
-0.183223 -0.142718 0.019460 122 136 125
0.073361 0.237579 0.285655 146 156 159
-0.021378 0.193201 0.051139 75 88 87
-0.131007 0.189871 0.285896 37 48 71
0.095087 -0.087416 0.035079 110 119 110
0.207616 -0.019617 0.282414 143 153 156
-0.172853 -0.142856 0.019996 113 129 118
-0.050264 0.225752 0.308060 150 158 155
0.029398 -0.078558 0.030272 80 94 85
0.233501 -0.139956 0.042616 129 130 121
0.364961 -0.053483 0.161107 136 139 140
0.141994 -0.087699 0.078429 147 160 157
0.074851 0.137341 0.050174 90 102 94
0.218132 0.260735 0.285872 159 161 167
-0.018016 -0.157789 0.023607 97 111 102
0.279849 -0.123387 0.046778 119 123 118
-0.219063 0.167771 0.034487 99 107 104
-0.322936 -0.129825 0.011117 133 140 132
-0.370679 0.012100 0.322012 90 97 91
-0.008058 -0.046290 0.073113 74 96 78
0.121285 0.066802 0.111586 107 120 129
-0.462891 -0.008035 0.355731 161 158 153
0.093908 -0.080166 0.035479 107 119 109
0.250044 0.007905 0.284033 160 167 171
0.284061 -0.193483 0.035610 131 132 123
-0.254866 -0.129077 0.015038 123 132 123
0.092448 0.189091 0.199920 85 102 114
0.307566 0.224659 0.284023 166 168 174
-0.334716 -0.113394 0.010430 131 132 128
0.001265 0.228848 0.233029 7 10 11
0.150916 -0.034704 0.266788 157 169 175
-0.391110 -0.006427 0.328765 104 103 103
0.049503 0.199158 0.057214 26 37 33
0.113769 -0.171837 0.031093 122 129 121
-0.087215 0.203408 0.267714 16 21 30
0.149368 0.014685 0.175952 118 130 144
0.219933 -0.028254 0.280513 162 161 168
-0.243558 0.174954 0.292526 180 188 185
0.138334 -0.038556 0.191151 154 168 172
0.012620 -0.065143 0.029173 71 80 73
0.158901 0.048212 0.283432 147 159 163
0.356438 -0.053727 0.197435 142 145 146
-0.206146 0.168633 0.197247 17 20 21
0.110019 0.255589 0.289366 146 153 157
-0.280584 -0.136002 0.014145 66 69 72
0.035096 0.249437 0.296939 127 133 131
-0.498414 0.022347 0.388028 166 162 153
0.127611 -0.073623 0.038299 48 59 55
0.032967 -0.137444 0.026790 123 131 128
-0.045973 0.207189 0.154713 9 15 13
-0.343851 -0.106425 0.011400 139 141 128
0.399281 -0.159190 0.036531 134 134 128
-0.292369 -0.126636 0.306552 57 66 59
0.223244 0.088000 0.285832 159 166 172
-0.090665 0.155707 0.038319 70 89 79
-0.273410 -0.107298 0.014644 92 100 97
-0.311505 -0.115592 0.348440 124 157 161
-0.281693 -0.182474 0.011045 133 140 132
-0.084912 -0.061998 0.024758 98 109 105
-0.140350 0.161036 0.035935 74 84 70
0.178106 0.099202 0.284495 148 158 163
-0.342971 0.189598 0.007091 171 169 159
-0.067023 -0.193195 0.020090 125 137 129
0.100308 0.072237 0.045610 68 81 76
-0.095703 0.192146 0.113081 6 14 11
-0.317372 -0.122956 0.346504 107 144 147
0.191917 -0.056641 0.272900 152 164 166
-0.326929 -0.153641 0.007188 141 146 136
-0.110629 0.189246 0.120397 5 11 9
0.387509 -0.098934 0.044370 117 117 113
0.112573 -0.084414 0.037241 107 119 109
0.082902 0.026546 0.038572 62 73 69
0.014708 -0.188679 0.022602 44 57 52
-0.047395 0.008626 0.032323 30 64 42
-0.104925 0.040470 0.023298 77 97 82
0.194734 0.005182 0.284998 104 115 115
-0.433779 0.000625 0.349681 179 178 178
-0.290470 -0.123293 0.312101 60 72 62
0.112952 -0.139443 0.034135 121 128 122
-0.371249 0.165205 0.013516 151 158 150
-0.129015 0.046269 0.023694 76 90 79
0.056474 -0.170674 0.026426 127 136 127
-0.254533 0.156796 0.131824 10 18 19
-0.405504 -0.098437 0.254878 83 90 82
0.336447 0.063734 0.281326 175 174 183
-0.506446 0.017824 0.387792 252 242 240
-0.353515 -0.012899 0.293904 78 87 80
-0.192991 -0.145739 0.168329 27 38 36
0.152107 -0.106608 0.076733 155 166 164
0.079363 0.228927 0.283975 145 155 158
0.067701 0.212006 0.140905 92 108 118
-0.094526 -0.001766 0.023604 64 79 65
0.056949 0.114228 0.045047 87 98 98
-0.172093 0.082616 0.025098 98 111 98
0.306927 0.131557 0.282939 169 171 177
0.092248 0.258666 0.290203 151 157 159
-0.401910 -0.106678 0.237994 57 66 59
-0.338045 -0.081323 0.368709 128 164 170
-0.464230 -0.034811 0.312099 66 70 65
-0.375104 0.111175 0.020149 121 132 128
-0.389002 0.000680 0.330023 97 97 97
0.019009 -0.170229 0.024620 121 130 123
0.390940 -0.076026 0.047442 113 113 107
-0.040163 0.213836 0.053974 29 37 36
0.136126 0.205272 0.284471 147 154 158
-0.260564 0.132271 0.022833 46 54 51
-0.071170 0.192956 0.102446 11 14 15
-0.408544 -0.003690 0.339485 217 218 214
-0.227924 -0.139160 0.185940 21 27 27
0.260978 -0.083287 0.143896 120 128 125
0.253759 -0.087274 0.126971 121 129 128
-0.106195 0.198878 0.260546 16 22 24
-0.320180 -0.094413 0.359012 127 166 171
-0.263463 -0.097817 0.013678 93 102 93
0.264348 0.053583 0.285000 165 170 175
0.067523 0.217350 0.266081 147 161 167
-0.127067 0.057411 0.021898 32 38 40
-0.162928 -0.097501 0.019110 101 121 116
0.285560 0.127276 0.283272 169 171 177
0.317045 -0.126099 0.044167 54 54 54
0.018399 0.050828 0.075259 88 127 103
0.200397 -0.066054 0.272942 152 162 165
-0.155548 0.139232 0.031575 71 86 70
0.182696 -0.014310 0.281267 144 156 162
-0.191881 0.174714 0.227983 40 47 41
-0.181111 0.058198 0.023835 82 90 87
-0.162836 -0.106853 0.019753 116 130 119
-0.001907 0.226571 0.299024 150 161 161
-0.271026 0.102603 0.017669 114 123 114
0.167532 0.140746 0.283189 147 157 160
0.249377 -0.088012 0.138154 124 130 130
0.105283 0.128048 0.131141 68 85 101
0.282344 0.101735 0.282722 167 169 175
0.110526 0.161126 0.205137 106 121 136
0.060480 -0.084760 0.032403 97 109 99
-0.183853 0.174559 0.284578 45 51 64
0.294855 0.141079 0.282595 170 172 178
0.301763 -0.069734 0.233176 146 146 150
0.197114 -0.164738 0.037267 74 77 76
-0.410144 -0.039626 0.286887 124 132 129
0.041069 -0.144639 0.027192 94 106 98
0.130281 0.097379 0.172422 70 73 76
-0.155355 -0.177436 0.018707 125 139 128
0.371237 -0.133918 0.040768 128 124 117
0.109438 0.160376 0.281308 149 161 165
-0.317355 -0.121872 0.347134 110 147 150
0.164524 -0.065587 0.264694 149 162 161
0.062776 0.227612 0.253568 99 111 125
0.221645 0.130949 0.284746 157 164 170
0.156573 -0.107037 0.221472 159 172 169
0.009825 -0.151086 0.024872 118 132 121
0.113615 -0.073396 0.037532 102 116 107
-0.390278 -0.022512 0.318920 73 77 72
0.154595 0.172971 0.283374 145 155 158
0.348787 -0.141051 0.040784 80 78 85
-0.283746 -0.113458 0.318870 74 88 79
-0.114064 0.051137 0.022261 76 96 81
0.335927 0.030131 0.279271 172 174 182
0.193060 -0.171403 0.036292 134 139 129
-0.072776 -0.145453 0.023344 114 133 123
-0.499270 -0.021945 0.358136 90 88 80
0.062805 -0.151981 0.028331 119 132 119
0.105885 0.127421 0.274532 142 156 160
0.121700 0.188351 0.283062 145 155 160
-0.089832 -0.039242 0.024876 48 64 53
0.084232 0.153894 0.105627 118 135 140
0.198044 -0.031135 0.279512 156 168 174
-0.361968 -0.025424 -0.003853 20 20 22
0.181541 0.002442 0.283754 127 140 139
-0.148661 -0.146538 0.020615 123 135 125
0.271362 -0.011489 0.280460 160 170 175
-0.096644 0.195095 0.167764 34 43 36
0.034352 0.228906 0.141133 15 21 19
0.002133 0.215656 0.102779 10 13 12
0.266412 -0.115200 0.049115 114 118 111
-0.068368 -0.041451 0.025863 92 112 97
-0.212643 -0.108183 0.212446 12 20 17
0.160507 -0.109677 0.244048 136 141 146
-0.159749 -0.054794 0.019839 109 118 109
0.399176 -0.102530 0.044292 90 87 84
-0.342693 0.321401 0.003191 160 159 144
0.133674 0.042583 0.128355 109 126 140
0.138540 -0.057109 0.142004 144 159 156
0.260448 -0.084079 0.132363 117 123 123
-0.060162 -0.067809 0.025455 98 115 99
-0.145206 0.180989 0.138445 5 13 10
-0.343129 0.351744 -0.000160 163 159 148
-0.068011 0.142815 0.038230 39 45 43
-0.152026 -0.162018 0.019445 123 135 127
-0.004844 -0.097738 0.026634 118 128 116
0.276327 -0.155412 0.041620 130 131 122
-0.197809 -0.066861 0.209181 39 47 48
-0.311706 -0.086682 0.013149 117 126 117
-0.081521 0.117962 0.032033 76 96 81
0.144120 -0.008846 0.276647 166 176 181
-0.160330 -0.194280 0.017539 132 141 132
0.170862 -0.043980 0.272741 149 161 165
0.275938 -0.075758 0.184976 126 132 132
-0.122800 -0.145142 0.022043 119 131 121
0.278316 0.180644 0.283476 166 168 174
-0.008003 -0.006971 0.032386 51 85 65
-0.157173 -0.161948 0.019165 125 137 129
-0.161297 0.143179 0.032232 15 22 16
0.249691 0.088855 0.285044 163 168 175
-0.256138 0.156736 0.154094 17 25 26
-0.341941 -0.095404 0.366342 136 172 170
-0.054855 0.014652 0.036615 34 68 48
-0.070869 0.085433 0.057764 82 104 86
0.167152 0.239761 0.287409 148 156 157
-0.222016 -0.174966 0.015644 85 98 95
0.011246 -0.190302 0.022235 121 133 123
0.083975 0.201618 0.196854 75 92 106
-0.115829 -0.139703 0.021611 101 112 110
-0.049457 -0.173081 0.022111 42 48 48
-0.032667 0.053200 0.049085 40 74 52
0.211379 0.260329 0.286185 157 159 165
0.147506 -0.096862 0.079237 151 164 159
-0.451873 -0.017067 0.345677 139 139 139
-0.539005 0.094069 0.034146 149 150 144
-0.312618 0.353049 0.012234 142 144 135
-0.342285 -0.077638 0.013652 114 122 111
-0.420949 -0.105367 0.230679 61 70 63
-0.309533 -0.115438 0.338911 73 88 87
0.129195 -0.093656 0.037523 64 75 71
-0.249563 -0.171190 0.014353 124 136 126
0.305069 -0.134924 0.043883 129 129 123
0.316584 -0.088064 0.049614 101 105 98
-0.440285 -0.038098 0.318538 53 59 57
-0.346955 -0.120739 0.353374 112 146 152
-0.420878 -0.015955 0.336536 165 165 165
0.103040 0.170272 0.197740 98 115 127
-0.189844 0.137453 0.030313 90 102 92
-0.178723 0.017490 0.019448 89 108 96
0.157416 -0.032258 0.274814 148 158 165
-0.078012 0.092663 0.027454 79 97 91
-0.019769 -0.034655 0.028661 82 102 87
-0.005265 0.228442 0.243651 12 18 18
-0.413454 -0.015125 0.335245 180 180 180
0.168371 -0.000280 0.282483 145 159 163
-0.235791 -0.085716 0.276503 182 87 102
-0.236267 -0.121889 0.251629 8 16 13
0.213813 0.068265 0.285864 157 167 172
-0.271345 -0.114451 0.304817 129 143 134
-0.225151 0.171212 0.290386 180 191 189
0.253113 -0.131722 0.044785 117 118 114
0.126077 -0.058070 0.036685 31 43 35
0.016456 0.132991 0.045444 81 97 88
0.248377 -0.160319 0.040365 128 130 121
0.140414 0.025937 0.280220 145 159 165
-0.298008 -0.077760 0.014371 119 131 123
-0.343165 0.293401 0.000619 156 157 146
0.349003 -0.057910 0.053670 87 87 87
0.375553 -0.086393 0.045193 71 67 68
0.315345 -0.068277 0.090886 112 120 119
-0.318384 0.185925 0.013642 148 155 149
0.090146 0.223248 0.283706 144 154 157
-0.309019 0.218214 0.009900 145 146 140
-0.117262 0.199184 0.043540 53 59 57
-0.319813 0.107972 0.023005 138 148 136
0.326504 0.113170 0.282950 171 173 179
0.088451 0.114737 0.048530 85 99 88
0.135417 -0.052296 0.155544 150 164 166
0.143170 -0.084526 0.094486 145 163 161
0.292508 -0.082645 0.054958 90 91 87
-0.269434 -0.116391 0.014699 123 132 125
-0.301912 -0.161404 0.010044 148 152 145
0.358637 -0.123662 0.042256 128 126 118
0.205414 0.062943 0.285775 152 162 167
0.180514 0.144544 0.283414 147 157 160
0.089621 -0.135203 0.031619 126 131 121
0.234808 -0.098298 0.052317 90 97 91
0.070990 -0.133010 0.030106 64 73 66
0.145077 -0.140229 0.037026 130 139 130
-0.532267 0.032549 0.398964 167 158 151
-0.369800 -0.121764 0.293783 66 70 65
-0.223981 0.052485 0.017895 93 106 91
0.255076 0.100185 0.284471 163 168 173
0.106339 -0.076878 0.036798 103 116 111
-0.340777 -0.117453 0.355188 113 149 155
0.180263 -0.199440 0.032187 131 132 128
0.165374 -0.012892 0.281406 151 163 167
-0.267064 0.160448 0.218876 136 136 136
-0.051092 0.215691 0.296728 152 165 164
0.084127 0.230252 0.284896 152 162 165
0.334324 0.030029 0.279417 171 173 181
-0.142006 0.059111 0.022463 93 106 101
-0.141818 -0.094267 0.020625 125 139 130
0.042340 -0.177427 0.025778 55 61 61
-0.324145 -0.049346 0.018937 116 125 116
-0.008900 0.219255 0.162517 6 14 11
0.203564 -0.093060 0.267512 144 156 158
-0.388075 0.003881 0.329957 94 98 93
0.226902 0.169873 0.283773 158 163 168
-0.133490 0.179386 0.081774 55 71 60
0.181443 0.053946 0.285755 150 160 165
-0.249483 -0.093093 0.299387 162 180 176
-0.102861 0.192669 0.150037 11 17 15
0.320934 -0.136353 0.042783 122 122 116
0.084562 -0.157519 0.029437 127 136 127
0.063747 0.228804 0.281432 148 155 159
0.057925 -0.097278 0.031303 102 114 104
-0.191414 0.115403 0.027103 43 55 45
-0.252220 -0.118537 0.272921 15 23 24
-0.208399 0.113190 0.026967 97 110 97
0.331531 -0.124193 0.043853 125 121 114
-0.142227 0.146876 0.033738 72 86 77
-0.015870 0.050956 0.045546 48 85 64
-0.200739 -0.135093 0.017552 65 76 74
0.033298 0.227241 0.099509 11 17 17
0.319853 0.159165 0.284416 170 172 178
-0.176733 0.007347 0.019820 91 108 94
-0.076984 0.010958 0.066735 45 84 62
-0.213825 0.160311 0.100453 13 19 17
0.089636 0.192870 0.214319 81 98 112
-0.084418 -0.037435 0.025227 87 104 90
-0.461640 0.004939 0.361890 169 169 165
-0.157098 -0.172271 0.018768 55 58 57
-0.088185 0.012038 0.077030 60 94 72
-0.543677 -0.023414 0.354841 30 30 30
0.375550 -0.139145 0.040431 113 109 102
-0.038595 0.193739 0.049983 50 55 60
-0.199096 0.018992 0.015745 81 97 88
-0.199866 0.166019 0.034012 40 53 50
-0.253200 0.159225 0.189634 15 21 21
-0.246059 -0.172954 0.014487 127 136 127
0.392753 -0.184756 0.034763 129 122 116
-0.391012 -0.106783 0.253345 41 44 47
0.119109 0.081991 0.127372 99 115 125
-0.067234 0.211883 0.052997 55 67 59
0.139636 0.019363 0.279855 149 161 167
-0.209382 -0.136721 0.016973 32 35 36
0.186282 0.233365 0.285721 149 156 160
-0.298636 -0.098062 0.337716 89 102 97
-0.298899 -0.118077 0.326079 69 81 73
0.078162 -0.035171 0.035974 81 93 83
0.164472 0.245363 0.288011 147 155 156
0.231356 0.318773 0.288381 159 159 161
0.307034 0.115284 0.282218 168 173 180
-0.007996 -0.023714 0.040069 51 87 69
0.082495 0.155275 0.096441 125 139 145
0.260508 0.104055 0.284255 164 169 174
-0.083035 0.157349 0.039409 69 85 76
0.294608 0.055543 0.282409 167 172 177
-0.467277 -0.003258 0.360232 226 229 228
-0.176984 -0.097785 0.019889 106 119 118
-0.231341 0.166198 0.286944 172 183 183
0.313543 0.049451 0.281289 169 174 179
-0.024745 -0.154276 0.023563 118 132 121
0.139125 -0.002326 0.107445 125 143 150
0.152362 -0.084353 0.235512 131 141 144
0.107887 0.102585 0.108359 111 124 133
-0.040113 0.210123 0.168557 29 36 30
-0.243674 -0.126545 0.244227 29 40 36
-0.409906 -0.105477 0.234908 61 70 63
0.320916 0.084692 0.281779 171 173 179
0.069785 0.111635 0.046100 85 101 92
-0.359947 -0.022583 0.322276 32 37 44
-0.245727 -0.112673 0.273048 18 29 27
0.164184 -0.057769 0.264899 143 155 157
-0.201692 -0.024906 0.016606 93 110 96
-0.300056 -0.196813 0.006386 136 143 137
-0.362232 -0.109965 0.356387 134 170 176
0.109884 -0.018604 0.038323 83 96 91
-0.249457 0.149322 0.027714 110 117 109
-0.285533 0.203337 0.019346 149 150 144
0.346175 -0.122211 0.043306 119 116 111
-0.256213 -0.054692 0.018646 104 116 106
0.112375 0.151901 0.186272 84 99 114
0.260319 -0.082125 0.253696 141 144 147
0.190157 0.264827 0.287733 150 156 158
0.058558 0.186870 0.055469 80 84 77
0.138320 0.105768 0.282188 145 157 161
0.212015 0.041590 0.286665 154 164 167
-0.273980 0.175652 0.024044 127 135 124
-0.235474 -0.136260 0.015241 84 98 102
0.113289 0.000453 0.039530 68 81 76
0.308189 -0.193403 0.035242 131 133 124
0.094056 0.005115 0.037620 61 69 68
-0.331337 -0.135349 0.320629 50 59 52
0.042339 -0.069476 0.031079 80 95 81
0.183115 -0.151116 0.038383 129 136 128
0.362445 -0.057187 0.051860 91 92 88
-0.338705 -0.134888 0.316007 53 60 52
-0.105732 0.186870 0.041765 65 77 67
-0.217625 0.168764 0.286382 167 180 179
-0.410626 -0.108421 0.230767 56 65 58
0.069800 0.145926 0.050273 86 100 91
0.290615 0.120215 0.282812 170 172 178
-0.103197 -0.098718 0.023302 85 98 93
0.104701 0.098849 0.096742 119 136 139
-0.089323 0.094495 0.027841 77 93 84
0.154248 -0.039984 0.267692 147 161 163
0.235656 -0.056079 0.275630 157 164 168
-0.458281 -0.094545 0.211007 105 129 127
-0.331449 -0.044163 0.020273 118 128 116
0.284525 -0.160338 0.040535 129 131 122
-0.088378 0.207258 0.049205 57 69 61
-0.125905 0.186377 0.149525 10 19 12
-0.238327 0.096304 0.022110 79 88 79
0.084606 0.167963 0.255523 142 159 164
-0.180365 0.178384 0.233986 36 39 38
-0.205748 -0.023462 0.194575 9 15 17
-0.036593 0.217611 0.280665 29 41 47
0.025144 0.039815 0.073485 90 129 105
-0.315610 0.292942 0.008836 131 132 121
0.170801 -0.047982 0.271130 148 162 164
-0.006592 -0.097707 0.026528 120 130 118
0.188852 -0.040912 0.276481 149 161 163
-0.033586 0.036381 0.033150 31 63 42
-0.204239 0.096493 0.026365 100 114 105
0.191718 0.053728 0.286279 152 162 167
-0.103630 0.200063 0.241284 22 28 28
-0.058390 0.068635 0.078582 58 92 70
-0.337311 -0.180805 0.004053 98 99 93
-0.393601 0.080610 0.250631 157 159 165
-0.162973 0.175085 0.127920 5 11 9
0.212010 -0.034254 0.279518 153 155 161
-0.519222 0.053950 0.019469 119 121 112
-0.305352 0.106838 0.017235 136 137 124
0.079524 0.121052 0.048567 90 101 97
0.322305 -0.087749 0.048735 105 106 100
0.103888 -0.085839 0.035938 110 119 110
0.004619 -0.038494 0.072303 81 115 91
-0.248785 -0.148661 0.015145 125 137 127
0.238565 -0.171969 0.038579 131 133 124
-0.043408 0.216986 0.269219 20 28 27
-0.409207 0.013023 0.345276 159 140 138
0.033564 0.184915 0.054588 70 82 74
0.073368 -0.009397 0.034463 72 87 82
0.010207 -0.175261 0.023974 128 134 134
0.016638 -0.087387 0.028891 80 96 85
-0.294546 0.023781 0.276658 68 68 72
0.065479 -0.088455 0.032456 102 111 102
0.012994 0.059004 0.078824 87 126 104
-0.316837 0.250513 0.010796 138 140 129
0.095474 0.051383 0.041938 58 71 68
-0.002551 0.123953 0.042005 95 107 109
0.358075 -0.127146 0.041933 126 127 118
0.261423 -0.135106 0.044290 130 132 123
-0.268003 0.075910 0.016101 110 122 114
0.207033 0.029588 0.286621 151 164 173
-0.248580 -0.087988 0.297908 31 49 56
0.060513 0.149982 0.050653 87 102 97
-0.135535 0.187113 0.192696 29 38 29
