ply
format ascii 1.0
element vertex 1233
property float x
property float y
property float z
property uchar red
property uchar green
property uchar blue
end_header
0.064969 0.288358 0.252074 148 156 155
-0.487264 -0.030982 0.358511 85 92 84
0.279324 0.125885 0.264023 163 170 174
-0.019157 0.040045 0.020902 52 84 65
-0.185136 0.211933 0.040200 6 14 11
0.063114 -0.131080 0.017239 112 124 116
-0.297309 -0.166609 0.016763 141 145 138
-0.111157 -0.033516 0.019765 90 105 91
-0.253375 -0.075757 0.297181 128 141 138
0.032767 0.283815 0.239396 143 154 154
0.193337 -0.101412 0.072087 116 127 125
0.348110 -0.051606 0.090485 112 118 118
0.096685 0.260342 0.059641 97 113 123
-0.385442 -0.032638 0.306447 70 79 72
-0.431714 -0.076122 0.008474 96 105 98
0.174710 0.288752 0.256302 147 152 157
-0.477694 -0.130624 0.000710 41 42 36
0.278686 0.360975 0.258045 161 161 165
0.165833 0.163287 0.070510 97 109 123
-0.167858 0.231793 0.238889 174 185 183
-0.098743 0.069271 0.019234 73 89 78
-0.232304 -0.051839 0.270074 21 28 32
-0.129699 0.231070 0.087733 13 19 17
-0.137991 0.231092 0.134900 36 43 35
0.179853 0.181778 0.257372 145 157 161
0.017936 0.022794 0.041617 78 115 92
0.329511 -0.172155 0.018746 126 124 114
-0.438445 -0.013097 0.356971 241 239 231
-0.272323 -0.105533 0.026360 101 112 108
-0.294501 -0.156269 0.017186 135 144 137
-0.358255 -0.110234 0.377060 132 169 172
0.107253 0.268553 0.106896 76 91 106
0.034506 0.033682 0.090403 99 128 108
-0.324161 -0.117484 0.370185 121 160 165
0.004267 0.072984 0.082806 89 123 101
-0.074834 -0.020899 0.022625 22 42 27
0.283145 -0.152025 0.016039 129 133 126
-0.175961 0.085194 0.019905 100 113 98
0.159458 0.084961 0.259225 144 158 162
0.136612 0.115583 0.259994 150 162 166
-0.130299 0.150853 0.011263 10 26 17
-0.338046 -0.101094 0.017682 40 39 46
0.121042 0.305701 0.253454 149 155 155
0.153697 0.157363 0.257938 145 155 158
-0.502680 -0.069413 0.010134 81 86 76
0.245459 0.207379 0.259345 155 162 166
0.309685 0.260336 0.264404 168 168 172
0.151428 -0.085646 0.157773 151 165 167
-0.065061 0.245997 0.186124 38 47 40
-0.181783 -0.020083 0.019397 75 88 87
0.160034 -0.033712 0.261715 153 158 165
-0.023136 -0.096600 0.017304 31 41 44
-0.495565 0.095411 0.251114 157 136 135
0.012538 -0.179022 0.018175 117 129 119
0.231651 0.060340 0.259458 157 167 170
0.300293 -0.173406 0.016704 114 110 113
-0.186058 -0.151712 0.236525 11 17 15
-0.399374 -0.124316 0.004192 138 145 139
0.272027 0.143858 0.262752 163 168 173
-0.287307 -0.085358 0.335108 83 95 87
-0.303554 -0.149184 0.016898 37 48 44
-0.163393 0.152334 0.012061 87 94 86
0.159671 -0.095075 0.114259 157 165 166
-0.280904 -0.104860 0.325055 85 99 90
-0.215486 -0.103098 0.019068 106 122 113
0.084542 -0.109079 0.016732 107 116 107
0.160928 -0.182317 0.017474 125 134 125
-0.404834 -0.064445 0.007541 127 134 128
-0.288793 -0.050457 0.047333 104 118 109
-0.431099 -0.009343 0.353435 242 244 233
-0.142955 0.220528 0.240490 35 45 59
0.150856 -0.009542 0.259515 171 183 189
-0.371674 -0.024191 0.293929 83 91 88
-0.366691 0.015954 0.305145 83 94 90
-0.236099 0.193516 0.164448 13 19 19
0.313013 0.127502 0.267710 170 172 178
-0.512481 -0.108514 0.005332 79 83 76
-0.136481 -0.065848 0.019235 99 115 104
-0.368414 -0.026260 0.289014 107 133 133
-0.394759 -0.118797 0.003921 133 142 135
-0.014127 0.273472 0.240335 150 161 161
0.103250 -0.170171 0.017586 131 138 130
0.062840 0.279508 0.103826 81 92 101
0.200475 -0.099774 0.098344 118 126 125
-0.509034 0.020650 0.101918 118 119 110
0.225625 -0.047571 0.261163 147 161 165
-0.121923 -0.023642 0.019201 39 53 44
0.312062 0.225206 0.266399 171 170 177
0.201132 0.171983 0.257632 149 156 160
0.001144 0.265606 0.070445 5 11 9
-0.394306 0.133224 0.018999 122 133 129
0.072660 0.098562 0.013965 46 53 61
-0.124592 -0.178746 0.017017 118 130 122
-0.095054 -0.044895 0.019487 92 106 95
0.248621 0.105602 0.260239 160 167 171
0.355785 -0.052028 0.173856 138 141 142
-0.285136 -0.100222 0.333440 87 101 92
-0.187817 -0.053741 0.248177 18 21 22
-0.514911 -0.028890 0.357017 64 64 64
0.277153 -0.155647 0.016250 126 130 123
-0.187374 -0.112706 0.014994 116 130 119
-0.531263 -0.094650 0.007680 81 83 74
-0.257998 -0.098131 0.303973 159 173 164
0.067138 0.266283 0.176958 92 106 112
-0.313624 -0.122140 0.359941 114 151 154
-0.301897 -0.147532 0.017300 134 143 136
-0.508400 0.001833 0.402378 197 195 187
-0.060187 0.139581 0.008666 37 52 51
0.240996 0.036870 0.260448 156 163 171
0.027579 0.281985 0.238894 140 151 149
-0.243689 -0.113793 0.279372 21 29 28
0.098074 0.298763 0.253338 150 156 158
0.179566 0.049954 0.258121 148 158 163
0.209531 -0.057040 0.260602 151 163 167
-0.202244 0.209620 0.101445 37 44 38
-0.151673 0.140999 0.012691 47 57 60
-0.180891 -0.183538 0.015474 130 142 134
0.152794 -0.086103 0.113396 151 165 167
-0.454456 -0.005645 0.373824 169 168 170
0.156712 0.155546 0.257823 148 155 159
0.194051 -0.101344 0.122523 123 131 130
0.126984 0.314153 0.254025 151 154 155
0.153321 0.231151 0.065890 90 105 118
-0.009040 0.019517 0.021533 63 100 79
-0.025932 -0.118652 0.017553 108 122 111
0.129415 0.291495 0.254751 146 154 155
-0.159076 -0.140062 0.016400 122 136 125
-0.174870 0.006727 0.021301 90 106 95
0.189819 0.150301 0.257665 147 157 162
0.250829 -0.164664 0.016835 128 129 123
0.077081 0.105194 0.013710 83 98 93
-0.110416 -0.133265 0.017800 121 121 125
-0.084619 0.234806 0.239409 32 39 47
0.181132 -0.021897 0.261371 155 165 170
-0.268867 -0.113250 0.022163 116 130 121
0.026644 0.271370 0.207849 14 22 23
0.224897 -0.091697 0.015421 84 93 86
0.291594 0.072853 0.266268 165 170 175
-0.060749 -0.051693 0.081643 88 115 95
0.231504 -0.097106 0.014896 53 49 52
0.252174 -0.077583 0.261097 145 152 156
-0.203721 0.204000 0.196623 28 34 32
-0.460942 -0.099707 0.006745 86 90 83
0.179648 0.058383 0.082486 116 131 144
-0.247082 -0.096583 0.021340 114 125 121
-0.410433 -0.014780 0.332075 174 174 178
0.207246 -0.128487 0.015205 120 124 117
-0.326250 -0.194998 0.013513 142 147 137
-0.460398 0.001815 0.378527 255 253 241
-0.278325 -0.076929 0.320891 75 87 79
-0.201619 -0.042702 0.268023 22 30 27
0.211109 0.084220 0.258465 154 161 167
0.066507 -0.023568 0.016096 15 27 19
-0.177540 -0.180073 0.015373 138 147 138
-0.439831 -0.036307 0.320852 54 60 58
0.037299 0.053284 0.070554 58 87 67
0.340442 0.028899 0.269746 169 174 179
-0.183518 -0.162725 0.221016 22 30 29
-0.334028 -0.094276 0.380629 130 169 174
-0.404081 0.089480 0.216442 140 170 173
0.095303 0.166051 0.015760 81 99 95
0.051882 -0.023485 0.015727 68 82 73
-0.526443 0.033852 0.401506 160 151 144
0.274928 -0.072750 0.261129 142 147 152
-0.234636 0.139406 0.014268 63 71 68
0.303145 -0.053963 0.265517 163 168 173
-0.178324 -0.008512 0.019875 90 104 93
0.186440 0.128579 0.089581 125 137 151
0.176892 -0.105594 0.143848 127 135 134
-0.088686 0.094291 0.015772 68 87 77
0.084725 0.256838 0.183611 69 89 100
0.167722 -0.170067 0.017241 129 134 124
-0.041373 -0.192948 0.018976 125 138 125
-0.041177 -0.147457 0.017878 121 134 121
0.263934 0.089828 0.262015 163 168 173
-0.185357 0.081651 0.018424 100 110 96
0.270424 0.085435 0.263253 163 168 173
0.090830 -0.172029 0.018025 126 133 125
0.067462 -0.035189 0.015873 25 34 25
0.129942 0.102644 0.059796 108 126 135
-0.392689 -0.016007 0.011748 120 134 125
0.109104 0.108420 0.253558 156 168 172
0.274299 -0.102319 0.014039 112 119 111
0.262157 -0.081400 0.222239 132 138 140
-0.334712 -0.091381 0.021602 126 130 123
0.190352 0.020411 0.258091 140 150 155
0.299789 -0.146790 0.016555 76 76 72
-0.453297 -0.109914 0.004310 93 97 90
-0.438013 0.018877 0.357564 155 144 139
0.154413 0.108406 0.068908 109 124 137
-0.526105 -0.018252 0.396947 143 136 130
-0.374584 -0.083227 0.007866 123 132 125
0.048420 0.279008 0.097973 18 24 24
-0.313378 -0.183414 0.015013 136 144 133
-0.460503 -0.033113 0.339290 69 73 68
-0.490999 0.010289 0.394650 189 182 176
-0.398912 0.017336 0.326020 102 91 95
0.233098 -0.189081 0.016758 136 138 129
-0.124580 -0.175361 0.017301 121 136 133
0.283628 0.182394 0.263719 166 168 174
-0.053401 0.012622 0.018335 29 63 41
-0.033342 -0.165278 0.018766 123 137 128
0.023507 -0.035540 0.016340 72 91 81
0.141311 0.269437 0.084057 104 119 134
-0.385629 -0.055778 0.009969 125 134 127
-0.515125 0.029290 0.399556 162 151 146
-0.013540 0.205762 0.001121 75 89 80
-0.274937 0.133595 0.012223 105 117 109
0.093056 0.262141 0.154274 63 80 94
0.326551 0.062229 0.269510 172 174 180
-0.200562 0.160131 0.009528 98 107 98
0.009545 -0.036575 0.062876 77 116 94
-0.143915 0.124569 0.014780 79 94 80
-0.234469 0.185990 0.011123 85 99 90
-0.219432 0.144588 0.013117 101 114 101
-0.314220 0.052610 0.078881 131 141 127
-0.229681 -0.100763 0.017383 109 123 112
-0.445606 -0.036285 0.323502 49 55 53
-0.503322 0.021625 0.115546 126 128 117
-0.107110 0.001769 0.019744 82 97 83
0.316078 -0.008099 0.268725 165 170 175
-0.097124 -0.171964 0.017592 118 129 127
0.221949 -0.182161 0.016806 130 135 125
0.305459 0.174759 0.266336 167 169 175
-0.328492 -0.136451 0.339906 57 65 62
-0.255004 -0.117819 0.019490 117 129 119
-0.023886 -0.022304 0.021816 33 67 45
0.035819 0.273058 0.173459 13 19 19
-0.302677 0.148677 0.012393 135 143 132
0.276694 0.336732 0.257030 162 162 166
0.195750 0.115832 0.257986 149 161 165
-0.154548 0.226685 0.240317 163 176 175
-0.112827 -0.197617 0.017169 115 122 116
0.081001 0.228133 0.012065 75 86 82
-0.156119 0.226122 0.113651 35 42 36
0.057124 -0.003520 0.015267 67 83 74
0.033897 0.271416 0.088982 12 18 16
0.147449 -0.134533 0.017094 134 138 131
-0.446928 -0.023253 0.353645 134 140 138
-0.500645 -0.030276 0.357084 64 68 63
0.192837 0.073032 0.093271 116 128 142
0.208761 -0.130308 0.015239 122 126 119
0.073881 -0.189175 0.017329 131 138 130
0.168293 -0.077681 0.256714 149 161 163
-0.267089 -0.097877 0.030774 114 123 114
-0.060490 -0.036851 0.018913 87 99 91
0.255074 0.340042 0.255499 160 160 164
0.169728 -0.141521 0.016486 101 105 98
-0.449884 -0.022173 0.356833 138 141 140
0.284593 0.204680 0.263472 163 168 173
-0.233225 -0.148833 0.015829 124 136 126
0.211968 0.042780 0.258866 153 158 163
-0.422465 -0.019951 0.338102 208 209 198
0.189420 -0.102047 0.084428 121 132 130
-0.204783 -0.106658 0.251456 89 95 93
-0.042660 -0.182637 0.018856 128 140 130
0.170987 0.271940 0.255671 149 155 157
0.140300 0.042829 0.021417 95 107 99
-0.537369 0.060554 0.090994 154 155 149
-0.214443 -0.135832 0.237378 47 60 55
0.181270 0.146427 0.257517 146 156 161
0.002767 -0.197996 0.018614 126 135 128
-0.263061 0.094083 0.017794 95 106 102
0.214423 0.123593 0.258005 152 162 167
0.195114 0.100981 0.257866 150 160 165
0.088764 0.022298 0.016400 63 77 68
-0.013407 0.262474 0.143017 32 39 33
0.158000 0.063955 0.071114 112 129 141
-0.441587 0.006435 0.364695 170 174 167
0.151619 -0.143576 0.017370 128 136 125
-0.497692 0.011512 0.397132 197 192 190
0.114875 0.093045 0.248845 149 165 173
-0.488468 -0.018064 0.381117 130 130 126
0.110579 0.099276 0.017334 94 107 102
-0.361655 -0.040912 0.001021 17 20 21
0.058397 0.038948 0.015320 48 63 60
-0.163439 -0.041945 0.021148 92 106 95
0.048924 -0.062365 0.016407 73 87 78
-0.443175 -0.048706 0.010901 117 124 118
0.245829 0.228344 0.258816 157 162 167
-0.529388 -0.025585 0.366189 78 78 72
-0.205461 0.128547 0.014542 95 110 96
0.290258 0.051305 0.266485 164 171 175
0.168998 -0.083709 0.256195 148 159 159
0.253163 -0.037115 0.263355 158 163 168
0.254135 -0.000684 0.263353 62 103 140
-0.078144 0.032296 0.037072 51 88 65
0.069289 0.277405 0.006369 40 52 56
0.224350 -0.199557 0.017466 134 135 126
0.283156 0.044683 0.265674 165 170 175
-0.152092 0.218770 0.030069 9 15 13
-0.016663 -0.180536 0.017284 56 63 57
-0.029958 0.255835 0.207049 14 21 15
0.351537 0.088436 0.268463 173 175 183
-0.312682 -0.063163 0.031097 126 136 124
-0.230251 0.190734 0.224655 19 25 27
0.115127 0.009386 0.018568 76 88 80
0.151304 0.025952 0.022725 100 113 112
0.317404 -0.137780 0.016543 115 115 115
0.126761 -0.001159 0.019997 68 80 72
0.362598 -0.085328 0.014203 102 105 106
0.391836 -0.075871 0.014458 72 69 64
-0.151231 0.223747 0.241449 173 186 185
-0.311315 -0.044937 0.037521 112 125 112
0.278116 -0.019703 0.264961 163 170 174
-0.198751 -0.148756 0.015652 124 136 126
-0.329636 -0.136610 0.340277 59 67 64
-0.093468 0.244038 0.086107 15 21 19
-0.142955 0.235380 0.240089 169 184 183
-0.186705 -0.039706 0.025097 99 113 102
-0.407717 -0.122850 0.289001 70 77 71
-0.270585 -0.103994 0.027225 114 122 119
0.073385 0.179587 0.011631 94 105 101
-0.199643 -0.092316 0.250065 19 27 24
0.377440 -0.114069 0.016792 124 124 120
-0.276999 0.213567 0.032444 94 105 101
-0.055736 0.205517 0.000813 75 86 82
0.084022 0.120253 0.014101 88 102 93
-0.030719 -0.145797 0.018325 120 134 123
0.128435 0.200876 0.059433 83 92 113
-0.036478 -0.076028 0.016925 102 118 109
-0.146654 0.226700 0.083909 9 20 16
-0.266561 0.209186 0.249587 181 187 185
-0.045439 0.070367 0.034763 49 88 64
-0.401688 -0.101023 0.311796 95 96 90
0.177394 0.175802 0.257354 146 156 159
0.338527 -0.063567 0.011573 96 97 93
-0.317431 0.251789 0.023164 135 139 132
0.318877 -0.139567 0.016493 122 123 119
-0.407735 -0.108947 0.300346 89 93 86
0.098251 0.004005 0.016860 67 76 69
0.321029 0.043003 0.269098 170 172 178
-0.101717 0.234496 0.213494 14 22 23
0.147296 -0.080739 0.179348 123 137 139
-0.533854 0.033815 0.061814 102 103 97
0.183660 0.327667 0.255110 149 155 157
-0.527743 -0.069075 0.008949 77 81 74
0.344678 -0.054585 0.195383 141 144 145
-0.281019 0.083717 0.021322 111 124 111
-0.209663 -0.133858 0.248227 11 17 17
-0.182486 -0.188822 0.016083 123 135 125
0.272780 0.189855 0.261615 163 168 173
0.251256 -0.141310 0.016033 121 123 114
-0.155296 0.098335 0.019395 36 48 50
-0.454849 -0.049104 0.006680 85 94 87
0.162527 -0.101297 0.066177 152 163 161
0.175475 0.046083 0.079044 124 139 152
0.142154 0.024513 0.021274 94 105 101
-0.396065 -0.130411 0.000315 44 45 41
0.051952 -0.138348 0.017488 87 100 99
-0.303411 -0.061233 0.036129 114 128 117
0.278093 0.118583 0.263660 164 169 176
0.195933 -0.024521 0.260279 146 158 162
0.261166 -0.032489 0.264001 156 168 174
-0.314626 -0.135421 0.018205 131 141 129
-0.059164 0.244297 0.238596 32 39 45
-0.068639 0.054940 0.040756 51 90 66
0.180282 -0.009877 0.260594 154 166 170
-0.167308 0.154686 0.011779 90 100 88
-0.240088 -0.119385 0.271514 13 21 18
0.181192 0.021642 0.258807 146 156 161
0.224003 0.267159 0.257308 154 159 164
-0.405948 -0.127882 0.269057 41 58 59
-0.003878 0.273783 0.240186 148 159 159
-0.428193 -0.120709 0.265403 103 131 135
0.143033 0.043558 0.259354 146 158 162
0.123090 0.092261 0.018671 34 39 44
0.328996 -0.017781 0.268380 167 172 177
0.129962 0.248049 0.064464 96 113 127
-0.140106 0.092403 0.018733 84 101 87
0.243895 0.036704 0.260778 118 130 144
0.167934 0.177725 0.257249 146 158 160
0.155940 0.028398 0.070184 122 140 147
-0.322527 0.236077 0.021902 138 145 137
0.362793 -0.092942 0.014494 88 87 87
-0.028139 0.069050 0.029239 62 101 77
-0.096517 0.086844 0.017773 38 49 45
-0.051612 0.254240 0.135330 29 37 34
-0.389229 -0.128583 0.296346 62 71 62
-0.326654 -0.102114 0.377412 129 166 169
-0.198673 -0.152239 0.015489 125 137 129
0.266473 -0.052932 0.262850 156 161 168
0.007095 -0.156164 0.017535 118 132 123
-0.086279 0.191578 0.004214 70 82 74
0.168084 0.018819 0.260539 152 162 167
-0.411119 -0.002631 0.340254 237 237 233
0.320185 0.093988 0.267816 171 173 179
0.286281 -0.173400 0.016666 123 127 120
-0.009603 0.205408 0.001770 74 87 82
0.130457 0.115807 0.259558 146 158 162
-0.230883 -0.056860 0.267481 56 60 55
0.267988 -0.076838 0.245297 138 144 144
0.270916 -0.130352 0.015677 121 127 125
-0.414932 -0.039824 0.299139 40 46 44
0.008811 -0.185723 0.017336 116 130 121
0.006348 -0.049066 0.016215 55 70 67
-0.206055 -0.108666 0.252665 111 118 112
0.143408 -0.071485 0.111762 151 166 165
-0.385470 -0.035789 0.320753 62 71 64
0.215604 -0.093611 0.059759 114 122 121
0.156319 0.149264 0.071995 70 65 63
-0.502849 -0.027510 0.362418 76 76 70
-0.248602 -0.103588 0.020392 115 127 117
-0.324164 0.031935 0.259480 74 56 62
0.007802 -0.085241 0.016856 25 34 27
-0.454297 -0.051412 0.007778 85 94 87
0.261486 -0.081320 0.198435 127 133 135
0.274019 0.250300 0.260608 164 167 170
-0.324455 0.330203 0.022229 135 142 134
-0.249726 0.187516 0.142536 15 21 19
-0.062741 0.121229 0.010023 79 93 84
0.069053 0.265012 0.175799 86 99 108
0.262416 0.106615 0.261739 161 168 172
0.284759 -0.000027 0.265715 162 169 175
-0.029127 0.173952 0.003971 88 102 91
-0.224756 0.185250 0.008695 33 42 33
0.228860 0.078782 0.258734 158 168 173
-0.283732 -0.118123 0.316600 68 82 71
0.155819 0.114827 0.258721 146 158 162
-0.387846 -0.050255 0.010459 125 134 127
-0.186486 -0.157628 0.015959 129 141 131
0.222986 -0.107998 0.014108 112 119 113
-0.063795 0.247151 0.045129 8 14 12
-0.514504 0.004750 0.406663 161 156 152
0.099336 0.119858 0.015079 88 99 95
-0.083066 0.240116 0.243133 54 69 82
-0.390543 -0.086367 0.005989 121 130 123
-0.314740 0.117387 0.052869 30 36 38
-0.051425 0.163533 0.005961 88 102 91
-0.472180 -0.123021 0.005568 84 88 83
-0.154709 0.000080 0.018476 50 59 52
-0.223967 -0.078014 0.273069 22 19 16
0.043308 0.275984 0.092490 14 20 22
0.091467 -0.165054 0.018097 128 137 128
-0.208338 0.199905 0.204770 14 20 20
-0.218826 0.202538 0.133708 11 17 15
-0.148970 -0.066168 0.020029 98 117 107
0.185030 -0.062341 0.261386 151 161 164
0.077572 -0.085206 0.017290 98 110 102
-0.293816 0.167439 0.014788 133 141 128
-0.192353 0.203616 0.232418 27 35 36
-0.122165 -0.060143 0.019254 100 111 107
0.249142 0.317964 0.257254 158 161 164
-0.197500 0.211435 0.133749 40 47 41
-0.110174 0.235314 0.071954 8 14 12
0.096869 -0.145524 0.017771 131 140 131
-0.222427 -0.083647 0.272047 41 22 20
0.247106 0.197352 0.259250 157 164 170
-0.478545 0.021278 0.383274 155 148 140
0.033627 -0.149130 0.017752 114 123 116
0.201021 0.118110 0.257504 147 159 163
0.148617 -0.196315 0.018433 130 134 129
0.154756 -0.044138 0.259746 149 161 165
0.218469 0.064000 0.259102 153 163 168
0.088354 -0.105498 0.017058 104 114 102
0.111107 0.150810 0.258134 143 157 163
-0.183974 0.110125 0.016891 93 103 91
-0.155421 0.119811 0.015362 79 91 81
-0.337143 -0.173319 0.008894 138 146 135
-0.047357 0.028547 0.018915 30 64 42
0.145826 -0.076239 0.196755 161 175 177
-0.116409 0.230852 0.241051 32 48 58
0.143319 -0.059487 0.222743 156 168 170
0.243138 0.282065 0.257892 156 162 164
-0.109240 0.232349 0.045539 6 12 10
-0.250093 0.180778 0.237416 27 35 36
-0.029816 -0.126012 0.017950 111 127 116
0.273304 0.151391 0.263025 163 168 173
-0.356689 -0.087327 0.380057 132 168 174
0.351724 -0.189863 0.019995 131 129 121
0.335365 0.191144 0.268822 174 173 180
-0.309424 -0.137035 0.017663 127 131 124
0.175971 -0.055871 0.261051 144 158 162
0.074504 0.259345 0.191291 89 100 111
0.198182 -0.072880 0.260418 150 162 166
0.113403 -0.120339 0.017891 124 132 121
-0.545944 0.021706 0.023414 90 98 87
0.147454 -0.077974 0.124243 135 149 151
0.074095 -0.105548 0.017122 97 105 102
-0.002434 -0.045039 0.015639 79 95 84
0.049261 -0.127558 0.017462 102 114 106
0.329355 0.025665 0.269193 168 173 180
0.216390 0.106599 0.258183 151 161 166
0.009190 -0.120434 0.017639 80 92 82
0.009172 0.267040 0.038118 7 13 11
-0.079523 0.148088 0.009048 82 96 87
-0.095444 0.339117 0.157900 157 168 164
0.323736 0.164130 0.267756 167 172 179
0.155279 -0.090001 0.114565 132 146 148
-0.044411 -0.184295 0.018599 128 141 128
0.234615 0.228966 0.257843 157 159 165
-0.177644 0.193652 0.006915 74 83 74
0.176036 -0.106281 0.070586 114 122 123
0.064848 0.220578 0.008821 76 87 83
0.107044 0.126558 0.257207 157 169 173
-0.475828 -0.053358 0.012909 83 90 84
0.115430 0.265443 0.120514 78 98 111
-0.161767 0.218803 0.068496 7 13 11
-0.271429 0.185887 0.014490 131 143 135
0.242986 -0.086237 0.237305 138 144 146
-0.217582 0.195403 0.247592 49 60 71
-0.070133 -0.059706 0.018513 86 99 86
-0.094000 -0.089783 0.018566 106 120 109
-0.400720 -0.074163 0.328361 68 74 72
0.135164 0.226978 0.255770 146 153 157
-0.110841 -0.171906 0.017347 72 84 88
-0.214829 -0.186964 0.015482 131 140 133
-0.379352 -0.008061 0.315697 90 97 91
-0.044992 0.226835 0.000705 72 84 76
-0.306025 -0.054426 0.032829 122 134 124
-0.067165 -0.082214 0.018366 104 120 109
-0.292798 -0.114577 0.334066 79 93 84
0.308231 -0.148635 0.016785 124 126 117
0.032851 0.158351 0.008507 79 94 89
0.088985 0.159615 0.015105 87 99 91
0.139249 -0.054981 0.096819 147 162 159
-0.266726 -0.129834 0.017584 122 134 126
-0.261767 -0.063938 0.068733 97 113 102
0.206137 0.152286 0.257906 152 159 163
0.001583 0.071779 0.061406 80 119 95
0.003499 -0.068074 0.016059 85 102 88
0.277422 0.216061 0.261855 165 167 173
0.353154 -0.127010 0.017076 125 126 120
0.327154 -0.090881 0.013666 112 115 114
-0.442432 -0.057725 0.009585 110 117 111
0.283409 -0.074180 0.197386 124 132 131
0.270808 0.064961 0.264194 164 169 176
0.254006 -0.074634 0.261545 150 157 161
-0.382802 -0.131159 0.274020 45 54 45
0.350850 -0.090806 0.013609 112 114 105
-0.171203 0.218109 0.076147 8 14 12
0.317057 -0.164972 0.018142 130 131 122
-0.423959 -0.013368 0.345055 244 248 243
0.318769 -0.038717 0.267519 164 169 174
-0.035683 0.070524 0.030367 59 96 73
0.152599 0.015414 0.260255 146 158 162
0.292061 0.284848 0.260626 167 166 173
0.159882 -0.092061 0.253793 150 160 163
0.020940 0.271655 0.233146 28 35 41
0.155005 -0.114635 0.017354 124 133 126
-0.163624 0.221256 0.081656 11 17 15
-0.447926 -0.026566 0.349038 118 126 123
-0.424317 -0.035377 0.310920 61 62 58
-0.006007 0.294285 0.239151 152 160 159
0.268554 0.294276 0.259362 164 164 168
0.128464 0.072466 0.020181 93 109 100
-0.423393 -0.092074 0.006186 100 107 101
0.238434 -0.088454 0.076322 117 128 126
-0.358137 -0.003602 0.302836 87 94 88
-0.372678 -0.083441 0.008522 123 132 125
-0.393908 -0.036552 0.313570 68 76 73
0.339843 0.122901 0.269375 171 173 179
0.287828 0.196367 0.263832 164 169 174
0.159092 0.234601 0.067714 100 115 128
0.180388 0.016453 0.258855 146 156 161
0.151476 0.175669 0.257033 146 156 161
-0.105161 0.013389 0.020573 73 90 76
-0.335703 -0.090152 0.380539 129 168 173
-0.384008 -0.076337 0.341605 140 157 162
-0.024426 0.257646 0.030305 8 14 12
-0.192191 0.213001 0.131623 35 42 36
-0.218577 -0.080784 0.269117 23 23 23
0.007358 0.070386 0.072206 87 126 102
-0.304448 -0.089484 0.027161 123 132 123
0.081643 0.045545 0.014723 52 65 60
0.002066 0.284019 0.238541 150 161 161
-0.413214 0.090528 0.211656 142 171 172
-0.319953 -0.116312 0.367711 121 160 165
0.100139 0.208269 0.255390 143 153 158
0.347377 0.119686 0.268736 172 174 180
-0.182872 -0.057820 0.022732 29 32 31
-0.027518 -0.075983 0.016868 100 116 105
0.143047 0.026336 0.048660 132 146 152
-0.491062 0.040561 0.126739 140 144 137
-0.273361 -0.166803 0.017555 134 143 134
0.033208 -0.131118 0.017230 105 117 107
0.279207 0.016974 0.265576 164 169 174
0.306968 0.025856 0.268499 168 173 180
0.235946 0.226906 0.257855 158 160 166
-0.398468 -0.118291 0.305628 89 93 86
0.306127 -0.051272 0.266628 163 168 173
-0.223570 0.151804 0.012038 52 68 59
-0.046910 -0.068411 0.016584 100 115 101
-0.364114 0.056891 0.234552 127 162 165
0.252197 -0.042022 0.263415 161 166 171
0.083670 0.026682 0.015616 63 76 71
-0.360329 -0.025055 -0.004794 14 17 16
-0.015152 0.257119 -0.001220 59 71 63
-0.161643 0.223637 0.110761 29 36 30
-0.138219 0.071291 0.018823 85 99 88
0.383698 -0.176260 0.021224 113 114 105
0.235345 -0.087815 0.237201 134 141 145
-0.071458 0.250343 0.128116 42 46 41
0.333423 0.136393 0.268926 169 174 179
-0.177802 -0.041936 0.020978 96 108 98
-0.321579 -0.127601 0.360063 106 140 146
-0.092360 -0.097141 0.018492 47 60 57
0.234682 0.210022 0.258380 162 167 172
0.208371 0.011592 0.258816 157 165 164
0.164841 0.264926 0.256216 146 154 155
0.344111 0.134518 0.269085 169 174 181
-0.402003 -0.050475 0.010925 126 135 128
-0.361839 0.008304 0.304442 91 98 92
-0.351812 -0.011903 0.268538 70 77 71
-0.473643 -0.009366 0.381674 76 75 77
-0.026993 -0.102290 0.017787 97 113 104
0.269176 -0.077583 0.138084 124 130 128
0.072817 0.075248 0.013689 52 67 62
-0.367867 -0.126040 0.004059 73 72 72
-0.062931 0.245964 0.244076 80 92 96
0.323289 0.132760 0.268498 170 172 180
0.198040 -0.099384 0.140818 112 123 123
0.220560 -0.078787 0.259875 153 160 164
-0.029229 0.078486 0.043665 58 95 72
-0.157341 -0.140064 0.016415 123 137 126
0.187238 0.091243 0.089502 111 126 139
0.254326 -0.133980 0.015621 129 130 121
0.397806 -0.110496 0.017288 123 124 115
-0.108066 -0.078863 0.019155 103 117 106
-0.221646 0.215576 0.245072 179 190 188
-0.008403 -0.185805 0.017693 130 139 130
-0.231006 -0.111536 0.270444 20 28 25
-0.493963 0.022654 0.125006 131 129 121
0.264034 0.185981 0.261286 162 167 172
-0.412971 -0.027351 0.321681 87 93 91
-0.302138 0.180010 0.016236 141 149 138
0.224779 -0.130280 0.015217 122 126 119
0.303813 -0.162917 0.016995 121 125 120
0.091331 0.231980 0.253866 145 155 158
-0.109292 0.120814 0.014187 78 92 81
0.138446 -0.022133 0.214376 155 169 173
-0.409954 -0.034278 0.314789 56 59 58
-0.113061 -0.044871 0.019242 92 107 93
-0.480755 -0.020154 0.377493 52 60 57
-0.130914 0.000084 0.018746 84 101 87
-0.236669 -0.082895 0.283625 26 32 32
-0.465711 -0.067651 0.010778 85 92 84
0.186785 -0.051196 0.261469 149 161 165
-0.089633 0.226842 0.003684 59 75 66
-0.423963 -0.006251 0.348500 174 174 176
-0.021914 0.078067 0.044599 61 98 75
-0.231028 0.206397 0.246179 181 192 190
-0.081623 0.143190 0.009829 84 99 94
0.181771 0.006128 0.259041 147 159 163
0.092810 0.087684 0.014595 31 42 38
-0.197263 -0.077767 0.248721 28 34 32
-0.023447 0.022568 0.018995 33 65 44
0.083619 -0.194444 0.017846 127 134 126
-0.002926 0.264638 0.037920 10 13 12
0.045507 0.169982 0.008126 86 102 93
0.168516 -0.108523 0.071969 121 129 130
-0.061930 0.252597 0.125252 37 43 41
-0.191456 0.103411 0.017303 39 51 43
-0.027797 -0.046626 0.014482 78 94 85
-0.103608 0.233664 0.217145 14 22 23
-0.101575 0.007332 0.020768 73 90 76
0.170962 0.034953 0.077404 141 157 167
-0.397413 -0.076359 0.329903 74 77 76
0.277630 0.099845 0.263803 163 170 174
0.358837 0.124459 0.270187 172 174 182
-0.282380 0.168444 0.013245 134 139 127
0.073547 -0.071655 0.016087 93 106 101
0.177046 0.082376 0.082995 109 129 142
0.167562 -0.107581 0.214858 132 140 141
0.011061 0.215156 0.001489 64 79 74
-0.292591 -0.080409 0.336671 76 90 81
0.168089 0.190011 0.256826 146 156 161
-0.114015 0.205153 0.004254 65 77 69
-0.003539 0.263604 0.025410 8 14 12
-0.389720 0.111744 0.022889 122 134 126
0.089182 0.254117 0.054896 96 112 122
-0.478107 0.004667 0.389858 255 254 237
0.305609 -0.064014 0.252792 142 147 152
0.116719 0.283093 0.254158 143 154 154
-0.091044 0.038615 0.074357 65 99 77
-0.395853 -0.062948 0.008732 123 132 125
-0.016067 0.024158 0.020071 59 96 75
-0.261380 0.133133 0.013281 109 123 112
-0.009970 0.065445 0.032627 74 111 88
0.288005 0.363601 0.257931 163 162 166
0.254389 0.249428 0.258768 162 164 170
-0.010627 0.224886 0.000631 69 80 80
-0.382367 -0.129676 0.292080 55 64 55
0.027208 0.269044 0.120152 12 18 16
0.049768 -0.120372 0.017654 95 107 99
-0.112300 -0.147423 0.017523 103 123 116
0.019694 0.270355 0.229583 24 31 37
0.273430 -0.044000 0.264453 161 168 172
0.031827 -0.025388 0.081623 67 88 77
0.016305 0.173399 0.005669 81 97 88
-0.469833 0.002534 0.384162 83 89 89
0.141890 0.254601 0.255400 143 154 154
-0.061461 -0.184145 0.017976 122 134 126
0.250917 -0.084502 0.233285 139 145 147
-0.214663 0.202773 0.067985 7 13 11
-0.187954 0.206883 0.215019 15 21 21
-0.236030 -0.106004 0.278440 21 29 28
0.292148 -0.187578 0.017675 129 130 121
-0.327340 -0.095368 0.377488 127 167 169
-0.167924 0.236837 0.237831 174 185 183
0.368146 -0.108300 0.015982 125 122 117
-0.221293 -0.145241 0.015652 123 135 127
0.048794 0.112109 0.012486 82 93 89
-0.274075 -0.102385 0.027836 33 41 40
-0.216545 -0.124349 0.254354 22 28 26
-0.378292 0.079078 0.236294 131 164 168
0.199475 0.078883 0.258064 151 161 166
-0.392249 -0.063012 0.008944 124 133 126
-0.221777 -0.151976 0.261976 56 71 68
-0.186167 0.124173 0.014865 93 103 91
-0.078163 0.020137 0.032918 48 85 62
-0.174038 -0.055139 0.020649 107 117 105
-0.267216 -0.109913 0.023063 115 127 119
-0.130768 0.048493 0.018890 77 93 82
0.229236 -0.025215 0.262127 113 118 123
0.246465 -0.128407 0.015114 126 128 119
-0.538864 -0.025796 0.378512 89 82 74
-0.334760 -0.097321 0.381273 130 169 174
0.142602 0.123719 0.259215 145 157 159
-0.240806 0.103178 0.017012 105 117 107
-0.132055 0.228403 0.196353 19 25 23
0.136742 0.044600 0.052485 122 141 143
0.267350 0.084060 0.262510 162 167 172
0.105139 -0.132944 0.017648 108 120 112
0.083254 -0.197914 0.018077 127 134 126
-0.516528 -0.063113 0.008128 77 81 74
0.015023 -0.001760 0.038930 58 97 73
-0.293833 -0.115092 0.335215 79 93 84
0.318550 0.032332 0.269431 167 172 179
0.107588 0.216518 0.255433 141 153 157
-0.253133 0.181757 0.021699 94 107 102
0.159062 -0.098436 0.142486 155 170 169
0.023088 0.128753 0.009570 87 101 92
0.086340 0.079127 0.014606 63 78 75
-0.292480 -0.105083 0.340818 87 101 92
0.176922 -0.164953 0.017842 124 132 129
-0.182559 -0.128179 0.229071 103 116 103
0.301558 0.178930 0.265976 167 169 175
-0.205043 -0.092759 0.254660 20 28 25
-0.057052 0.066341 0.038573 47 88 64
0.127154 0.076995 0.019524 93 101 98
-0.172191 0.219118 0.147768 37 44 38
-0.110882 -0.006369 0.020232 86 102 91
0.220572 -0.111767 0.014361 116 120 113
-0.187353 0.213220 0.241045 166 181 180
-0.258310 -0.121409 0.019441 116 128 120
0.290420 0.044320 0.266399 167 172 177
0.208594 -0.132050 0.015000 118 125 117
0.278769 -0.031190 0.264924 163 168 173
0.340281 0.176931 0.269310 173 172 181
0.292040 -0.197932 0.017715 131 132 123
-0.461062 -0.065274 0.009404 87 91 86
-0.180809 -0.187177 0.016361 130 139 130
0.252833 -0.089317 0.014073 95 99 92
0.243255 0.001807 0.261708 131 143 145
-0.171478 0.214104 0.047729 8 11 10
0.063823 0.133781 0.013127 95 106 104
-0.227612 -0.084088 0.276354 96 17 22
-0.200462 0.012997 0.024918 83 98 93
-0.459238 0.023561 0.366603 153 142 135
-0.467971 -0.115725 0.005385 80 87 79
-0.417758 0.096091 0.208686 146 174 178
-0.226920 0.196999 0.174426 11 17 15
0.176644 0.148166 0.257693 146 156 161
0.185993 0.079475 0.088614 111 128 140
0.310542 -0.191113 0.017985 130 131 122
0.077140 0.254207 0.252091 146 156 159
-0.380852 0.008302 0.317559 86 92 90
0.213271 0.146537 0.257964 150 157 161
-0.382456 -0.050296 0.010624 125 134 127
-0.248540 0.182632 0.237630 28 36 37
0.154750 0.239142 0.256526 146 153 157
0.221455 -0.055436 0.260754 149 161 165
0.006636 0.266954 0.146381 7 13 11
-0.013002 0.264303 0.241006 110 120 123
0.136124 0.098933 0.259873 147 159 165
0.237891 -0.159170 0.016062 101 101 101
0.011777 -0.109168 0.016570 92 101 94
-0.366242 -0.126022 0.370843 135 171 177
0.210140 -0.095352 0.037724 101 112 108
0.332754 0.238487 0.270703 166 166 170
-0.105279 0.130256 0.012942 75 88 75
0.256364 0.320168 0.257438 162 162 166
0.229218 0.138298 0.259019 157 162 167
-0.537587 -0.080963 0.010917 80 81 75
0.019798 0.197216 0.004284 76 89 84
-0.219890 0.102879 0.017903 95 105 93
0.255052 0.041439 0.261833 160 170 173
-0.073151 0.249877 0.125672 39 45 43
0.001609 -0.098477 0.017573 58 70 62
-0.196326 -0.011886 0.023122 98 111 98
0.250093 0.340481 0.254940 159 158 165
0.151629 0.186515 0.061231 109 124 137
0.007214 0.026916 0.027807 63 100 87
0.310307 -0.029236 0.267981 166 168 174
-0.147268 -0.041539 0.020238 93 107 96
0.308347 -0.175376 0.017592 60 59 59
-0.244742 -0.162688 0.015122 128 140 132
0.230600 0.194079 0.257970 155 162 166
-0.411958 -0.119663 0.220269 82 101 101
0.300248 0.245585 0.264184 165 167 173
-0.427714 -0.083103 0.007082 97 104 98
0.122521 -0.152521 0.017439 127 131 126
0.191322 -0.009087 0.259276 150 157 161
-0.023427 0.254751 -0.001443 60 71 67
0.062228 0.276374 0.011358 40 54 56
0.278732 -0.074275 0.014416 85 88 87
0.135030 -0.048562 0.146687 136 150 152
0.246364 0.292567 0.258381 160 163 166
-0.278514 0.168566 0.013097 128 136 121
0.036573 0.155876 0.008970 83 98 93
-0.217451 -0.074431 0.268667 23 26 25
-0.239438 -0.066149 0.277070 22 28 30
0.284042 0.243184 0.261756 165 168 171
-0.220716 0.201658 0.096574 9 15 13
-0.219117 0.198949 0.191929 13 19 17
-0.148986 -0.059974 0.018537 94 107 102
0.237113 0.147806 0.259320 160 165 170
0.051011 0.219511 0.006524 47 55 56
0.247099 -0.144942 0.016171 128 130 121
0.290670 0.136887 0.264794 165 170 175
0.138662 0.068478 0.259172 146 158 164
-0.305327 0.113485 0.020899 135 137 126
0.014989 0.183158 0.004585 68 79 77
0.040729 0.274474 0.166178 16 22 22
-0.082187 0.012677 0.036252 46 83 62
-0.488769 -0.000015 0.392205 166 161 157
0.177083 0.185616 0.257508 144 156 160
-0.538499 0.013274 0.020088 102 114 116
-0.206953 0.201992 0.199247 21 27 27
-0.117790 0.043799 0.020336 81 98 84
0.177709 -0.105350 0.166127 127 135 134
-0.498804 -0.100329 0.008450 81 85 78
0.326097 -0.155925 0.017420 133 131 121
0.033881 0.146391 0.009887 78 93 90
-0.409405 -0.075159 0.005832 125 132 126
-0.204982 0.206481 0.167556 43 50 44
0.326994 -0.019564 0.268598 167 172 177
-0.525209 0.047336 0.090266 136 137 128
-0.441482 -0.025878 0.345371 121 127 125
0.150823 -0.002833 0.262608 160 167 173
-0.402868 -0.037845 0.012959 126 135 128
-0.060775 -0.163265 0.017687 123 137 128
0.075752 0.224216 0.237645 137 153 161
-0.450318 -0.013519 0.367281 202 201 201
0.229922 -0.095289 0.015026 77 77 77
0.140652 -0.048098 0.226618 154 168 170
-0.250790 -0.099149 0.296490 193 208 203
-0.019446 0.270691 0.240944 150 161 161
-0.286694 0.180664 0.015390 116 128 120
0.134174 0.141666 0.058715 83 94 105
-0.113174 0.118441 0.014502 78 94 83
-0.016561 -0.107614 0.017281 108 122 111
-0.331343 -0.113211 0.378069 128 164 170
-0.336974 -0.135955 0.357653 96 129 131
-0.225819 -0.112705 0.266100 18 26 23
0.278909 0.131701 0.263835 161 168 172
-0.327991 -0.079425 0.370585 126 161 164
0.042522 -0.050878 0.016270 74 88 79
-0.082900 0.050726 0.061790 57 96 74
-0.258849 -0.152442 0.016076 123 135 125
-0.486307 0.041597 0.132111 138 143 133
-0.224855 -0.125575 0.253597 11 17 15
-0.320982 -0.114472 0.369518 123 164 168
0.149805 -0.009259 0.020646 107 118 114
-0.084051 -0.122525 0.018082 31 46 43
-0.284174 -0.110915 0.325916 80 94 85
0.094838 0.047274 0.015636 34 45 41
0.176920 0.080527 0.082630 107 127 140
0.005222 0.265868 0.156454 10 13 12
0.019164 -0.184094 0.017724 124 133 124
-0.131115 -0.056660 0.020021 75 88 85
-0.453681 -0.031781 0.337044 86 90 85
0.305196 0.327499 0.260190 166 166 170
0.187634 0.246355 0.256092 146 153 157
-0.464747 -0.010071 0.378254 251 255 250
0.138321 -0.046603 0.219766 154 168 170
0.381431 -0.048528 0.013102 95 97 88
0.170052 0.181629 0.257377 145 157 159
0.300195 0.078054 0.266752 165 170 175
0.139160 0.012611 0.020722 96 110 101
-0.070557 0.052762 0.041018 52 89 66
0.012527 -0.019566 0.049023 59 98 76
-0.234262 0.196720 0.083784 13 19 17
0.120648 0.027647 0.018510 72 85 80
0.135503 -0.044644 0.102700 141 159 157
0.181788 0.095438 0.257624 148 158 163
0.282151 -0.067527 0.263621 149 154 161
-0.465727 -0.035744 0.330448 51 54 57
0.072911 0.271941 0.042562 92 106 112
-0.372775 0.104527 0.008294 119 130 126
0.312811 0.141134 0.267267 167 172 177
0.015646 0.270043 0.051053 9 12 11
-0.268861 -0.091768 0.315407 157 167 172
0.047246 0.193626 0.006874 85 99 90
-0.385427 -0.082889 0.006767 121 133 125
0.142654 0.010591 0.020786 101 112 108
0.225942 0.002512 0.260147 149 163 165
-0.315875 -0.107137 0.368355 125 164 169
0.222251 0.057316 0.258416 151 161 166
-0.072234 0.129724 0.010378 77 93 82
-0.358536 -0.015952 0.281890 85 92 84
0.320657 -0.121259 0.015977 123 127 120
-0.316570 -0.134482 0.325403 55 64 55
0.275918 0.052316 0.264590 165 170 175
0.050123 0.205585 0.006319 77 93 84
-0.096085 0.248575 0.240314 158 171 170
0.310943 0.242712 0.265309 165 168 171
0.273880 0.179388 0.262281 162 167 172
-0.269441 -0.119587 0.296609 105 120 115
0.194224 0.065940 0.258451 148 158 163
0.243874 0.028028 0.260737 150 160 167
0.139304 0.052842 0.022072 80 93 90
0.341813 0.178299 0.270124 173 172 181
-0.152042 -0.157664 0.016175 123 135 125
0.279277 -0.085154 0.013045 100 102 93
0.122628 0.029538 0.018867 69 82 77
0.143165 -0.003174 0.020248 107 119 111
-0.069913 0.141514 0.009031 45 60 59
-0.127947 0.233180 0.170589 37 44 38
-0.033064 0.254519 0.219107 23 35 27
-0.078424 0.008310 0.032674 42 79 58
-0.376878 -0.122494 0.004256 125 137 129
0.325203 -0.073568 0.012737 98 102 95
-0.469065 -0.025614 0.362287 124 125 121
0.267087 0.005779 0.264092 163 168 175
-0.185741 -0.102561 0.017578 110 129 119
0.026326 0.271750 0.210016 14 22 23
0.267633 -0.078347 0.107771 116 124 123
0.172685 0.212219 0.256969 149 154 159
0.318993 -0.062789 0.132046 122 128 130
0.347601 0.060475 0.269830 170 175 180
0.339294 -0.085096 0.013326 111 112 106
-0.223563 -0.048335 0.275865 16 22 22
0.133592 0.170818 0.057516 104 121 133
0.053696 0.200557 0.007004 80 96 87
0.142027 0.201086 0.059339 112 124 140
-0.124979 0.078408 0.017337 75 95 80
0.055135 -0.075623 0.016500 90 102 92
-0.159665 -0.149156 0.216122 114 128 117
-0.190726 0.210333 0.179901 31 42 38
-0.080340 -0.115111 0.017543 115 127 119
-0.138221 0.073263 0.019071 85 99 88
0.200676 -0.100188 0.178965 125 131 131
0.018706 0.118208 0.008713 87 109 93
0.121637 -0.161310 0.017258 126 133 125
-0.362526 0.026882 0.284378 70 86 94
-0.106371 0.183017 0.006714 72 83 83
-0.214406 -0.037859 0.270884 33 39 39
0.221137 0.258835 0.257010 154 160 162
0.307714 -0.068025 0.013100 89 90 86
0.037871 -0.116417 0.016536 93 102 93
0.038839 0.274552 0.219934 20 28 29
0.333294 -0.154261 0.017874 94 94 94
0.122209 0.147736 0.055531 92 110 117
-0.096717 -0.147480 0.017782 127 141 130
-0.521104 -0.008650 0.404632 184 180 171
-0.373011 -0.126164 0.004463 106 109 108
0.195247 -0.080908 0.260815 150 160 165
-0.057906 0.248594 0.185727 30 37 31
0.267015 0.028215 0.263781 163 168 173
-0.453098 -0.028929 0.347851 110 114 109
0.202294 0.148324 0.257957 152 159 165
-0.223394 -0.123458 0.255816 13 21 18
0.022820 0.010079 0.052465 78 115 92
0.247756 0.211420 0.259433 157 164 168
0.217710 -0.130251 0.015083 126 130 123
-0.410195 0.093689 0.212619 146 176 179
0.228156 0.333544 0.254612 155 158 161
0.243796 -0.143180 0.016273 125 125 119
0.138437 -0.152367 0.016908 123 124 120
0.396579 -0.151291 0.020265 123 118 116
-0.341505 -0.126953 0.379033 116 152 158
-0.529146 -0.026790 0.363260 60 60 60
-0.493751 0.030613 0.124045 139 141 132
0.268081 0.104422 0.262335 162 169 173
-0.399717 -0.040154 0.299997 49 52 51
-0.454193 -0.081509 0.007676 85 92 86
-0.065291 0.269643 0.241225 153 164 162
-0.209375 0.198417 0.217614 17 20 23
-0.175247 -0.060537 0.220986 21 29 26
0.142365 0.071565 0.063896 109 125 133
-0.428870 -0.091657 0.277257 68 75 69
0.239305 -0.183766 0.016251 81 85 78
-0.059607 0.249601 0.068860 8 14 12
-0.352384 -0.101339 0.380946 133 169 175
-0.349477 -0.115971 0.380833 133 172 177
0.205265 0.177934 0.257691 150 157 161
0.085472 0.202408 0.252271 152 164 168
0.316136 -0.187796 0.018584 133 134 125
-0.258859 -0.082332 0.304735 162 180 174
-0.128080 0.192401 0.005993 66 74 71
-0.210387 0.201013 0.197713 14 20 20
-0.242444 -0.095369 0.288032 30 41 41
-0.218326 0.200378 0.028964 14 20 18
-0.000949 -0.173853 0.018287 116 127 123
-0.434268 -0.001056 0.359729 255 255 249
0.058346 0.136535 0.012042 33 41 40
0.184224 0.222990 0.256569 149 154 159
0.049006 0.278348 0.004613 42 51 44
0.251121 0.299671 0.257903 161 161 165
-0.147814 0.148352 0.011478 67 84 70
-0.294585 -0.183708 0.016237 136 143 137
-0.429458 -0.032715 0.024270 119 128 119
0.148003 -0.078411 0.116163 127 141 145
0.003072 0.265332 0.130657 8 16 13
-0.539265 0.033389 0.050096 104 105 96
-0.361593 -0.128611 0.373726 133 169 175
-0.301188 -0.109666 0.353613 91 102 98
0.219797 0.080523 0.258697 155 162 168
-0.128618 0.108749 0.016242 31 42 40
0.109507 -0.175555 0.018214 43 51 50
-0.228181 -0.162886 0.260491 25 27 35
-0.517316 0.003716 0.408116 166 161 157
0.250745 0.109196 0.260473 161 166 171
-0.421476 -0.099402 0.284871 69 78 71
-0.051413 -0.092977 0.017331 108 122 111
-0.045828 0.154455 0.006189 85 99 88
0.142172 -0.024083 0.232189 155 171 179
0.192137 -0.102287 0.053143 115 126 122
-0.469145 -0.084113 0.009790 83 90 84
-0.030296 0.040202 0.020411 29 66 45
-0.087362 0.238499 0.203388 15 21 21
-0.324172 0.094473 0.079369 140 150 136
0.137656 0.098888 0.259968 147 159 165
0.264208 0.075092 0.262285 161 168 172
0.096064 -0.136462 0.017338 58 64 64
-0.341944 0.348727 0.007277 163 161 149
-0.287788 -0.115181 0.022466 121 130 121
0.026903 0.271389 0.183649 16 22 22
-0.544948 0.044015 0.064982 74 72 62
0.228839 -0.091557 0.178208 123 131 130
0.256616 -0.141277 0.015932 119 120 114
0.099029 0.053252 0.016218 53 71 65
0.328639 -0.057801 0.235930 147 150 153
0.172831 0.140216 0.076678 103 114 123
0.296647 0.083487 0.266702 169 171 177
-0.373201 0.022513 0.310319 72 89 94
0.168232 -0.125246 0.016346 114 118 113
-0.349370 -0.117216 0.380665 133 172 177
0.095621 -0.102062 0.017889 99 113 102
0.110793 0.126809 0.046416 124 141 146
0.217656 0.225229 0.257019 149 154 159
-0.084162 0.009960 0.037920 48 85 64
-0.071970 0.248786 0.079735 13 17 12
-0.106952 0.019173 0.021091 37 42 32
-0.211298 0.202060 0.011466 81 95 84
0.324123 0.022263 0.269044 169 174 181
0.108939 0.143434 0.016405 82 95 90
0.230497 0.053300 0.259305 152 163 174
0.083438 -0.177234 0.017965 61 61 65
-0.278224 -0.120729 0.299266 99 113 102
-0.014800 0.008604 0.018830 56 90 66
-0.293456 -0.124069 0.317265 59 71 63
-0.246985 0.185158 0.218292 20 26 24
-0.250878 -0.096471 0.297067 182 197 192
-0.472697 -0.066150 0.011789 86 90 83
-0.084092 0.124165 0.012384 79 94 80
0.082848 0.058384 0.013941 33 41 42
0.118089 -0.016580 0.018858 85 100 95
-0.225982 0.199319 0.162403 11 17 15
-0.430548 -0.016464 0.347575 162 162 166
0.003364 -0.070033 0.016255 85 102 88
0.215077 0.148321 0.258200 152 159 163
-0.412360 -0.101682 0.296887 82 86 79
-0.283463 0.199358 0.018400 133 143 131
0.055671 -0.136454 0.017141 47 59 61
0.022615 0.269682 0.113084 11 17 15
0.366568 -0.083467 0.014314 115 117 108
-0.368324 -0.119342 0.370723 134 170 176
-0.001116 0.043336 0.027324 79 116 95
-0.059121 0.248033 0.008224 61 76 71
0.262289 -0.096966 0.014672 57 54 49
-0.282501 -0.118501 0.021585 124 133 124
-0.330999 -0.091796 0.022886 126 134 123
-0.337304 -0.074052 0.024876 126 134 121
-0.207024 -0.071834 0.256283 23 29 27
-0.374823 0.017668 0.312870 90 99 92
0.329717 0.155848 0.268533 169 171 177
-0.051369 0.215332 0.000140 73 85 77
-0.041187 0.250799 0.212999 13 21 20
0.046627 0.277355 0.084309 16 22 24
-0.303391 -0.126447 0.332610 60 72 64
0.202604 0.078924 0.258054 153 163 168
0.361481 -0.073750 0.013569 81 80 80
-0.074895 0.247136 0.150255 39 48 41
-0.192591 -0.114558 0.015078 118 132 121
0.323421 0.040995 0.269569 169 171 179
-0.177680 -0.169930 0.016324 143 147 142
-0.166275 0.058621 0.018812 48 57 48
-0.265994 0.180306 0.114926 47 58 56
0.248407 -0.040117 0.262786 155 165 168
0.070414 0.000536 0.015259 68 87 77
-0.067182 -0.001998 0.024481 38 72 52
-0.216579 -0.048059 0.275408 31 34 33
0.254794 -0.082217 0.239194 140 146 146
0.009482 -0.056832 0.016551 69 82 79
-0.323116 -0.136263 0.329668 54 61 55
-0.040003 -0.074216 0.017088 100 116 105
0.183196 -0.065386 0.261090 151 161 164
0.278076 -0.197975 0.017934 131 133 122
0.370970 -0.047976 0.164610 138 141 140
-0.154350 -0.060124 0.018904 98 110 102
0.125567 0.236124 0.061428 99 114 127
0.133735 0.047167 0.256114 160 170 175
0.297424 -0.141256 0.016011 117 125 114
0.149215 -0.134531 0.017096 130 134 127
0.090384 0.175707 0.014646 39 41 47
0.262149 -0.119296 0.015217 123 128 118
0.008104 -0.079677 0.016992 39 51 43
0.264817 0.163930 0.261706 163 168 173
-0.020037 0.261968 0.119538 29 37 34
0.049408 0.120883 0.012387 86 97 93
0.039363 -0.189332 0.018042 122 134 126
-0.079459 0.059823 0.067845 57 96 74
-0.297298 -0.085227 0.030900 120 127 119
0.333127 0.207832 0.270553 172 171 178
-0.174385 0.223453 0.238810 166 179 178
-0.264170 0.175131 0.239366 31 38 44
0.255255 -0.049884 0.263035 160 167 173
0.235771 -0.085888 0.258451 134 141 145
-0.320394 -0.085799 0.026983 123 132 123
-0.419331 0.082230 0.233481 140 154 156
0.138414 0.003045 0.019626 102 116 107
0.126367 0.118469 0.057862 106 123 135
-0.232372 0.179880 0.009954 42 49 43
-0.427854 -0.061392 0.009387 121 125 118
-0.305476 0.296106 0.028729 137 138 127
0.072394 0.274137 0.251175 147 158 158
0.120295 0.241610 0.255390 143 155 157
-0.027517 0.011009 0.017736 32 64 43
0.056285 0.007041 0.013911 59 77 73
-0.180965 0.155407 0.010285 93 103 91
-0.152414 -0.087922 0.018099 116 130 119
0.197425 0.316025 0.255868 149 155 157
-0.303108 -0.127894 0.326262 59 71 63
-0.314445 0.094604 0.071719 139 147 134
-0.064512 0.127711 0.010156 68 81 78
-0.248808 0.186268 0.153556 13 21 18
-0.157937 0.238111 0.239019 170 183 182
-0.297379 0.065288 0.187484 34 41 49
0.135149 0.139179 0.258712 144 154 159
0.003619 -0.185786 0.017607 122 134 126
-0.289849 0.029773 0.109645 102 98 87
0.344541 -0.100752 0.015427 114 118 111
-0.132961 0.241443 0.240549 166 181 180
0.364664 -0.138225 0.018313 106 110 105
-0.065684 0.246154 0.014633 6 14 13
-0.197627 0.202777 0.222849 18 26 25
-0.408933 -0.124998 0.283650 61 75 66
0.058059 0.006870 0.014337 61 79 75
0.231203 -0.090118 0.101038 120 128 127
-0.225687 -0.167976 0.015405 127 136 127
-0.315872 -0.123604 0.360180 111 151 153
-0.458918 -0.120812 0.004270 94 101 93
0.092663 0.157225 0.015421 82 95 92
-0.213311 0.133361 0.013613 92 107 91
0.101840 0.193909 0.255689 142 154 158
0.007342 -0.012884 0.037414 56 93 70
0.094380 -0.134777 0.017721 128 135 129
0.208077 0.036151 0.258157 160 171 169
-0.037864 0.281553 0.242984 151 162 160
0.085356 -0.194425 0.017763 126 133 125
-0.538763 -0.128540 0.005680 52 52 48
-0.239307 0.186218 0.233088 23 34 34
-0.302225 -0.093987 0.355544 93 106 103
0.298016 -0.157421 0.016291 131 132 126
0.354807 -0.136157 0.017345 75 76 70
-0.477758 -0.030870 0.353377 84 84 80
0.277714 -0.076611 0.230126 136 142 142
0.123174 0.078093 0.257964 160 172 178
-0.391137 -0.075653 0.334395 84 85 81
-0.117938 0.241788 0.240435 161 176 175
-0.223094 0.211058 0.245586 180 191 189
0.395001 -0.158426 0.020333 76 73 70
-0.089034 -0.109740 0.017785 110 124 113
0.143874 -0.020389 0.238280 157 171 177
-0.272989 -0.142253 0.017457 65 77 67
-0.262384 -0.119490 0.289475 97 112 107
-0.108991 0.239370 0.092474 26 33 25
-0.004044 0.011065 0.022567 63 97 75
0.266619 0.281685 0.258797 165 165 169
-0.201909 -0.110765 0.250420 22 28 26
-0.093214 0.149688 0.009956 76 90 81
0.168828 -0.085197 0.256026 150 161 161
-0.283486 0.206375 0.021882 141 145 140
-0.293438 0.268585 0.033822 135 140 128
0.017023 0.268116 0.176470 11 14 15
-0.061362 0.246849 0.038646 8 14 12
0.248319 0.068931 0.260345 160 167 173
-0.205128 -0.089757 0.254811 21 29 28
-0.079445 0.150559 0.008617 81 93 85
0.042411 0.275684 0.167513 19 25 25
-0.028750 0.257635 0.196823 27 33 31
-0.533505 -0.059006 0.012314 79 84 74
0.285365 0.336733 0.257211 163 162 166
0.326608 0.027281 0.269334 169 174 181
-0.069543 0.247450 0.071775 8 14 12
-0.037225 0.124840 0.007741 78 97 85
0.122683 0.109201 0.019163 33 43 46
0.194109 -0.157495 0.016332 134 139 129
0.221609 -0.185518 0.016335 136 137 128
-0.467757 -0.064127 0.011426 88 92 85
0.095828 -0.100170 0.017743 73 86 81
-0.003337 0.138981 0.006600 47 57 60
0.159794 -0.097872 0.176768 157 167 170
0.257455 0.334833 0.256243 160 159 166
0.306994 0.332343 0.262227 169 168 172
0.285355 -0.034540 0.265187 164 170 172
0.107455 -0.090854 0.017680 110 119 112
0.146093 0.186953 0.060434 107 122 135
-0.308373 -0.122650 0.355123 73 95 94
0.270319 -0.056035 0.262692 158 163 168
0.194020 0.084218 0.258167 150 160 165
-0.221265 -0.197219 0.015628 131 138 132
-0.139970 -0.180361 0.016567 109 122 117
0.308790 0.200537 0.266591 167 169 175
0.233223 -0.054002 0.261270 155 165 170
-0.223820 -0.123488 0.014520 116 128 118
0.301982 0.318757 0.259885 164 164 168
0.290767 0.321704 0.258899 165 165 169
-0.358168 -0.134612 0.325242 63 70 64
-0.265207 0.181952 0.039776 115 130 127
-0.516850 -0.129672 0.003483 45 45 39
0.060725 0.269402 0.202956 95 111 119
0.177736 0.155929 0.257700 145 155 160
-0.306555 -0.103633 0.361142 118 157 162
-0.017142 0.213341 0.000142 73 87 78
0.090628 0.178130 0.014396 37 40 41
0.243670 0.159154 0.259850 160 165 170
-0.058213 -0.082023 0.017870 109 121 111
0.129704 0.060510 0.254550 160 171 180
0.154039 -0.011264 0.262806 152 164 170
