ply
format ascii 1.0
element vertex 1232
property float x
property float y
property float z
property uchar red
property uchar green
property uchar blue
end_header
0.109864 -0.087735 0.008196 111 118 110
-0.291165 0.155458 -0.003518 131 140 131
0.367044 -0.024222 0.064458 124 130 130
-0.141666 -0.038320 0.001449 90 103 90
0.063273 0.043112 0.010757 50 65 60
0.118173 0.199322 0.251687 146 156 159
-0.044641 0.297903 0.024193 9 15 13
0.101444 0.126226 0.007266 91 102 98
0.264672 -0.066895 0.229944 131 136 141
-0.151629 0.141026 0.000537 42 55 52
-0.167549 -0.011210 0.002278 86 102 91
0.338053 -0.069905 0.018758 102 107 95
0.046467 0.171044 0.002342 77 88 84
0.326836 -0.055576 0.021323 42 45 48
0.211573 0.233682 0.244090 152 159 163
-0.546951 0.013104 0.038387 65 67 58
0.166922 0.167023 0.250458 147 157 160
-0.077942 0.347194 0.053819 37 44 36
0.016107 0.068143 0.060734 88 129 107
-0.050118 -0.153078 -0.001009 121 135 124
-0.176097 -0.181621 0.000088 119 128 119
0.046786 0.284840 0.074102 13 21 18
0.113029 -0.151244 0.005980 124 136 126
-0.208510 -0.159039 0.204776 25 38 37
-0.165979 -0.134761 0.178047 43 58 57
0.242695 0.342999 0.252176 154 159 164
-0.009948 0.260240 0.008797 50 58 57
0.230192 0.058754 0.250349 158 168 173
-0.469095 -0.013758 0.350030 139 139 135
0.175613 -0.074217 0.245405 149 164 163
0.071500 -0.047881 0.008375 87 101 90
0.010777 0.210308 0.001741 76 89 84
0.154906 -0.012176 0.245414 166 176 183
-0.063246 -0.050033 0.002398 96 110 99
-0.440732 0.020960 0.337260 165 169 164
-0.067276 -0.184373 0.004311 128 138 126
-0.089620 0.021825 0.042383 58 92 70
-0.210786 -0.044489 0.203265 60 60 62
0.111488 0.255256 0.134061 83 98 111
-0.345633 -0.109610 0.364576 126 165 170
0.170527 0.282967 0.250535 148 156 157
-0.325606 0.244551 0.001548 143 148 136
-0.086378 0.262030 0.195660 17 28 26
0.160235 0.098552 0.252535 147 159 163
0.118542 0.061232 0.008384 66 77 75
-0.275373 -0.006971 0.263634 75 82 74
0.071136 0.277856 0.020038 73 87 93
0.183914 0.314935 0.254370 149 152 153
0.392176 -0.194426 0.017247 136 134 126
0.262173 -0.042168 0.253873 161 171 174
-0.022732 0.066534 0.030213 74 106 85
0.347861 -0.185956 0.010709 96 89 83
-0.384866 -0.032528 0.303369 53 59 57
0.318564 -0.091835 0.016526 110 110 104
0.203013 0.059724 0.248297 150 162 166
-0.256165 0.193984 0.087590 15 21 19
0.083256 0.114058 0.005090 86 97 93
0.356619 0.116214 0.254845 171 173 181
-0.152336 0.297715 -0.002106 27 36 29
-0.469737 0.015395 0.362302 203 199 192
-0.192318 0.228510 0.249919 179 190 188
0.268726 -0.065848 0.234954 141 144 147
-0.082500 -0.093935 0.002841 115 129 118
-0.347200 0.000276 0.276224 60 74 63
-0.353648 -0.090851 0.190967 134 138 131
-0.172969 0.297649 0.001176 29 36 30
-0.222591 -0.098769 0.261446 27 30 29
-0.340381 -0.125343 0.281674 125 134 125
-0.285435 0.203566 0.000153 141 149 136
0.143593 0.063135 0.250526 150 160 165
0.314948 -0.124705 0.015246 116 120 115
0.375624 -0.089116 0.020069 86 86 86
-0.396459 0.014151 0.323446 150 146 139
-0.067451 -0.006737 0.026397 38 75 54
-0.217003 0.225023 0.071761 11 18 12
0.155181 -0.084300 0.009524 114 126 118
0.226911 -0.187971 0.004497 127 137 125
-0.074877 0.245978 0.000046 58 69 65
-0.171730 -0.120398 -0.001830 119 131 121
-0.475332 0.067780 0.277158 155 155 149
0.079185 0.317002 0.245184 148 152 147
-0.065690 0.262183 0.222193 31 43 47
0.314975 -0.042259 0.056704 124 130 128
0.109308 -0.130210 0.008153 128 137 130
0.289033 0.115199 0.255109 163 170 174
0.328136 0.114930 0.253443 169 174 181
-0.156672 0.018785 0.007434 38 50 42
-0.021390 0.069738 0.036383 78 115 92
-0.203989 -0.073217 0.231101 22 30 29
0.102604 0.139542 0.007225 81 94 89
-0.240510 -0.109389 0.272316 22 33 33
-0.011538 0.000988 0.003532 53 87 67
-0.374613 0.108040 0.175097 131 161 166
-0.316366 -0.107073 0.359592 127 166 171
-0.011810 0.268152 0.029151 8 14 12
0.118101 0.263624 0.107522 87 104 118
0.158133 0.159663 0.061839 73 67 73
0.294519 0.376920 0.247068 159 162 163
-0.523857 0.049382 0.360181 163 156 150
-0.067834 0.346141 0.022658 38 47 40
-0.068419 0.189364 0.004364 66 81 76
0.056992 -0.191943 0.014456 47 54 46
0.118528 0.092602 0.246752 154 171 176
-0.427353 -0.091059 0.282652 61 72 70
0.358366 0.140463 0.255697 173 175 181
0.294321 -0.051626 0.159981 130 138 139
-0.393545 -0.014707 0.299365 70 77 71
0.170157 0.079180 0.073393 112 128 138
0.216365 -0.077169 0.249023 152 162 167
0.121651 -0.038517 0.009794 100 108 105
0.039149 -0.103199 0.003487 88 102 91
-0.028595 -0.010318 0.001595 34 66 45
-0.547698 0.024488 0.030523 66 68 59
-0.203002 0.239676 0.046798 14 17 16
0.263101 0.000870 0.260634 128 156 191
0.166516 -0.044522 0.250659 149 161 163
-0.352911 -0.130302 0.344239 90 127 128
-0.324266 -0.127397 0.334590 68 99 97
-0.058909 0.175336 0.005028 81 97 88
0.234657 0.094330 0.246139 154 164 169
0.166498 0.030647 0.251927 148 162 166
0.284138 -0.058505 0.244001 148 155 159
-0.055240 0.079996 0.044399 60 97 74
0.162077 0.333433 0.260393 146 152 150
0.135274 -0.097879 0.010834 116 129 116
0.140361 0.232763 0.251391 145 155 158
0.297557 -0.150769 0.011398 133 133 127
0.075086 -0.029776 0.006907 79 93 84
-0.000252 0.294480 0.182322 18 26 23
0.004418 -0.038217 0.007822 85 99 88
-0.244659 -0.116522 0.268000 18 26 25
0.118784 0.150820 0.046382 112 125 134
0.296208 0.292675 0.249582 164 166 172
0.237494 0.231870 0.241693 155 160 165
-0.414473 -0.028981 0.296314 60 68 57
-0.000398 0.190838 0.003012 83 97 88
0.314202 -0.041617 0.144970 127 135 136
-0.073701 -0.094650 0.005128 90 99 90
-0.111725 0.289203 0.130199 22 28 26
0.182258 -0.048082 0.254909 153 163 166
0.110864 0.208952 0.252209 153 160 164
0.268538 0.081732 0.254824 162 169 173
-0.198565 -0.155886 0.204381 29 37 34
-0.499072 0.000912 0.379229 253 251 243
-0.100269 0.341711 0.004177 40 49 42
0.308734 0.129934 0.253374 169 171 179
-0.172881 0.125454 0.004511 86 98 90
-0.267110 0.202050 0.189645 23 29 31
0.112172 0.039302 0.010685 27 35 32
0.181180 0.088372 0.251529 152 162 167
-0.235413 -0.088490 0.279342 74 31 37
-0.218474 -0.120197 0.227683 22 30 27
0.018355 0.072455 0.072293 92 129 106
-0.192209 -0.161306 -0.003904 127 141 130
0.090590 0.020542 0.006410 66 82 71
0.147463 0.141929 0.050911 104 120 130
-0.186659 -0.049289 0.020123 97 110 97
0.216031 0.193573 0.242753 152 159 163
0.131614 0.236760 0.043156 105 122 134
-0.476981 -0.001778 0.362557 146 141 153
0.227001 -0.147317 0.011683 128 129 123
0.055719 0.319264 0.232515 133 139 137
-0.342286 0.002114 0.273027 51 66 61
0.170603 0.081548 0.072791 110 126 136
0.125356 0.074947 0.242856 155 169 175
0.043798 0.302537 0.243248 145 153 150
-0.117051 -0.157215 0.001028 122 136 127
-0.012409 0.042192 0.011783 62 103 81
-0.098003 0.085225 0.008222 74 91 77
0.108741 -0.020668 0.009171 79 92 87
-0.531834 0.001002 0.387652 179 175 166
-0.268189 0.173925 0.000119 63 69 71
-0.247300 0.186070 0.051526 19 25 23
-0.100597 0.028147 0.005323 74 94 79
0.251764 -0.104691 0.015541 111 120 111
0.141107 0.100872 0.254286 149 161 165
-0.490118 -0.012864 0.363106 66 65 65
0.260018 -0.069664 0.028210 118 126 125
-0.144318 0.262934 0.030880 8 16 13
-0.297801 -0.089046 0.339626 89 102 97
0.152875 -0.155193 0.007491 123 127 120
0.251658 0.251238 0.244096 158 163 168
0.028609 0.059258 0.082512 95 132 109
0.219004 0.222802 0.242210 152 159 163
-0.120789 0.258800 0.174348 15 21 19
-0.301110 0.195944 0.016205 64 67 66
0.084709 0.087360 0.006539 60 73 68
-0.090584 -0.148131 0.000486 123 137 126
-0.145765 0.091688 0.015868 42 46 41
-0.130433 0.071382 0.005737 80 96 85
0.129689 0.100868 0.018703 45 59 63
0.073324 0.129068 0.001506 89 103 94
0.142649 0.100828 0.254381 150 162 166
0.143475 -0.168478 0.003845 129 133 126
-0.295466 -0.128321 0.310626 56 65 56
0.216498 0.043844 0.251209 133 127 129
-0.068957 0.262453 0.242028 157 168 168
0.026989 0.022630 0.042101 82 119 96
-0.032942 0.135774 0.007956 74 91 77
-0.219175 0.225154 0.104347 11 17 15
0.282450 -0.058678 0.244355 149 154 159
0.283498 0.001901 0.255929 167 172 179
0.049549 0.251147 0.016337 39 50 50
-0.075794 -0.129041 -0.003096 116 130 119
-0.417789 -0.019219 0.318144 96 107 105
-0.198980 -0.002577 0.005168 92 108 97
0.133107 0.124251 0.047501 109 125 135
-0.352264 -0.012995 0.299801 33 39 39
-0.265485 0.093231 0.011066 105 118 105
-0.113744 0.215606 -0.001366 61 75 64
-0.015390 0.062612 0.029858 80 117 96
0.163683 -0.087616 0.068129 153 166 163
0.003380 -0.171142 0.000237 128 133 121
0.180822 -0.007325 0.255798 158 170 172
0.305139 0.214357 0.254382 167 169 175
0.312260 -0.109983 0.015106 62 66 61
0.283298 -0.182566 0.011185 74 77 76
-0.252007 -0.184675 -0.001652 128 138 124
0.294089 0.344400 0.251804 164 164 168
0.199442 -0.037600 0.256986 152 162 165
0.236106 -0.024209 0.260264 164 167 166
-0.237216 0.214358 0.184960 13 21 18
-0.547380 0.006549 0.017205 95 96 83
0.367296 -0.148323 0.015822 131 132 123
0.140030 -0.032730 0.182179 150 167 170
-0.265495 0.202563 0.188983 22 28 30
-0.338317 -0.055520 0.004402 123 128 116
-0.533429 0.016962 0.397313 158 152 154
-0.301676 0.138511 -0.001260 137 141 134
-0.177611 -0.045750 0.191663 24 33 26
-0.424593 -0.007134 0.337212 251 255 250
-0.128552 0.067108 0.005894 78 95 81
0.191814 0.246695 0.248297 149 156 160
-0.501901 -0.030869 0.350410 28 32 27
0.229422 -0.052009 0.257024 153 165 167
-0.005757 0.206547 0.003796 80 92 84
0.148380 0.138827 0.251403 146 158 162
0.091533 0.282027 0.143279 66 83 95
-0.446021 -0.038135 0.321319 52 53 49
-0.506116 0.019008 0.386075 207 198 193
0.014080 -0.169260 -0.000225 119 129 117
0.213733 -0.086035 0.232704 130 141 141
0.288978 -0.004085 0.254533 167 173 175
0.158448 -0.083047 0.011444 117 129 119
0.072882 -0.167180 0.005654 127 134 126
0.168607 0.301918 0.253750 148 154 156
0.259976 -0.050857 0.251609 157 164 168
0.155059 -0.081982 0.130322 155 169 171
0.303476 -0.144003 0.012954 131 132 123
0.340457 -0.154821 0.013289 132 133 122
0.194907 0.117611 0.247095 152 162 167
-0.288940 -0.117937 -0.004559 123 132 123
-0.057576 -0.030530 0.051728 70 102 79
-0.056968 0.291247 0.022983 8 15 9
0.239818 -0.016711 0.261827 127 132 137
-0.054576 0.072981 0.033546 51 88 65
0.295624 0.169237 0.252578 165 170 175
0.081012 -0.003809 0.006509 68 81 76
0.332556 -0.115673 0.015761 125 126 120
0.037772 0.155923 0.000881 87 102 97
-0.269590 0.209752 0.236093 185 191 189
0.331034 -0.033544 0.077601 126 132 132
0.224057 -0.078075 0.062164 121 127 127
-0.240596 0.210548 0.134215 13 21 18
-0.542290 -0.013101 0.376995 102 97 93
0.301317 0.344800 0.251541 164 164 168
0.208758 0.198308 0.241747 152 159 165
0.046830 -0.013721 0.005962 66 81 78
-0.343338 -0.096145 0.370597 92 117 124
-0.152133 -0.133036 -0.002160 123 135 125
-0.327896 -0.128760 0.334533 110 144 143
0.202857 -0.083443 0.077070 125 131 131
-0.137993 0.051925 0.002446 78 95 81
0.061413 0.288449 0.137456 78 90 96
0.295174 0.143207 0.253388 166 168 174
-0.260010 -0.093628 0.300435 91 99 100
-0.426073 -0.036516 0.304400 55 61 61
-0.171912 0.201952 -0.002946 73 80 72
-0.228637 -0.122620 0.205112 44 57 52
0.086582 0.306336 0.254444 147 153 151
-0.090723 -0.155288 0.000517 124 138 127
-0.172969 -0.158533 -0.000847 124 136 126
0.157402 0.072167 0.062933 111 129 138
0.036667 0.037948 0.056675 95 136 112
0.011304 0.120078 0.021485 72 99 81
-0.331358 0.128004 0.017600 146 154 141
0.069753 -0.117113 0.006886 110 122 112
-0.079214 0.304048 0.123833 22 30 27
-0.086120 0.260649 0.246249 164 175 173
-0.297948 0.257775 0.003758 137 142 132
0.034217 -0.160085 -0.001375 118 130 122
0.005155 0.287396 0.046658 5 11 9
-0.386658 0.077982 0.071218 118 137 137
0.228394 0.276813 0.248855 152 159 163
0.163016 -0.182482 0.003517 136 137 128
0.130210 -0.189758 0.012351 134 139 127
-0.164380 -0.142912 0.000860 115 128 125
0.160672 0.308039 0.254137 145 152 156
0.325212 -0.076552 0.015912 107 108 102
-0.099731 0.249707 0.246387 168 179 179
0.166097 0.204682 0.057670 110 125 138
0.191545 -0.092735 0.024032 118 125 119
0.078121 0.216448 0.011907 38 50 52
-0.185793 -0.153098 0.200545 22 33 31
0.098742 0.162927 0.241374 152 166 172
0.115779 0.100196 0.011399 89 97 94
0.255257 -0.024289 0.260704 147 154 160
0.192716 -0.034206 0.256639 162 169 173
0.024722 0.178741 0.004466 86 98 88
0.164635 0.149537 0.250243 147 157 162
0.365377 -0.163671 0.013146 132 133 124
0.177007 0.251941 0.249306 150 156 158
-0.500505 -0.026647 0.355972 66 70 63
0.044220 0.286416 0.091118 13 21 20
-0.411261 -0.012510 0.325517 170 173 172
0.127851 0.038522 0.008030 76 87 83
-0.380965 -0.003673 0.299802 91 97 95
-0.323867 0.128460 0.016877 136 144 133
-0.167656 -0.150104 0.014201 65 68 69
-0.057362 0.152242 0.001936 85 99 90
0.046930 0.241668 0.016206 41 56 53
0.143015 0.024128 0.017543 34 41 45
-0.039453 -0.154470 -0.002499 112 124 114
0.285328 0.303959 0.251518 162 162 166
-0.265199 0.184556 0.085086 25 33 32
0.083337 0.075615 0.008730 57 65 64
0.283133 -0.067063 0.015599 88 89 85
-0.366307 -0.052065 0.331685 134 164 169
-0.515578 -0.009379 0.373919 127 128 119
-0.195628 0.215474 0.240626 172 184 186
0.143262 0.241662 0.250809 144 154 157
0.258393 -0.049619 0.252396 155 162 166
0.024944 -0.124030 0.005287 31 47 38
0.345584 0.233943 0.251512 170 172 178
0.110729 0.194974 0.039635 109 122 133
-0.048623 -0.193206 0.005065 125 137 127
0.172113 0.145405 0.060364 108 119 128
0.062821 0.289698 0.013367 35 52 55
-0.303111 -0.107378 0.336534 89 102 97
0.101637 0.108210 0.008235 89 103 94
0.253868 0.000606 0.260976 68 88 112
-0.228473 -0.141699 0.215751 59 62 61
0.169451 -0.037839 0.253728 148 162 166
-0.065711 0.059297 0.027452 52 89 66
-0.312421 -0.125817 0.317881 62 69 63
0.104789 -0.079059 0.010376 108 120 110
-0.018480 0.083896 0.049502 66 103 80
-0.179872 -0.042465 0.006980 95 108 95
-0.098040 0.189658 -0.000508 81 95 86
0.081825 0.282428 0.145494 82 98 108
-0.130028 0.157807 -0.001130 75 87 77
-0.340443 -0.104628 0.368446 125 166 172
0.247940 -0.103258 0.016842 67 75 72
-0.283060 0.196463 0.000468 137 147 135
0.118049 0.120686 0.009675 81 92 88
-0.284214 0.104976 0.000363 117 129 119
-0.211263 0.312560 0.031443 46 53 47
0.003449 0.298178 0.111992 11 17 17
0.325043 -0.047110 0.029575 113 121 120
-0.147870 0.191759 -0.000989 65 79 68
0.291563 0.103890 0.255241 165 170 177
-0.005886 0.265778 0.029222 9 15 13
-0.083125 -0.052370 -0.002025 99 114 98
-0.019137 -0.123267 0.002467 115 129 120
0.142696 0.223776 0.066433 81 98 112
0.215477 0.284385 0.249859 152 159 163
0.341454 0.088693 0.253848 169 174 179
0.188313 0.001373 0.255426 155 162 166
-0.199632 0.218523 0.223775 36 48 54
-0.147363 0.027529 0.001480 86 101 85
-0.277398 -0.118333 0.296951 118 129 127
-0.059164 0.006417 0.018737 34 68 46
-0.089527 0.341007 -0.001587 35 44 37
0.252441 0.099973 0.252027 158 168 171
-0.256750 -0.156638 -0.001468 129 136 130
0.155658 -0.084651 0.180920 147 161 163
0.057058 -0.167245 0.005893 90 99 92
0.124358 0.150484 0.047053 107 120 131
0.180473 0.252154 0.249126 149 155 157
0.145286 -0.055150 0.018448 47 59 51
0.012128 0.295159 0.088328 8 14 12
-0.276852 -0.094984 0.322244 87 101 92
-0.352839 -0.101002 0.369220 132 171 176
0.249260 -0.090917 0.013209 83 80 77
-0.169505 -0.150957 0.004157 127 136 129
-0.490265 0.049082 0.098853 149 153 146
0.184343 0.122057 0.067613 109 125 135
0.165306 -0.082255 0.241889 151 164 163
-0.296337 -0.129257 0.288391 42 50 47
0.312262 0.148845 0.253953 165 170 175
0.132853 0.035696 0.009794 88 101 96
0.061558 -0.083806 0.007323 91 103 93
0.008923 0.297712 0.142234 11 17 15
0.037319 -0.046773 0.005027 82 96 87
0.100317 -0.067830 0.010761 105 116 112
-0.458827 -0.008835 0.352134 160 160 156
-0.275623 -0.094792 0.321844 87 101 92
0.220272 0.100659 0.244757 154 164 167
0.127152 -0.002814 0.009501 99 112 107
0.123607 0.012328 0.006989 80 94 85
-0.327714 0.306396 0.000013 147 148 135
-0.510134 -0.030832 0.355339 31 35 30
0.263972 -0.040531 0.253890 160 170 173
0.163429 -0.093613 0.053996 153 164 162
0.270205 -0.026767 0.256058 163 168 173
0.282214 0.250260 0.248388 162 168 170
-0.294581 -0.116345 0.322138 73 87 78
0.144534 0.166932 0.041931 114 124 129
0.186778 0.235734 0.248728 151 156 161
0.008861 0.214427 0.002635 73 85 77
0.364337 -0.117618 0.016293 122 126 121
-0.242603 -0.123549 -0.003906 120 129 120
0.218175 0.195908 0.242400 153 160 164
-0.303195 -0.116148 -0.004485 124 133 124
0.145755 0.200094 0.042983 109 126 140
-0.178751 -0.054010 0.202635 17 26 19
0.282991 -0.010948 0.254663 161 171 174
0.117219 0.113677 0.010517 86 97 93
-0.072893 -0.179314 0.012222 80 95 92
-0.221539 0.125983 -0.001354 107 117 105
-0.141898 0.184036 0.000504 75 84 77
-0.234845 -0.080491 0.257914 255 216 208
0.204680 0.265937 0.248475 151 157 159
-0.074461 -0.024068 0.015847 48 60 52
0.303433 0.170291 0.253961 165 170 175
0.086399 0.258326 0.249954 146 157 157
-0.002023 0.277682 0.240717 142 155 154
-0.180543 -0.130107 0.196119 26 32 32
0.137850 0.160930 0.252821 147 157 162
0.147603 -0.166357 0.002461 127 134 126
0.049977 0.354179 0.199464 145 151 149
-0.008352 0.275214 0.235961 112 111 118
-0.445959 -0.111297 0.233815 90 101 101
0.235890 0.248761 0.244200 148 158 161
0.002910 0.297434 0.085139 11 17 17
0.194812 -0.194241 0.009176 134 139 129
0.171759 -0.028772 0.255322 151 163 167
-0.530047 0.021150 0.395719 252 232 224
0.345212 -0.139762 0.017288 71 66 64
0.312844 -0.055093 0.019861 60 59 61
0.290987 0.262641 0.249062 164 167 170
0.247224 0.278557 0.249720 158 163 168
0.108981 0.085602 0.018994 24 35 31
0.152283 0.015212 0.251423 147 164 167
0.147943 -0.064575 0.018160 75 82 76
0.129113 -0.068150 0.011927 111 121 109
0.266394 0.280846 0.249979 160 166 168
0.238241 -0.069974 0.070222 123 131 130
0.016390 0.223605 0.010657 17 25 22
0.139712 0.102616 0.254430 151 163 167
0.114812 0.315211 0.262098 149 153 148
0.173317 0.059671 0.079838 117 132 145
0.357132 -0.034222 0.041441 120 126 126
0.264631 0.030866 0.256169 163 171 172
0.358356 -0.149951 0.015190 130 131 122
0.258075 0.296678 0.251677 162 165 168
0.097824 0.254321 0.040929 97 113 121
0.188936 -0.076891 0.248043 152 164 168
-0.202028 -0.124648 0.210923 13 20 14
-0.213499 -0.158575 0.217125 31 42 42
-0.138001 -0.168931 -0.001661 117 129 119
-0.451804 -0.000624 0.353844 247 238 229
0.386682 -0.180411 0.016752 134 135 122
-0.035489 0.350710 0.033894 39 48 41
-0.212036 -0.198172 -0.003188 133 140 134
0.274130 -0.052946 0.102309 118 126 125
-0.249579 0.205033 0.153961 16 22 20
-0.197524 0.284712 -0.001980 32 40 37
0.222469 -0.072949 0.250309 152 162 165
-0.159602 0.161749 -0.000591 86 94 83
-0.341173 0.266062 0.001393 177 174 160
0.099933 -0.071677 0.010889 107 119 111
-0.115271 0.340825 0.015337 41 50 43
0.034580 -0.055283 0.007161 27 38 38
0.242721 -0.139792 0.010552 123 132 123
-0.160093 0.238673 0.031534 6 12 10
-0.130745 -0.061259 0.000893 95 114 104
-0.222345 0.224861 0.114224 11 17 15
0.220647 -0.073577 0.084796 125 133 132
-0.108428 -0.167818 0.000974 122 134 124
-0.237494 0.212721 0.128091 13 19 17
-0.007328 0.285825 0.205745 22 30 31
0.120924 0.110500 0.045040 125 142 147
0.311975 -0.179097 0.011305 124 126 117
-0.459860 -0.015697 0.345799 138 142 137
-0.021836 0.285939 0.252979 150 159 152
-0.335761 0.156365 0.013957 141 146 134
-0.348074 -0.117324 0.360755 121 157 163
0.173644 -0.179237 0.004611 134 138 131
0.212191 0.149493 0.248497 154 164 167
0.046380 -0.023124 0.004680 70 89 79
0.355035 -0.032589 0.180892 146 151 156
-0.079496 0.346283 0.045305 34 41 33
0.284820 0.076442 0.254819 164 169 174
0.215707 0.035858 0.249777 158 164 164
-0.017211 0.277057 0.026619 6 14 11
0.367526 -0.137621 0.016184 122 130 119
-0.044152 0.044778 0.010220 34 66 45
-0.431122 -0.092217 0.278497 36 58 59
0.256543 -0.053969 0.251294 161 168 172
-0.113493 0.041629 0.002591 76 91 77
0.283257 0.132973 0.254029 166 168 174
-0.195008 0.220758 0.040569 5 11 9
0.022419 0.294411 0.137930 4 15 11
0.318381 0.113239 0.252979 167 172 179
-0.358558 -0.063506 0.347878 137 172 175
0.224085 0.030667 0.249790 168 165 162
0.127227 -0.136520 0.004882 118 126 123
-0.210254 -0.199948 -0.002937 131 140 133
-0.026088 -0.068635 0.006521 99 118 108
0.170489 0.241192 0.249406 149 156 160
0.292040 0.143310 0.253186 166 168 174
-0.242861 -0.101067 0.280679 28 40 42
-0.151302 0.232185 0.248796 176 187 185
-0.015870 0.354833 0.045263 33 42 35
-0.232536 -0.150112 0.213930 28 35 39
0.120785 -0.058890 0.012660 103 111 110
0.135488 0.293954 0.252163 147 153 155
-0.063924 0.262318 0.242287 155 166 166
-0.139719 0.230906 0.245568 164 177 176
0.148059 0.003326 0.082364 137 151 155
-0.494714 0.005256 0.379593 222 213 206
0.083782 0.101956 0.007477 67 75 72
-0.105443 0.239009 -0.000807 61 69 66
0.060296 0.104797 0.010034 72 87 84
0.339437 0.100149 0.253309 172 174 180
0.182342 -0.190063 0.006080 133 135 126
-0.319660 -0.128948 0.311874 56 65 58
-0.408983 0.121160 0.175357 141 169 173
-0.288130 -0.083793 0.004619 117 126 117
-0.395478 0.002529 0.316289 109 109 109
-0.312944 -0.117450 0.346459 118 155 158
0.006340 0.296061 0.249600 151 154 153
-0.235433 -0.067878 0.274250 18 26 23
-0.246968 -0.105817 0.277866 23 37 41
-0.172697 0.004954 0.043817 11 24 19
0.132304 0.016393 0.011833 91 100 93
0.258061 0.099091 0.253461 160 170 173
0.129259 -0.103493 0.010932 126 133 125
0.073388 -0.089959 0.008994 101 113 103
-0.227920 -0.152614 0.216976 24 32 31
-0.432410 -0.022238 0.325940 117 125 122
-0.195769 0.011654 0.054952 89 104 90
0.100349 0.191659 0.041153 126 140 144
0.183280 0.038335 0.251030 142 159 164
0.289336 0.005925 0.254884 167 172 177
-0.272087 -0.099596 0.316687 68 79 77
0.145461 -0.069356 0.163631 156 168 170
0.097780 -0.165235 0.004980 121 130 121
0.132493 0.062156 0.234150 155 165 170
0.080484 -0.173230 0.008756 50 56 54
-0.321158 -0.115095 0.356237 120 162 163
-0.197697 0.015542 0.000315 80 96 85
-0.008386 0.151318 0.004373 88 102 93
-0.278147 -0.184030 -0.004395 131 135 128
0.148991 0.246335 0.250371 146 156 159
0.357123 -0.134247 0.017001 105 105 99
0.084471 -0.188739 0.008001 128 137 128
0.117848 0.238745 0.043446 101 121 134
0.095570 0.285070 0.124649 63 75 91
0.392725 -0.043378 0.015063 96 98 89
-0.401548 -0.027909 0.288632 44 50 48
-0.455264 -0.007172 0.351975 168 168 164
0.116819 0.306648 0.257114 148 156 157
0.229196 0.284533 0.249974 153 159 161
-0.037152 -0.135285 -0.000158 50 53 54
0.026800 -0.160618 0.000692 41 49 38
0.187139 -0.090187 0.138787 128 139 137
-0.071088 -0.141130 0.001235 38 53 48
-0.228858 -0.096866 0.271070 36 33 30
0.177896 0.010292 0.254517 154 164 167
-0.107577 0.231445 -0.000171 64 70 68
-0.381842 0.107977 0.171939 129 162 166
0.096891 -0.030304 0.008511 88 97 88
-0.101524 0.225343 -0.001663 64 77 72
0.105916 0.252043 0.250249 144 154 157
-0.135912 0.167478 -0.002327 73 86 73
-0.533069 0.005230 0.392501 145 145 141
0.299553 0.246889 0.250219 167 166 173
0.278715 -0.195766 0.008095 138 139 128
0.233813 0.296149 0.251762 155 160 165
-0.401046 -0.018508 0.300388 61 69 68
-0.300997 0.054634 0.202691 59 58 65
-0.083192 -0.191946 0.007165 125 134 127
0.217898 -0.075777 0.249475 152 162 165
-0.489111 -0.014453 0.133893 122 123 119
0.170220 0.300136 0.253324 148 154 156
-0.251997 -0.105525 0.294337 161 176 171
-0.476797 0.007320 0.367449 59 61 67
-0.047772 -0.070213 0.005404 100 117 103
-0.344339 -0.036538 0.299856 124 148 146
0.145133 0.108255 0.053530 104 119 136
0.171224 0.076335 0.074948 112 128 138
-0.139796 0.240773 0.251179 175 188 187
0.025242 0.296865 0.249105 148 154 152
0.083744 0.268126 0.250912 146 157 157
-0.181594 0.233393 0.039159 6 12 10
-0.160699 -0.164949 -0.003480 130 140 126
-0.196449 -0.097824 0.222084 19 27 26
0.146408 0.081799 0.051984 106 127 133
-0.136239 0.244252 0.023496 7 13 11
-0.110657 0.257099 0.187734 16 22 22
0.037346 0.289283 0.124083 13 19 17
0.080382 0.243131 0.247804 144 156 160
-0.312234 -0.083863 0.360368 120 156 162
0.369391 -0.094520 0.019404 76 74 66
0.127768 0.240645 0.044287 102 122 133
-0.134425 -0.069626 0.002976 105 123 117
-0.000035 0.285368 0.241904 148 159 159
-0.488186 -0.025280 0.348746 50 53 54
-0.081500 0.219808 -0.000008 30 43 40
0.328632 0.125994 0.253913 169 171 177
0.238578 0.290778 0.250514 150 157 161
0.292314 -0.138365 0.012102 123 128 118
-0.118101 -0.060197 0.003421 107 123 114
0.370127 -0.187053 0.015370 131 129 121
-0.344600 -0.107131 0.235945 100 104 97
0.032781 -0.174898 0.001198 123 134 130
-0.331540 0.189111 0.004269 143 147 140
0.165954 0.146205 0.055131 108 121 132
0.101497 0.280896 0.064173 88 104 114
-0.297873 -0.111402 -0.001917 70 77 69
-0.004881 0.291150 0.188897 20 28 27
0.340902 -0.139163 0.015138 121 128 120
-0.173721 0.188889 -0.000463 96 103 95
-0.033558 0.261062 -0.000175 49 63 54
0.016713 0.296085 0.178024 19 27 24
0.337414 0.277697 0.247589 169 169 173
-0.049479 0.222139 0.004358 74 89 84
0.118443 -0.198857 0.006841 129 136 128
0.220145 0.232469 0.243182 152 159 163
0.229905 -0.043559 0.259619 152 164 166
0.321744 0.281969 0.249836 167 167 171
0.102108 -0.115229 0.006911 122 129 121
-0.254046 -0.100390 -0.001427 110 117 111
0.169833 0.193527 0.247164 148 158 161
0.044633 0.282116 0.061421 13 19 17
0.388470 -0.016484 0.087099 137 140 139
-0.002112 0.293119 0.247841 151 157 155
0.236671 -0.070656 0.248916 156 161 166
-0.284338 -0.085337 0.329154 83 95 87
0.009313 0.297383 0.125104 11 17 15
0.007795 -0.079750 0.006053 94 106 96
-0.256292 -0.086742 0.301533 75 81 81
0.330152 -0.041371 0.246396 163 165 171
-0.242703 -0.125113 0.240447 31 39 38
-0.425120 -0.081907 0.285548 57 63 61
0.255810 0.103123 0.252957 159 169 172
0.090792 0.228898 0.247527 145 157 159
0.312868 0.050380 0.253761 168 173 180
-0.226030 -0.031047 0.230906 13 19 19
0.008454 0.297334 0.145573 12 18 16
-0.031426 -0.127766 -0.000978 115 129 118
0.321884 -0.169628 0.008613 94 99 108
-0.236438 -0.097155 0.278587 33 39 39
0.004114 0.297627 0.091191 10 18 17
-0.124846 0.237934 0.247414 174 187 186
0.266346 0.179857 0.248485 162 167 172
0.020369 0.069697 0.069776 94 131 108
0.215072 -0.110337 0.009666 113 120 112
0.112901 0.291160 0.252370 144 155 155
0.265807 0.052321 0.255659 162 169 173
0.372959 -0.096175 0.018780 113 114 103
0.173280 -0.083101 0.243956 151 164 163
-0.103101 -0.039111 -0.001276 95 109 98
0.135771 -0.109105 0.011187 133 137 130
0.240465 0.177365 0.245997 153 163 166
-0.030443 -0.040176 0.007515 85 102 88
-0.093957 -0.142504 -0.000399 119 135 124
0.261793 -0.068094 0.232623 129 134 139
-0.290174 0.071282 0.016695 115 127 117
-0.042028 0.352039 0.038602 38 46 43
0.351784 -0.146463 0.015529 134 130 121
0.153563 0.026538 0.021432 109 122 121
0.224233 0.286384 0.250243 153 159 161
-0.376014 -0.007526 0.295382 82 89 83
0.284075 -0.188796 0.015480 122 122 116
-0.321253 -0.093862 0.366308 129 166 169
-0.323941 -0.194296 -0.004852 137 146 139
0.073079 0.257100 0.248637 145 157 159
0.134848 0.059803 0.247015 160 172 176
0.285856 -0.059664 0.194689 143 146 147
0.161203 -0.157301 0.001906 133 138 128
-0.091216 0.246878 0.242426 161 172 172
0.126342 -0.062073 0.010895 105 115 103
0.232202 -0.060114 0.253787 154 164 167
0.030076 0.079841 0.058107 79 108 88
0.365794 -0.092884 0.020083 78 75 72
0.277971 0.143837 0.252189 164 169 174
-0.171442 0.226948 0.213664 21 29 30
0.030138 0.169613 0.004570 86 99 94
0.154098 0.010724 0.253360 147 161 165
-0.191979 -0.117500 0.212594 18 29 27
0.202985 0.098546 0.247667 152 162 167
-0.462444 -0.028247 0.336004 76 84 81
0.165939 -0.066608 0.242539 152 165 164
-0.195996 0.122345 0.005886 96 105 96
0.211518 -0.081470 0.156358 127 135 134
0.147371 -0.148951 0.004205 131 139 128
0.199811 0.188201 0.244169 153 160 164
0.323963 0.163085 0.256076 169 171 177
0.142151 -0.037267 0.221276 155 169 171
0.215390 0.198311 0.241870 152 159 165
0.308324 0.081120 0.253615 165 170 175
0.182556 0.144095 0.070207 108 120 134
0.168459 -0.001830 0.254783 151 163 167
0.326059 0.182541 0.256595 171 170 177
0.119348 -0.161592 0.004639 126 134 123
-0.289390 -0.127469 0.308618 57 69 59
-0.157152 0.090035 0.001985 82 95 82
0.145139 -0.036774 0.114551 135 146 146
-0.087247 0.133897 0.002412 73 87 76
0.223755 -0.045178 0.259531 152 164 168
0.201007 -0.089583 0.233451 130 141 139
-0.298130 0.141585 -0.002775 139 149 137
0.122056 0.259358 0.051308 97 113 123
0.271761 -0.062278 0.208258 138 146 147
0.162334 -0.012158 0.255146 147 161 165
-0.055826 0.090744 0.055759 62 94 75
-0.243709 0.208731 0.139799 14 20 18
0.181640 0.149662 0.247694 150 160 165
-0.125305 0.274097 0.146284 18 24 22
-0.013231 0.348408 0.017338 30 37 31
-0.172921 0.318837 0.026983 34 41 35
0.323923 -0.189651 0.011641 131 133 122
0.081049 -0.027355 0.005788 76 92 83
-0.189053 0.231435 0.251431 176 187 183
0.244913 0.116255 0.249993 158 168 171
-0.501574 0.083244 0.271927 158 151 143
0.117899 0.147786 0.249109 143 157 161
-0.262973 -0.118053 0.008216 31 43 35
0.143702 0.153880 0.251901 147 157 162
-0.088139 0.244773 0.019962 11 17 15
0.288498 0.096389 0.255283 169 171 177
-0.251816 -0.151161 -0.001988 127 136 127
0.265237 0.347546 0.255038 158 161 164
0.151410 0.226425 0.079676 94 114 127
0.232955 -0.190158 0.006418 133 138 128
-0.308937 -0.126268 0.315657 59 68 61
0.317355 0.085275 0.253015 170 172 178
-0.207073 -0.033614 0.222785 12 18 18
0.157758 -0.019076 0.252333 171 181 186
0.237756 0.020068 0.253353 143 150 172
0.095728 0.284760 0.075131 83 99 109
0.294994 0.001445 0.253805 165 170 175
0.158702 -0.043249 0.247904 149 163 165
-0.505741 -0.012122 0.368914 126 128 119
0.173494 0.125792 0.060781 110 125 138
-0.038920 0.069238 0.024439 47 81 61
-0.533424 0.038256 0.031156 95 99 94
0.328760 -0.042640 0.245592 160 159 166
-0.225564 -0.140628 0.217036 60 63 62
-0.108296 0.256023 0.253604 171 182 178
-0.008710 0.356565 0.036683 40 49 42
0.215629 -0.002738 0.257200 150 157 161
-0.238193 -0.101272 -0.004441 83 92 85
-0.029629 -0.126089 -0.000451 117 131 120
-0.064075 0.030225 0.019490 37 74 53
0.205027 0.014508 0.244176 152 167 166
-0.244092 0.211211 0.183393 14 22 19
0.211586 -0.079804 0.147679 127 135 136
-0.087941 -0.100941 0.001401 106 125 115
-0.174921 -0.012822 0.001261 89 102 89
0.149367 -0.044649 0.243877 151 164 163
0.110266 0.063509 0.012336 29 34 39
-0.004011 0.349955 0.028872 35 44 37
-0.432880 0.026695 0.325922 155 157 148
0.061342 0.284751 0.233939 96 106 111
0.287929 -0.000916 0.254925 167 172 177
0.313664 -0.186369 0.012500 126 126 122
0.289923 0.399713 0.236158 161 160 162
-0.334135 -0.100262 -0.002350 121 131 119
0.198994 0.121926 0.246410 151 161 166
-0.200992 -0.077605 0.230264 21 29 28
-0.398759 0.003609 0.325016 113 109 110
0.277647 -0.053321 0.065545 120 128 127
-0.202431 -0.027100 0.229967 25 31 29
-0.158489 0.011189 0.001506 86 103 87
-0.497525 0.038722 0.092404 140 141 135
-0.327520 0.149519 0.014434 139 148 139
-0.296204 0.177520 -0.002616 142 149 141
-0.507492 -0.032978 0.351393 24 28 23
-0.530288 0.060149 0.117891 167 168 162
0.113553 0.146130 0.023570 110 122 124
-0.151360 0.240218 0.254066 173 186 183
-0.118181 0.254628 0.022482 7 13 11
-0.183020 0.222179 0.222107 31 41 44
0.218110 0.215136 0.241407 150 157 161
0.015551 0.044805 0.041837 84 123 99
0.313687 -0.051577 0.225697 146 151 156
0.157366 -0.112232 0.009489 121 132 128
0.046606 0.175128 0.003173 72 83 81
-0.157592 0.155567 -0.001590 85 93 82
0.201293 0.221017 0.244078 150 158 159
0.163746 0.118944 0.250123 146 158 162
0.252703 0.166221 0.247844 159 166 170
0.269605 0.216703 0.248208 164 166 172
-0.466333 0.024367 0.346288 174 172 164
-0.478756 0.022864 0.369598 80 80 80
-0.313066 -0.118334 0.345370 121 158 161
-0.121758 0.237045 0.001984 61 76 62
-0.072496 -0.038696 0.008327 90 104 93
0.128147 -0.174378 0.006304 126 133 125
-0.100840 -0.133259 -0.001162 116 124 123
0.295503 0.048578 0.253508 167 169 177
0.349919 -0.128417 0.015640 125 126 122
0.240841 0.075145 0.250345 158 168 171
-0.198048 0.212050 -0.000828 76 88 80
0.062771 0.063579 0.011536 46 59 58
-0.387136 -0.117180 0.309825 91 98 90
0.174684 0.034221 0.251926 150 162 166
0.068227 0.285451 0.108432 99 116 121
-0.162804 0.320337 0.011477 35 42 36
-0.050567 -0.163952 -0.000276 123 135 127
0.162550 -0.057383 0.243462 152 162 165
0.155130 0.024302 0.057639 125 142 147
0.329053 0.269905 0.251377 167 170 173
0.309635 0.003790 0.252847 167 172 177
-0.320054 -0.199569 -0.004338 144 148 141
-0.418280 -0.030735 0.281769 44 44 44
-0.310384 -0.106398 0.352381 112 146 156
-0.482388 0.062133 0.288324 165 166 157
0.114621 0.064522 0.010266 33 43 46
-0.258871 0.205562 0.207269 26 34 33
-0.018760 -0.071733 0.004540 102 118 109
-0.133957 0.147523 -0.002898 72 88 77
0.054958 0.181794 0.003656 82 90 87
-0.074003 0.071549 0.044464 56 97 75
0.019968 -0.088941 0.005486 82 94 84
0.171941 -0.166674 0.003746 128 136 125
0.000307 0.287155 0.036723 5 11 9
0.217733 -0.048001 0.258600 153 163 168
0.306958 -0.049874 0.041857 119 127 126
-0.287113 0.119161 -0.001887 116 128 118
0.007215 0.288280 0.216122 30 36 38
0.208585 0.077303 0.249258 153 163 166
-0.488723 -0.022676 0.351977 56 64 61
0.111594 0.276736 0.251473 144 155 155
-0.329477 0.273334 0.001598 138 146 135
-0.501247 -0.029284 0.352827 42 48 46
0.298296 0.119702 0.254219 165 170 175
-0.221428 0.221020 0.094145 12 19 13
0.270873 0.012427 0.258308 164 169 174
0.173517 0.117911 0.249047 149 161 165
-0.052084 0.199499 0.003137 77 93 84
0.201111 0.028444 0.244108 123 130 134
-0.335585 -0.048887 0.001981 118 128 114
0.080569 -0.069171 0.008973 102 114 104
-0.324428 0.225776 0.001324 145 147 136
0.170749 0.144567 0.249179 148 158 161
0.020919 -0.072150 0.006083 80 94 83
0.025966 0.238655 0.005764 73 84 82
0.049454 0.287784 0.152536 17 25 24
-0.179931 0.081392 0.006205 100 113 100
0.102503 0.281672 0.117111 69 86 102
0.047356 0.015910 0.048508 70 89 77
0.162429 0.081602 0.253175 149 161 165
-0.156911 0.054418 0.005802 86 99 84
0.240018 0.026827 0.250653 157 165 166
-0.259169 0.197240 0.140599 14 22 21
-0.034313 0.352665 0.044446 43 50 44
0.381101 -0.124762 0.015770 123 124 115
-0.334822 -0.072208 0.359347 129 159 164
0.224694 -0.114555 0.011457 129 131 122
0.279320 0.335139 0.254016 160 163 166
0.081236 0.217806 0.240569 143 159 167
0.281608 -0.009477 0.255043 163 170 174
-0.273528 -0.119447 0.285710 90 102 94
0.164316 0.129448 0.054118 110 125 138
-0.121505 0.243717 0.248060 175 188 187
0.219748 0.309747 0.253516 151 157 159
-0.335142 -0.114378 -0.004437 128 138 126
-0.283453 -0.125841 0.268862 83 95 87
0.116808 0.252005 0.044687 98 115 127
0.076681 -0.163659 0.005720 132 139 131
-0.272759 -0.028283 0.238029 68 70 54
-0.275734 0.170558 0.001901 102 111 104
0.270412 0.059672 0.255394 160 170 173
0.258975 -0.085449 0.013779 97 105 94
0.214270 0.035981 0.249542 127 133 133
0.247982 0.198937 0.244317 156 163 169
0.172818 0.153654 0.068518 74 71 68
0.024165 0.293915 0.138588 8 19 15
0.218300 -0.074265 0.091501 125 133 132
-0.206492 0.218351 0.044082 5 11 9
-0.307577 -0.087602 0.356702 127 162 165
0.349763 -0.139190 0.015269 126 124 116
0.274148 -0.063613 0.237275 141 147 149
0.387921 -0.025859 0.025393 118 124 124
0.251428 0.334952 0.253627 160 160 164
-0.237240 0.099383 0.040559 35 43 40
0.341048 -0.137474 0.015557 118 127 118
0.151326 0.082674 0.254156 156 168 172
-0.326831 -0.094974 0.368471 131 168 171
0.160031 -0.046121 0.247107 148 163 162
0.246155 -0.104873 0.016082 91 95 88
-0.017116 0.287008 0.029737 5 11 9
0.002021 -0.128549 0.001896 116 130 121
-0.247010 -0.109306 0.275606 22 34 38
0.311929 0.266614 0.249859 164 167 170
0.080777 0.160046 0.006276 79 92 89
-0.356658 -0.133618 0.287964 69 72 71
0.309264 0.201911 0.254691 164 169 174
0.191912 0.085162 0.089486 114 129 142
-0.031367 0.174520 0.006883 84 97 82
0.244104 0.230137 0.241377 155 160 165
0.388569 -0.015991 0.116173 144 147 146
0.042757 -0.103174 0.003430 89 103 92
0.071269 0.282466 0.142327 89 101 105
0.124249 0.156460 0.253330 149 161 165
-0.335212 -0.108626 0.247369 121 130 121
0.183339 0.217056 0.246079 150 157 161
0.295436 -0.116919 0.013594 126 127 121
-0.086122 0.246849 0.020447 9 15 13
-0.321456 0.281008 0.004769 138 140 129
-0.012453 0.040306 0.011397 61 102 80
-0.106395 0.015636 0.005954 75 87 77
-0.273133 -0.079080 0.319355 44 54 57
0.266173 0.197926 0.248578 161 166 171
0.153509 0.201765 0.044089 113 125 141
0.190619 -0.137168 0.007440 124 133 124
0.326798 0.124271 0.253618 169 171 177
-0.526982 0.015946 0.394542 156 153 150
0.187795 -0.085325 0.097112 128 139 139
-0.248070 0.200821 0.100627 15 21 19
0.194210 0.078269 0.250366 151 161 166
-0.470078 -0.020744 0.343882 113 120 112
0.120525 0.215779 0.039501 109 127 136
-0.231411 -0.098938 0.272372 33 33 33
0.378955 -0.161491 0.011604 115 115 109
-0.273388 -0.092610 0.320278 85 99 90
0.234940 0.239410 0.242704 150 157 161
-0.258960 -0.114368 -0.004059 120 130 116
-0.007734 0.262990 0.008334 54 65 63
0.045511 -0.144611 0.001165 114 126 116
-0.329930 0.249255 0.001574 82 83 74
0.028740 0.264053 0.011015 62 74 66
0.174059 0.148958 0.061754 80 89 101
0.173051 0.247630 0.249319 149 155 157
0.057269 0.082631 0.007064 50 66 55
0.149640 0.009258 0.014546 103 114 110
-0.261094 -0.097444 0.000953 115 127 117
0.017339 -0.191242 0.003906 121 133 125
0.071106 -0.051883 0.008752 86 100 91
-0.172101 0.258067 0.037507 15 22 16
-0.496587 -0.031588 0.343947 37 43 41
-0.335399 0.026466 0.259875 66 76 79
0.314912 0.197657 0.255049 165 170 175
0.064860 0.375553 0.176616 133 134 130
-0.189493 -0.034542 0.210972 16 22 20
0.183905 -0.117425 0.008549 135 136 132
0.142300 -0.033343 0.168187 152 166 170
-0.091896 -0.124550 0.000251 118 132 123
-0.338321 -0.131782 0.325261 54 66 68
-0.272262 -0.123032 0.272967 86 101 87
0.176842 -0.022600 0.256246 152 164 168
0.263494 -0.081427 0.013057 90 97 89
-0.186489 -0.181454 -0.000615 128 132 125
-0.292102 0.231424 0.007818 135 143 128
0.201878 0.154047 0.247403 151 161 164
0.235825 0.062815 0.249687 157 169 175
0.102276 0.201696 0.199912 95 112 126
-0.358577 -0.128820 0.347007 102 139 142
-0.110233 0.162869 -0.001781 65 80 77
-0.011317 0.083020 0.051311 68 105 82
-0.328025 0.109281 0.032465 132 141 134
0.120671 -0.121358 0.009107 49 56 50
-0.225180 0.219604 0.092882 12 18 16
0.000792 0.298195 0.117941 14 17 16
0.336889 -0.028488 0.114543 128 134 134
0.165265 0.055159 0.252222 151 163 167
0.289518 0.092882 0.255005 167 172 177
0.346477 0.211260 0.253934 173 172 179
-0.220569 -0.157377 0.217943 32 45 42
0.323223 0.184575 0.256497 172 171 178
-0.339470 -0.116308 0.361599 118 157 164
0.226985 0.350937 0.255453 157 160 163
0.113738 0.187536 0.040725 109 122 131
-0.162237 0.017052 0.006690 50 64 53
0.216787 -0.089244 0.013585 71 72 68
-0.071141 -0.057815 0.007909 47 55 52
-0.303129 -0.113034 0.333595 81 92 90
-0.015275 0.092312 0.057348 66 103 82
0.272433 0.004102 0.257959 165 170 177
-0.034858 0.269686 0.241790 151 164 163
0.235632 0.263662 0.246760 154 159 164
-0.344107 -0.104620 0.368378 128 169 173
0.108009 -0.167149 0.005569 125 134 125
0.386303 -0.066024 0.018975 108 112 105
0.019697 0.269221 0.035148 8 16 13
0.317890 0.248155 0.251594 168 167 174
0.199972 0.034556 0.245688 102 110 111
0.163885 0.305983 0.254034 147 154 158
0.208927 0.050223 0.249313 163 169 171
0.252972 -0.009999 0.261934 161 169 170
-0.012512 0.069940 0.040285 74 111 86
0.107235 0.249576 0.250690 144 154 157
0.080861 0.225888 0.011885 47 58 56
0.177853 -0.137434 0.008340 127 135 124
-0.195316 0.240790 0.165013 15 23 20
-0.493979 -0.018857 0.131685 86 93 87
-0.041109 0.335498 -0.003625 27 36 29
-0.493758 0.034392 0.085525 133 135 126
0.081183 0.098684 0.009622 63 66 69
-0.074706 0.007036 0.031079 43 77 55
-0.109706 0.343702 0.035018 29 38 31
-0.098375 -0.078742 0.002214 107 121 110
-0.055418 0.003274 0.016773 33 67 45
0.366741 -0.178291 0.015218 132 133 124
-0.244740 0.216898 0.242983 183 191 190
0.322363 -0.067741 0.017874 97 98 87
-0.264527 0.182363 0.001332 121 130 121
0.116199 -0.057692 0.009265 107 120 107
-0.195612 0.298825 0.002623 40 49 42
-0.541448 0.027757 0.401199 168 161 151
-0.384287 0.088921 0.174712 129 157 161
-0.441294 -0.013472 0.339797 200 200 194
-0.297237 0.134649 0.001852 129 132 131
-0.325974 0.112904 0.021678 137 150 137
0.003457 0.294989 0.181788 19 25 23
0.309938 0.162305 0.254212 167 170 173
0.116694 0.021875 0.008370 69 77 76
0.010285 0.135144 0.005712 75 96 85
0.039683 -0.121598 0.003309 107 116 107
0.237754 0.033316 0.251494 162 165 166
0.291945 0.105782 0.255212 164 171 177
0.258011 0.091310 0.254031 159 169 174
0.218641 0.234316 0.243458 150 157 161
-0.427654 0.014317 0.332897 176 177 173
-0.190735 0.225515 0.246082 179 190 188
-0.509063 0.029685 0.383941 163 156 150
-0.408996 -0.025217 0.298141 55 59 54
-0.122648 -0.194811 0.004696 121 131 119
-0.257834 0.205194 0.218554 41 46 53
-0.074480 -0.143903 -0.001814 117 131 122
0.290176 -0.184223 0.010804 131 133 124
-0.518269 -0.006069 0.378076 129 130 124
-0.417694 0.027501 0.317243 150 147 142
0.234029 -0.003902 0.259649 165 169 164
0.160452 -0.112733 0.011148 124 136 128
-0.042137 0.202988 0.005208 80 96 87
0.338581 -0.041375 0.207421 146 151 156
-0.045782 0.280567 0.181906 15 23 20
-0.269143 0.200353 0.219299 40 46 57
0.069153 -0.011902 0.006637 74 88 79
-0.132945 -0.188058 0.005326 117 124 118
-0.496804 0.002394 0.379309 253 255 244
0.286883 0.060796 0.253844 164 171 175
-0.150373 -0.131156 -0.002381 122 136 127
-0.338475 -0.053586 0.004336 123 128 116
0.166762 0.153421 0.250292 145 157 161
0.182858 0.142895 0.068573 111 123 137
0.325348 0.208086 0.254930 169 171 177
-0.011196 0.118311 0.032473 80 107 89
-0.234303 -0.122536 0.241654 10 18 15
-0.072667 0.179758 0.005038 42 49 55
0.069913 0.283931 0.119606 100 114 118
0.122910 0.111649 0.010313 86 94 93
-0.078786 0.167019 0.003373 54 69 64
-0.295584 0.069043 0.033869 124 132 117
0.240044 -0.003858 0.259660 145 153 140
0.104386 0.314789 0.255252 149 152 151
-0.050706 -0.052624 0.004340 96 111 97
0.139412 0.252013 0.250957 145 156 156
0.070248 0.165383 0.000684 91 102 98
-0.407066 -0.003090 0.330769 181 181 183
0.205473 -0.086848 0.045138 122 128 126
-0.469933 -0.019749 0.344772 122 126 119
-0.324984 0.397326 0.018172 134 128 130
-0.352734 0.005752 0.286690 84 91 83
-0.504019 0.149616 0.141797 155 144 139
0.169051 0.019514 0.253238 151 163 167
0.126504 -0.161493 0.004266 124 133 124
0.162859 0.133666 0.054259 112 124 138
-0.150623 0.335246 0.038749 38 47 38
-0.174585 -0.035206 0.003201 90 104 93
0.009440 0.022868 0.023317 66 103 82
-0.416416 0.024064 0.320136 152 152 146
0.075017 -0.091852 0.009072 105 114 105
-0.454364 -0.097117 0.168519 94 105 103
-0.049957 0.215358 0.007703 47 60 59
-0.424582 -0.002354 0.339573 174 178 173
-0.002306 0.073702 0.049435 78 115 92
-0.254041 -0.085517 0.048095 108 120 110
-0.172994 0.134403 0.004236 89 95 93
0.392230 -0.056238 0.018454 98 103 93
-0.185877 0.197987 -0.004310 82 91 84
0.061622 -0.040892 0.005129 80 94 83
0.111397 -0.149500 0.006149 128 137 128
0.310905 -0.160861 0.009042 126 128 119
-0.075752 -0.033276 0.004262 83 100 86
0.295998 -0.073573 0.012511 102 103 97
0.158036 -0.080593 0.103229 148 162 164
0.318444 0.257544 0.250566 169 169 173
0.342332 -0.002309 0.248820 169 174 179
-0.043410 -0.114933 -0.001000 115 129 118
-0.119708 0.223188 -0.002307 57 65 62
-0.019489 0.167219 0.003982 90 102 92
-0.330421 0.017679 0.275037 41 51 54
-0.270763 0.191160 0.108183 135 142 136
0.140852 -0.094402 0.011652 114 121 115
-0.187101 0.313856 0.026754 39 46 40
0.236824 -0.072806 0.057796 119 130 130
-0.507001 -0.023369 0.360387 83 84 78
-0.099132 -0.014141 0.000419 86 101 85
-0.218629 -0.133372 0.217981 27 35 36
-0.097715 0.098978 0.006416 22 35 32
-0.078625 -0.085920 0.001273 106 120 109
0.135605 0.056110 0.015056 100 109 102
0.203145 0.061318 0.248636 151 163 165
0.114504 0.224384 0.250973 146 156 159
0.341878 0.208100 0.255235 169 168 175
-0.236447 -0.095907 0.279151 36 39 38
-0.186100 0.215057 -0.001707 63 77 68
-0.474906 0.002407 0.363219 246 245 245
-0.541802 0.033176 0.042012 65 66 60
0.126098 -0.196565 0.011978 128 138 126
0.138884 0.247714 0.251031 146 156 159
-0.081008 -0.116932 -0.000677 117 129 119
0.244797 0.004842 0.259281 164 170 168
-0.091327 -0.083068 0.003936 108 122 113
0.319471 0.348440 0.243362 166 166 168
-0.435322 -0.030338 0.321179 79 86 80
-0.018880 -0.116139 0.003155 113 127 118
-0.163927 -0.185784 0.003015 134 143 134
-0.351457 -0.107864 0.366540 136 175 182
-0.271288 -0.078757 0.303274 132 144 146
0.192674 0.117997 0.082456 115 132 144
-0.234231 -0.108414 0.266430 21 29 26
-0.028261 0.006310 0.005061 33 62 42
0.202039 -0.083871 0.135796 125 133 132
0.155811 -0.087699 0.208892 155 169 171
-0.061265 -0.108254 0.001232 113 127 118
-0.301788 -0.110605 -0.004567 119 131 121
-0.472973 0.020368 0.133681 136 140 133
0.083082 -0.064787 0.007360 97 109 99
-0.168905 -0.044211 0.011778 48 51 50
0.017240 -0.147726 -0.000722 120 129 120
0.212612 0.290134 0.250699 155 161 163
-0.273971 -0.194732 -0.003011 136 143 135
0.357776 -0.054313 0.018134 39 42 45
-0.344207 -0.091630 0.201070 115 127 119
-0.084670 0.264828 0.251271 163 171 168
-0.108319 0.340516 0.052188 33 42 35
0.271894 0.203583 0.249264 164 166 172
-0.297002 -0.091365 0.335573 90 103 98
-0.164822 0.309538 0.002100 37 44 38
0.188509 0.072509 0.250744 152 162 167
-0.417816 -0.011245 0.331204 197 197 199
-0.540334 -0.010430 0.379850 117 117 111
-0.012062 0.351160 0.027144 37 44 38
-0.059812 -0.122572 -0.000109 117 131 120
-0.195324 0.243256 0.045073 14 17 16
0.308542 -0.052195 0.223350 145 148 151
-0.042074 0.092912 0.067547 63 95 76
-0.090465 0.157173 -0.003395 79 93 84
-0.368017 -0.126072 0.349885 133 168 169
0.314735 0.052112 0.253875 168 173 178
0.265998 0.012061 0.258887 164 169 174
-0.512408 0.007822 0.386781 214 210 201
0.079455 -0.106286 0.007701 107 116 107
0.331713 0.075126 0.254834 171 173 179
0.267515 -0.106628 0.015920 119 120 114
-0.160549 -0.103459 0.125355 61 62 51
-0.007275 0.070526 0.043342 79 116 91
-0.414536 -0.019192 0.315402 98 109 105
0.028477 0.050250 0.056045 91 130 108
-0.384012 -0.125026 0.298112 64 73 64
-0.275165 -0.175323 -0.004315 133 140 132
-0.167911 0.216649 0.014825 65 79 68
-0.050323 0.267995 0.243424 152 163 163
-0.229866 0.219117 0.167299 15 22 16
-0.055636 0.141590 0.001003 30 41 39
-0.334773 -0.115981 0.360949 120 161 167
-0.365215 0.037786 0.263386 99 117 126
0.349595 0.129114 0.255296 171 173 179
0.198638 -0.089745 0.037345 119 127 126
0.166353 -0.096219 0.067054 151 164 161
0.058867 0.183409 0.004882 44 55 53
0.319186 -0.180588 0.010216 125 127 118
0.213182 -0.167512 0.007128 136 138 129
0.344311 0.134723 0.255391 170 172 178
0.208631 0.040813 0.250225 112 120 119
0.145373 -0.045385 0.122227 144 159 156
-0.142214 0.231969 0.024191 9 16 10
0.179354 0.150026 0.063727 97 112 125
-0.128992 -0.071198 0.002068 107 122 108
0.287626 0.048400 0.253675 165 170 175
0.280841 0.185473 0.251907 162 167 172
0.302964 0.176262 0.253929 169 171 177
-0.134122 0.337925 0.025580 42 49 43
-0.036878 0.289796 0.025413 6 14 11
0.072443 0.282030 0.145817 85 101 109
-0.156323 0.245229 0.252977 177 184 178
-0.402077 0.198813 0.009789 162 136 153
0.069778 0.200766 0.006929 93 105 97
-0.200759 0.219519 0.042380 5 11 9
-0.079683 0.030672 0.031776 53 90 69
-0.465855 -0.028922 0.337134 71 79 76
-0.401310 0.144978 -0.002473 116 134 128
0.285849 -0.054185 0.048098 122 128 128
-0.269396 -0.089928 0.301874 152 167 162
0.183241 -0.027843 0.256911 153 165 169
0.143588 0.243931 0.250615 145 155 158
0.389069 -0.165803 0.014588 133 134 123
-0.377166 0.110500 -0.003338 118 132 123
-0.323096 -0.098387 0.367088 129 166 169
0.024331 -0.040417 0.008703 74 90 79
0.083386 0.176193 0.009801 89 97 96
0.078829 0.247565 0.216697 114 129 144
0.070723 0.285566 0.105244 99 116 121
0.118076 0.169374 0.251662 147 157 162
0.094787 0.117306 0.007421 93 106 101
0.261610 0.023701 0.256490 159 169 174
0.220078 0.061125 0.249238 142 153 162
-0.203619 -0.095926 0.225057 12 23 19
-0.009518 0.293986 0.037184 7 13 11
0.150648 -0.059277 0.233255 157 172 171
-0.357430 0.015010 0.208816 84 92 89
0.278325 -0.059743 0.243090 151 156 161
-0.308365 0.280589 0.012696 101 105 98
-0.138008 0.018862 0.002773 50 67 68
0.325132 -0.001383 0.250018 167 172 177
0.325856 0.245984 0.251818 169 168 175
-0.124459 0.336574 0.050537 33 39 37
0.202588 0.234109 0.245940 150 155 160
0.249362 0.045905 0.251267 136 148 166
-0.214966 0.104578 0.002164 96 109 96
0.324805 -0.194799 0.011394 131 132 119
0.152313 -0.075939 0.215653 165 176 176
0.144149 -0.038637 0.224199 159 171 173
0.062297 0.287941 0.132232 80 92 98
