ply
format ascii 1.0
element vertex 1223
property float x
property float y
property float z
property uchar red
property uchar green
property uchar blue
end_header
-0.054956 0.268524 0.022929 1 5 0
0.042196 0.292904 -0.022325 57 61 54
0.282278 -0.059762 -0.015645 103 109 109
-0.293891 0.172408 -0.039902 124 126 117
-0.128679 0.252862 0.018171 3 3 3
-0.224018 -0.014419 0.185102 14 20 18
0.059923 -0.256889 -0.036037 111 113 104
0.226142 -0.032499 0.235248 143 156 155
-0.055303 0.222103 -0.028315 70 74 67
0.092002 0.114742 -0.031940 53 61 58
-0.373714 -0.004067 0.272292 63 63 59
-0.317474 0.233168 -0.041933 142 144 135
-0.354212 -0.212257 -0.049602 134 142 131
0.116153 0.295545 0.029442 89 99 104
0.249918 0.050571 0.237968 127 127 123
-0.386304 0.052352 0.266945 121 145 147
-0.021806 0.282521 0.200136 9 9 9
-0.293078 -0.172851 -0.047334 118 116 106
0.078237 0.094678 -0.035420 45 49 44
0.017758 0.057387 -0.023076 38 71 45
-0.219890 -0.180843 -0.042447 115 120 108
0.034157 0.363338 0.053307 5 6 2
-0.170035 -0.016631 -0.035559 90 98 85
0.215131 0.338680 0.239714 131 137 137
-0.221675 -0.054762 0.223566 22 25 24
-0.114656 -0.025870 -0.037562 86 96 84
-0.073708 -0.240214 -0.039860 110 115 103
-0.194846 -0.106365 0.171682 23 24 20
-0.132596 0.101647 -0.039448 72 85 72
0.254804 0.220739 0.239247 133 141 140
0.385249 -0.172214 -0.031224 98 107 98
0.123392 0.031110 -0.027652 64 71 65
-0.239790 -0.124762 -0.040945 116 117 111
0.215995 -0.046213 0.234363 137 145 146
0.204578 0.038515 0.233517 136 142 142
0.078295 -0.079230 -0.031651 83 90 82
-0.350597 0.033655 0.229230 101 123 122
0.234992 -0.159220 -0.031013 116 120 113
0.177074 -0.070121 -0.039851 103 108 98
-0.063257 -0.060097 -0.030136 61 58 53
0.212866 0.139680 0.236930 136 142 142
-0.047921 0.297831 0.160280 8 8 8
0.064225 -0.205570 -0.034113 110 114 107
-0.124517 0.124973 -0.039127 78 83 69
-0.350084 -0.072512 0.347129 117 146 147
-0.148080 -0.262181 -0.043082 112 110 102
-0.190472 -0.032946 -0.034169 99 99 93
-0.385468 -0.093710 0.314419 122 150 156
0.166321 0.302412 0.236942 131 134 133
-0.222033 -0.095235 0.235482 18 18 18
-0.217294 -0.093118 0.204337 0 2 1
0.129266 0.117441 0.228863 135 146 146
0.241441 0.132956 0.237325 138 146 145
-0.179327 -0.008381 -0.036359 21 16 12
0.181833 0.252466 0.236957 125 138 135
0.118850 0.021778 -0.026309 69 70 66
0.113450 -0.234080 -0.034210 108 113 103
0.074669 -0.249597 -0.037014 105 106 102
-0.218786 0.224931 -0.026704 82 94 84
-0.210490 0.287627 0.115909 5 6 2
-0.192014 -0.113990 0.166102 16 19 18
0.168101 -0.046958 0.048310 131 139 140
-0.311776 -0.088110 0.326180 84 88 81
-0.354543 -0.079017 0.346819 118 144 146
-0.321009 -0.121935 -0.042967 117 119 110
-0.183120 0.079391 -0.034051 85 94 87
0.238604 -0.045194 0.235611 135 142 146
0.031594 -0.127972 -0.032781 3 3 0
-0.324825 0.249640 -0.046313 135 137 126
0.176528 0.096232 0.235613 137 140 143
0.311018 0.021392 0.237417 139 147 144
-0.165250 -0.250492 -0.039829 11 3 0
0.335724 0.109570 0.239149 143 149 149
0.044576 0.338110 0.044422 1 4 3
0.164798 0.299712 0.237066 129 135 135
0.060238 0.237760 -0.027647 64 71 63
0.057914 0.345612 0.099557 8 11 12
-0.326021 -0.102543 0.330616 118 143 148
-0.135999 0.036407 -0.032266 14 21 13
-0.200243 -0.294142 -0.043179 84 89 77
0.359427 -0.153458 -0.028275 109 110 101
0.080812 -0.120891 -0.031212 108 109 98
-0.112138 -0.227040 -0.038665 112 117 107
0.123573 -0.112937 -0.030909 106 114 101
0.164858 -0.087933 -0.030342 104 114 102
0.293816 -0.030503 0.060541 110 116 114
0.016372 0.612823 -0.032686 123 128 116
0.114848 -0.111258 -0.030498 108 112 105
-0.051680 0.040764 -0.026482 32 59 39
-0.385786 -0.112609 0.270483 57 58 52
-0.380606 -0.044076 0.077117 99 108 99
0.315793 0.164241 0.240306 140 146 144
0.163084 0.145832 0.235990 132 138 138
-0.334801 -0.263749 -0.048320 49 53 46
0.086183 0.248117 0.230172 128 128 130
0.096934 0.275525 0.235736 133 139 137
0.303816 -0.041758 0.011081 100 106 106
0.182994 0.111763 0.235924 134 142 141
-0.083786 -0.045533 -0.034864 79 71 68
-0.267827 0.170036 -0.038170 95 97 88
-0.069771 -0.053833 -0.035223 95 97 84
0.014991 0.079963 -0.012420 73 107 83
-0.119906 -0.092686 -0.035808 114 121 113
-0.056587 -0.245089 -0.038846 105 112 104
-0.046524 0.299553 0.019948 2 2 2
-0.249209 -0.099828 0.255310 21 25 20
-0.256269 -0.249688 -0.047377 120 124 117
0.162509 -0.023594 0.225110 137 145 142
0.190258 -0.208536 -0.031633 41 31 31
-0.029572 -0.141799 -0.030742 9 13 8
0.142014 0.165701 0.235950 132 145 142
0.113538 0.199858 0.234001 131 139 138
0.087899 0.294848 0.164337 79 84 91
0.149167 0.151201 0.019400 87 101 105
-0.214550 0.010479 0.074605 96 105 98
-0.025993 -0.081487 -0.036435 100 108 95
0.165349 -0.045021 0.037396 131 139 138
-0.022945 -0.052290 -0.034650 91 101 89
0.265839 -0.212373 -0.030189 119 126 118
-0.257471 -0.309172 -0.049318 134 132 124
-0.353937 -0.077545 0.346946 118 143 148
-0.045048 0.025645 -0.029679 32 52 37
0.184134 0.177122 0.236272 133 141 140
-0.120681 0.300108 0.007011 0 5 3
0.353058 0.104384 0.239478 138 149 149
-0.034203 0.082362 -0.020693 36 63 43
0.281947 -0.053039 -0.004198 106 112 110
0.182251 -0.192712 -0.031624 110 112 103
0.008545 0.093244 -0.005017 70 102 81
0.161972 -0.034416 -0.025522 96 97 93
-0.315760 -0.143452 -0.044513 113 121 110
-0.229261 -0.090837 0.246580 20 24 19
0.379400 -0.218495 -0.028984 68 69 65
0.348094 -0.066465 -0.027458 82 84 75
-0.093287 -0.271214 -0.040204 112 112 108
0.302529 -0.029727 0.053931 109 117 114
0.199676 -0.093348 -0.031110 105 106 100
0.243476 0.238125 0.239460 134 140 138
0.246975 0.081218 0.236766 138 144 144
0.139958 -0.168984 -0.028709 42 42 38
-0.209064 -0.018651 -0.039879 98 103 93
-0.061443 -0.017360 -0.037099 84 92 81
0.172149 0.029591 0.234084 135 143 144
0.127040 0.211112 0.017361 98 108 111
0.158383 -0.043309 0.219552 144 153 146
-0.344347 -0.121372 -0.047009 121 125 118
-0.251503 -0.087689 0.124392 24 25 21
0.337606 -0.091865 -0.030618 93 94 88
0.354956 -0.036005 -0.018571 94 97 100
0.314394 -0.085055 -0.033311 101 101 95
0.234425 -0.126152 -0.031342 112 114 105
0.161703 0.246446 0.235933 128 139 135
0.245797 -0.226680 -0.029731 120 117 114
0.115840 -0.105939 -0.030318 110 115 103
-0.299635 -0.101121 0.207458 67 63 64
0.036169 0.092888 0.024846 81 118 97
-0.111173 0.107013 -0.037098 82 86 79
-0.175033 -0.092196 -0.036803 93 100 92
-0.162667 -0.087376 -0.038370 105 106 95
0.057721 0.281569 -0.022221 8 12 7
-0.349341 -0.098510 0.342078 117 138 144
0.306528 0.009266 0.237544 141 147 149
-0.073735 0.146992 -0.039237 68 77 70
-0.204126 -0.023627 -0.039591 105 110 100
0.267295 0.330763 0.242641 134 137 136
0.191519 -0.080897 -0.014597 119 114 110
-0.136142 -0.096917 -0.037782 107 114 106
-0.202450 0.304849 0.014599 40 41 37
0.202443 -0.072106 0.092592 117 121 114
0.160638 0.187886 0.235479 130 141 141
0.023258 0.290270 0.217564 13 16 17
0.359178 -0.030292 -0.006603 104 104 104
-0.245807 -0.307038 -0.049789 123 125 114
-0.199682 -0.274684 -0.041945 36 32 21
0.142366 -0.241919 -0.029513 115 116 107
-0.206470 -0.311027 -0.046284 124 128 121
0.170799 0.141778 0.236258 134 142 141
-0.236185 0.297377 0.040554 4 4 4
0.221240 -0.091620 -0.029136 90 98 87
-0.272017 0.077715 -0.023181 107 109 100
-0.018147 0.259068 -0.028248 69 76 68
0.349046 0.304996 0.242363 135 141 141
-0.142214 -0.120785 -0.039048 112 119 111
0.086987 0.079697 -0.031050 12 18 18
-0.047162 -0.207413 -0.038007 113 114 105
0.341952 0.030653 0.238219 140 148 147
-0.057595 0.162791 -0.037352 48 49 45
0.012390 -0.222414 -0.035905 115 120 108
-0.149875 -0.019534 -0.037332 87 92 80
-0.145182 0.247295 -0.038116 61 61 57
-0.143997 0.261643 0.017792 1 2 0
0.393096 -0.050798 -0.027769 87 88 82
-0.117557 0.127960 -0.037933 71 81 69
0.170294 -0.245473 -0.033026 105 109 104
0.272598 -0.049574 0.026117 114 114 114
0.081831 -0.160443 -0.033565 112 119 111
-0.374038 0.080211 0.237180 130 133 136
0.248361 0.229155 0.239410 133 139 139
0.328650 0.065321 0.238751 142 150 151
0.189779 0.155560 0.236171 133 141 142
0.089098 0.298950 0.128559 78 83 92
0.104839 0.247298 0.014130 106 119 118
-0.250167 0.297056 0.057031 3 3 0
0.268294 -0.169561 -0.030006 114 115 109
0.302302 0.124049 0.238384 137 145 144
-0.128543 -0.263544 -0.041723 116 116 112
0.232793 -0.036084 0.236072 134 142 143
0.028728 0.278131 -0.026526 57 64 56
0.047244 -0.162243 -0.032152 110 111 105
0.299699 -0.026765 0.071601 110 113 112
-0.195833 0.273914 0.201730 170 176 174
-0.261069 -0.122884 -0.042791 117 118 112
-0.199354 -0.227841 -0.042131 50 43 35
-0.211555 0.010513 -0.039851 91 96 86
0.254292 0.159291 0.238257 131 142 140
0.310593 0.000756 0.237420 141 147 149
0.244744 0.246170 0.239999 130 138 137
0.255236 0.285945 0.240632 128 136 135
-0.221859 -0.162775 -0.041879 122 120 112
0.134884 0.262571 0.236552 129 135 133
0.125305 -0.267055 -0.030876 114 115 111
-0.182706 0.122573 -0.037512 84 91 83
-0.137889 -0.246568 -0.042433 109 110 104
0.035593 -0.038978 -0.029809 0 2 0
-0.035291 -0.137829 -0.036204 108 115 109
-0.105914 0.283258 0.148247 8 9 5
-0.056460 0.266442 0.022064 4 4 4
0.149924 0.129745 0.016674 103 115 121
0.399788 -0.096299 -0.028469 99 99 93
-0.203134 0.136699 -0.035120 79 81 72
-0.307171 -0.220038 -0.049296 42 32 18
0.284803 -0.050395 0.175489 116 124 121
0.258792 -0.058357 0.193141 107 115 114
0.174807 -0.060075 -0.033517 98 99 93
-0.134455 -0.031952 -0.037071 69 73 68
0.309596 0.326519 0.244054 134 137 136
0.046745 0.141073 -0.030471 81 85 80
0.133060 0.181357 0.020850 103 113 120
0.245453 -0.095616 -0.029533 100 102 93
-0.061032 0.093042 0.006277 46 80 58
-0.214201 -0.056441 0.215483 19 28 21
0.278150 -0.003496 0.238679 65 83 131
-0.151364 0.039161 -0.035939 76 88 78
-0.256527 -0.096581 0.267672 83 84 78
0.226806 -0.054867 0.235289 138 144 144
0.104303 0.092890 -0.033658 47 54 48
0.212099 0.119433 0.236848 134 142 143
-0.204019 0.237698 0.220399 172 175 174
0.265121 -0.149421 -0.028474 112 113 104
-0.273922 -0.319577 -0.048544 123 124 120
-0.108721 0.277962 0.019735 1 1 1
0.356316 -0.232738 -0.031078 113 108 106
-0.283821 -0.327073 -0.049190 126 126 120
-0.222678 -0.011295 0.180418 22 25 24
-0.218088 -0.105978 0.208480 16 19 18
0.275286 -0.155785 -0.028176 14 9 5
-0.197604 -0.105701 -0.041452 107 105 97
-0.232602 -0.185949 -0.038826 28 28 22
0.099127 0.398540 0.173410 134 138 133
0.140526 0.126432 -0.026864 73 80 72
-0.193956 0.226131 0.005455 4 7 6
0.149534 0.190970 0.235753 129 142 139
0.202180 -0.063356 0.233291 137 145 146
0.249492 0.104412 0.236925 137 145 144
-0.339060 -0.121416 0.297729 37 41 36
-0.146132 -0.157964 -0.038695 122 124 113
0.318989 0.170615 0.240290 140 148 147
-0.007219 -0.153399 -0.034507 115 116 110
-0.215623 -0.124468 0.165258 13 17 12
0.264550 -0.076671 -0.028434 76 78 67
0.237034 -0.061932 0.130110 112 119 113
0.012226 -0.178588 -0.032033 113 123 111
-0.352943 0.068863 0.206391 18 1 1
-0.076559 -0.199742 -0.038716 115 117 108
-0.335339 -0.188333 -0.045054 105 109 102
-0.109782 -0.281284 -0.042339 110 114 107
0.202769 0.169637 0.236580 134 142 141
-0.058976 0.188916 -0.028670 74 83 76
0.268513 0.237338 0.240170 136 139 140
0.327202 -0.037520 0.001687 102 110 107
-0.257064 -0.310543 -0.049568 130 132 123
-0.062329 -0.121348 -0.038938 93 94 90
-0.061957 -0.161751 -0.035180 103 103 99
-0.304358 -0.227783 -0.048807 49 50 39
-0.135734 -0.139296 -0.037327 116 120 113
0.155333 0.065835 -0.024141 86 90 83
-0.239902 0.591729 -0.035688 126 128 117
-0.277256 -0.062399 0.294006 109 102 94
-0.358702 0.008648 0.262209 64 68 63
0.154780 0.106005 -0.022557 98 102 97
-0.349385 -0.062160 -0.040262 129 130 124
0.186427 -0.073699 0.013002 136 147 143
0.301147 -0.028058 0.057905 111 117 115
0.361670 -0.229190 -0.028377 99 106 100
-0.216704 -0.061806 0.215651 26 27 23
0.303872 0.151162 0.239229 133 144 144
-0.056891 0.387471 0.039453 22 26 19
-0.276229 -0.187273 -0.045135 119 120 114
-0.252406 -0.111159 -0.040878 114 116 107
-0.188758 -0.039038 0.191504 17 20 19
0.212053 0.285495 0.239039 127 135 132
0.227234 0.022549 0.235447 150 156 156
-0.047375 -0.272192 -0.039776 106 106 100
-0.231592 0.201370 -0.041412 93 97 90
-0.006814 -0.214393 -0.038097 120 124 117
-0.091567 -0.309398 -0.039935 100 112 104
0.014754 -0.260261 -0.036530 119 116 111
-0.074260 0.178333 -0.031665 74 83 76
0.147411 -0.113403 -0.031624 114 122 111
0.299830 0.359303 0.244849 133 141 140
0.009160 0.609305 -0.043192 77 75 63
-0.029112 -0.037867 -0.036416 91 95 88
0.084840 -0.040181 -0.030554 73 80 72
-0.311489 -0.179055 -0.049559 51 51 45
0.318645 -0.177494 -0.032738 108 110 101
0.093561 0.294348 0.153583 77 82 91
-0.006406 0.367024 0.026126 41 38 33
0.066487 0.641701 -0.023750 124 126 115
0.174931 0.206563 0.236110 132 138 136
-0.103460 -0.020315 -0.036337 86 94 83
-0.190135 -0.303661 -0.046740 112 117 105
-0.148131 -0.302495 -0.044805 109 110 104
-0.096302 -0.198814 -0.037482 89 90 79
0.365562 -0.090867 -0.027827 96 100 93
-0.094619 0.249775 -0.009044 66 74 71
0.357308 -0.027114 0.235625 141 149 150
-0.339188 -0.121743 0.293435 40 40 34
-0.082030 0.336075 0.011181 32 33 29
0.206739 0.297034 0.239214 130 138 135
0.361908 0.107868 0.239789 140 151 147
0.293828 -0.145249 -0.030897 109 111 102
0.292382 -0.001618 0.237737 139 145 143
-0.155321 0.304987 0.003399 37 37 31
0.337216 0.179805 0.241140 147 150 149
-0.183960 0.135569 -0.037435 90 92 83
-0.196289 -0.071724 -0.038863 110 110 106
0.190355 -0.122634 -0.030910 110 112 99
0.077676 0.292706 -0.017820 49 56 48
-0.268510 -0.279853 -0.047335 47 48 35
-0.283929 -0.273040 -0.049114 128 129 123
0.000811 -0.068830 -0.032030 75 82 74
0.330513 -0.021523 0.237852 138 146 145
0.298210 -0.215792 -0.030539 117 121 114
-0.185963 -0.218725 -0.043162 121 126 116
0.183236 0.200833 0.014216 100 107 115
0.393605 0.032647 0.239694 144 155 153
-0.323169 0.181722 -0.035657 126 131 121
0.301573 0.244727 0.240687 131 142 140
0.363099 0.068972 0.239382 145 151 151
0.112467 0.261195 0.236739 130 138 137
0.014863 -0.156015 -0.034394 120 121 110
-0.094208 0.268571 0.189016 10 10 10
-0.104665 0.246930 0.233921 159 172 169
-0.199618 -0.312836 -0.045799 60 64 57
-0.062600 -0.071463 -0.033639 98 100 89
-0.155977 0.345796 0.152397 170 174 169
-0.040175 -0.186516 -0.038840 114 119 109
0.118956 -0.006092 -0.028634 75 79 72
0.357619 0.154672 0.240895 139 150 150
0.379238 -0.221599 -0.028568 62 63 59
0.175255 -0.053687 0.033229 132 140 139
-0.028693 0.268729 0.239798 130 138 135
-0.068598 0.625067 -0.025684 123 124 111
-0.298302 -0.140092 -0.044512 104 112 101
-0.386043 0.056511 0.268451 120 148 154
0.115246 -0.114705 -0.030234 114 119 109
-0.088324 0.034024 0.003793 54 83 61
0.394072 -0.004597 0.239161 142 153 151
0.324200 0.203982 0.240850 140 146 146
-0.205370 0.221191 -0.014016 89 97 94
-0.269433 -0.070190 0.090701 8 11 10
-0.064358 0.356564 0.022267 31 35 30
0.288764 0.253562 0.241198 130 141 139
0.081132 0.178835 -0.025684 87 91 84
0.178446 0.104904 0.027849 103 114 123
-0.257172 0.228771 0.032602 10 11 7
0.205897 0.166402 0.236753 135 141 141
-0.196825 -0.296186 -0.045158 125 125 119
-0.191259 -0.103380 0.173452 22 23 19
-0.163742 0.326302 0.021033 38 39 33
-0.225650 0.186629 -0.038602 101 103 90
0.005826 0.034187 -0.030064 58 85 65
0.201374 -0.079948 -0.006364 110 114 109
0.277061 0.039817 0.237999 138 144 146
0.190526 0.149334 0.023193 105 112 120
-0.314898 -0.091181 0.327659 88 89 83
0.387250 -0.014608 0.146139 123 126 127
-0.044720 0.228525 -0.027348 70 77 71
-0.062621 -0.287293 -0.036545 5 2 0
0.101144 0.299362 0.075138 72 79 87
0.233339 -0.238813 -0.033778 117 118 112
0.338541 0.235779 0.242416 139 145 143
-0.203814 0.302235 0.014330 39 40 34
0.324799 0.078170 0.238491 142 150 149
0.051972 0.194882 -0.025229 80 87 79
-0.274438 -0.313747 -0.048702 126 127 123
-0.073388 -0.069559 -0.034570 101 106 96
-0.278015 -0.326049 -0.049234 122 123 114
-0.236232 0.225658 -0.046717 99 96 91
-0.162827 0.251468 0.184570 6 9 8
0.063718 -0.038218 -0.031936 70 79 72
-0.055389 0.568273 -0.022549 129 134 124
-0.180258 -0.136847 -0.038958 113 118 108
-0.033230 -0.156268 -0.035598 119 127 116
0.171392 -0.123560 -0.028103 44 48 43
0.157853 0.094802 0.234235 133 144 144
0.260161 -0.054005 0.046272 112 118 116
-0.078986 -0.026881 -0.036463 84 92 81
0.276619 0.005371 0.239088 62 85 120
-0.099617 -0.178098 -0.037568 99 99 93
0.335207 0.037424 0.238027 141 149 148
0.179977 -0.158351 -0.028910 113 118 106
-0.016895 0.393233 0.049504 31 32 26
0.306501 -0.056599 -0.027604 34 35 29
0.372105 0.079076 0.239804 145 151 153
0.170095 0.194353 0.016454 101 113 119
-0.286845 -0.206766 -0.047965 123 124 118
-0.207999 -0.039087 -0.032553 95 97 88
-0.213805 -0.113842 0.195553 10 13 12
-0.197235 -0.059043 0.192188 0 1 0
0.265594 -0.099211 -0.027882 99 103 96
0.302360 -0.046589 0.174716 121 124 125
-0.142199 0.235117 0.009197 4 4 4
-0.337943 -0.108317 0.333401 108 132 134
-0.348941 -0.112331 0.333774 103 124 130
0.014400 0.203072 -0.029323 77 86 79
0.116319 0.166876 0.234248 132 143 143
0.021204 0.017572 -0.030208 53 82 62
-0.020951 0.648347 -0.012179 105 107 98
0.195346 0.045855 0.234638 134 142 141
0.292413 0.004611 0.237816 139 145 145
-0.291229 0.605491 -0.039703 134 132 122
0.261937 -0.017282 0.237890 132 142 147
-0.236771 0.199870 -0.037469 64 60 51
-0.135672 0.249556 -0.034886 0 4 0
0.189303 -0.076801 0.071574 113 120 114
-0.273537 0.627926 -0.040931 130 131 118
-0.114825 0.014499 -0.036143 80 85 73
-0.321362 0.153323 -0.041196 102 96 81
-0.307558 -0.081050 0.321213 79 83 76
-0.005254 0.273752 0.018389 1 5 0
-0.173665 0.109383 -0.034164 88 97 88
-0.051301 -0.010151 -0.001164 40 71 57
0.222724 -0.060382 0.089298 113 119 117
-0.073578 -0.267828 -0.039580 111 112 106
-0.058253 -0.258964 -0.040003 106 110 103
-0.131284 -0.196605 -0.039520 29 33 26
0.155772 -0.012384 -0.023117 98 105 97
-0.362317 -0.109430 0.335414 103 126 131
0.007302 -0.169395 -0.033054 21 17 8
0.093530 -0.065963 -0.030394 90 97 91
-0.104697 -0.150072 -0.038972 107 115 104
-0.398417 0.004707 0.273080 54 66 58
0.208408 0.001070 0.235238 131 144 141
-0.257204 0.226574 0.026324 9 10 6
0.079335 0.135694 -0.027998 68 76 75
-0.286961 -0.108355 0.289504 60 64 57
-0.030893 -0.199696 -0.037707 41 44 43
-0.047897 0.282502 0.191074 8 9 5
0.092822 0.164976 -0.028184 89 100 96
-0.081924 0.249341 -0.031290 62 67 57
0.326280 0.162700 0.240546 141 149 150
0.183839 -0.067945 -0.000210 135 147 139
-0.154892 -0.230924 -0.041861 115 119 112
0.133327 0.213768 0.022255 72 74 84
-0.341021 -0.121802 0.287994 33 34 30
0.115135 0.246398 0.237445 134 140 138
0.307051 0.028753 0.237125 141 147 147
-0.029733 0.290155 0.024355 0 1 0
-0.170468 0.564063 -0.043545 121 129 114
-0.036781 0.269245 0.239446 139 145 143
-0.028147 -0.025170 0.009458 76 101 80
-0.097095 0.195873 -0.030908 64 65 59
-0.063418 0.269749 -0.036889 58 55 50
-0.272129 -0.103594 -0.042382 110 118 107
0.088176 -0.267085 -0.034615 111 113 104
0.251441 0.349613 0.240158 132 138 136
-0.201048 -0.102010 0.185780 19 19 19
-0.123310 0.146005 -0.033099 78 82 75
0.247006 -0.055846 0.085451 110 119 112
-0.288732 -0.221506 -0.049353 120 128 117
-0.263147 0.151092 -0.042808 102 104 95
0.193721 0.024434 0.233940 136 142 144
-0.191096 -0.211797 -0.042333 111 118 112
0.087890 0.299029 0.065793 74 84 89
0.120392 0.285530 0.235863 131 137 135
-0.185040 -0.294022 -0.045645 119 121 112
0.288335 0.050213 0.238430 137 145 146
-0.138851 0.024372 -0.037731 84 88 81
0.099667 0.004997 -0.027710 9 15 15
0.384922 0.027746 0.239492 146 154 153
-0.042076 0.047963 -0.028877 25 50 33
0.355898 0.230319 0.241812 141 147 149
0.353374 -0.079464 -0.027396 93 98 88
0.092649 0.238354 -0.021356 47 47 43
0.140755 0.201956 0.236768 129 140 136
0.063523 -0.250368 -0.035145 108 113 103
-0.237289 0.149495 -0.038611 72 79 71
-0.294366 -0.141335 -0.043815 108 120 110
-0.207170 -0.136856 -0.038686 117 125 114
0.070381 0.395671 0.164295 131 138 130
-0.320652 -0.047495 -0.038764 106 111 97
-0.295475 -0.067968 0.307687 72 73 64
-0.335716 -0.120298 0.301797 44 45 39
-0.153186 0.159589 -0.036387 27 24 19
0.281957 -0.094814 -0.026545 103 105 96
0.075856 0.199586 -0.020830 66 66 62
-0.150219 -0.010495 -0.035971 88 93 83
0.338108 -0.204135 -0.030632 108 115 109
-0.085043 -0.170025 -0.038922 66 59 53
0.326406 -0.233332 -0.031968 115 115 111
0.320715 0.182236 0.240489 138 146 145
0.167109 0.154255 0.236033 131 142 140
-0.239178 0.640462 -0.035308 129 130 117
0.325968 -0.065098 -0.028310 87 88 79
0.345344 0.143151 0.240336 142 148 148
0.041880 -0.205374 -0.039028 104 114 102
-0.114828 0.244933 -0.032075 60 62 53
-0.143812 -0.283977 -0.044244 113 114 103
-0.199466 -0.092135 -0.039966 17 18 9
0.318096 -0.034477 0.018197 104 110 110
0.291676 0.348921 0.244082 134 137 138
0.022325 -0.151466 -0.033716 115 117 108
0.056374 -0.206930 -0.034387 107 111 104
0.307828 -0.158832 -0.031642 106 110 103
-0.287628 0.523469 -0.047979 128 126 114
0.183742 -0.104955 -0.031302 114 118 111
0.058076 -0.226847 -0.035054 111 112 106
0.154450 -0.117479 -0.030737 113 118 108
0.269791 0.002542 0.238771 144 148 143
0.219044 0.090865 0.236596 134 142 141
0.256743 0.116729 0.236912 135 141 143
0.090729 0.121516 -0.029164 1 5 0
-0.300769 -0.103210 -0.039061 30 31 20
0.261466 0.189142 0.238805 134 140 140
0.071310 0.332793 0.095580 39 45 45
0.040918 0.082408 0.012395 86 120 96
-0.119845 -0.203697 -0.041758 109 113 106
0.024680 0.074000 -0.008915 73 110 87
-0.263382 0.624348 -0.038348 95 91 82
0.216664 0.080290 0.235979 133 144 144
0.170702 -0.112946 -0.029970 102 106 99
-0.066533 -0.001803 -0.026474 0 3 0
-0.314350 -0.174821 -0.048454 122 124 115
0.151318 0.095521 -0.027906 86 93 85
-0.271841 -0.112006 0.260927 82 88 88
-0.086803 -0.055732 -0.034193 96 101 91
0.039576 0.367471 0.078650 5 5 5
-0.095769 0.325611 0.004514 27 31 24
-0.280188 -0.068096 0.299483 19 25 23
0.348207 0.089696 0.239113 142 150 151
0.321431 -0.043158 0.235273 135 143 142
0.247162 -0.057051 0.052458 110 116 114
-0.111268 0.362338 0.017714 21 25 20
0.245313 0.155522 0.238055 135 141 141
0.385242 -0.039132 -0.029771 54 52 42
-0.288370 -0.231435 -0.048287 130 131 125
0.266878 -0.033573 0.235909 134 142 143
-0.090967 -0.044801 -0.035537 101 102 91
-0.035163 0.193599 -0.020758 0 2 0
-0.196065 0.101688 -0.032885 88 93 83
0.325728 0.128422 0.239598 143 149 147
0.176706 0.198808 0.018683 101 111 118
-0.194410 -0.104974 -0.041748 105 113 102
-0.004214 0.600790 -0.020326 140 138 130
-0.036490 -0.098173 -0.035486 104 113 104
-0.337331 -0.055933 -0.031730 103 111 98
-0.063210 0.390120 0.037766 33 34 28
-0.183242 0.325879 0.027974 28 36 25
-0.009385 -0.142040 -0.034319 120 120 116
-0.317440 -0.085234 0.330680 120 144 142
0.119067 0.153088 -0.028474 83 90 84
-0.254018 -0.286182 -0.048498 129 131 122
0.084413 -0.242192 -0.034716 115 116 110
0.140673 -0.126224 -0.032997 59 58 58
-0.228426 0.152785 -0.037177 98 99 95
-0.168581 -0.284239 -0.042055 115 119 112
0.277132 -0.134481 -0.026714 99 103 96
-0.261549 0.226117 0.197387 20 20 16
-0.358777 -0.004301 0.250053 55 56 50
-0.027492 0.106230 0.010228 51 78 58
-0.162419 0.239557 0.224601 157 168 166
0.313856 0.225408 0.240677 137 140 141
-0.379382 0.022140 0.265116 69 73 68
-0.045155 -0.193976 -0.038728 117 125 112
0.061943 0.294192 0.005189 1 4 5
-0.049543 0.106605 0.015880 58 83 66
0.031595 -0.176253 -0.033636 110 115 103
0.011449 -0.006293 -0.037986 66 79 66
-0.147559 0.257718 0.169867 2 5 4
-0.080536 -0.304363 -0.041459 108 112 107
-0.278196 -0.123716 -0.044735 114 115 109
0.290287 0.031927 0.236709 136 147 147
-0.191811 -0.009016 0.173366 0 0 0
0.297831 0.112571 0.238039 133 144 142
-0.336846 -0.271741 -0.049140 15 13 5
0.335335 -0.149223 -0.030521 110 112 103
-0.270579 -0.110440 0.225362 8 12 7
0.005692 0.381982 0.056399 2 6 1
-0.098229 0.246355 0.004285 2 6 1
0.296093 -0.202297 -0.030668 116 116 112
-0.306111 -0.076652 0.319418 80 81 75
-0.161971 -0.161936 -0.041054 117 122 112
0.261263 0.303855 0.241538 132 138 138
0.330620 -0.035921 0.236520 140 148 149
-0.042976 -0.248964 -0.038039 108 113 103
0.011420 0.282065 -0.020403 62 66 61
0.223606 0.224055 0.238523 132 138 138
-0.197099 -0.272725 -0.041813 119 120 109
0.179319 -0.135446 -0.028452 118 119 113
0.153382 0.335324 0.241173 128 134 132
-0.234650 0.244333 0.010091 10 11 7
-0.172214 0.007637 0.061690 67 76 67
0.297400 0.393026 0.252031 134 141 135
0.218867 0.026038 0.234769 141 147 147
0.157053 -0.127415 -0.029933 99 103 98
0.355664 -0.010335 0.237949 142 150 151
-0.341403 -0.098897 0.341121 115 143 149
0.256605 -0.019722 0.237505 80 83 102
-0.210230 -0.278762 -0.046416 131 132 123
-0.243398 -0.078329 0.261350 30 33 32
-0.174583 0.340734 0.036713 43 44 38
0.381008 0.082675 0.239823 150 153 154
-0.276944 -0.116533 -0.044112 107 114 108
-0.320082 -0.082905 0.332699 112 138 140
-0.317379 -0.045683 -0.037064 108 110 97
0.101031 -0.062634 -0.025515 84 87 86
0.362242 -0.111896 -0.027680 104 105 99
0.161105 -0.135264 -0.029245 114 118 111
-0.233777 -0.275080 -0.047748 40 32 29
0.005517 -0.113119 -0.035262 102 104 95
0.189258 0.002665 0.233684 138 144 144
-0.016286 0.076224 -0.025592 25 50 33
-0.234282 0.151777 -0.041162 90 102 92
-0.344736 -0.086337 0.346246 119 144 149
0.196520 0.174112 0.236380 134 142 141
-0.315511 -0.119020 0.295023 45 45 45
0.157754 0.120183 0.018144 105 113 114
0.347847 0.235699 0.242724 142 148 148
0.012666 0.025214 -0.029145 56 83 65
-0.191696 -0.303871 -0.047140 112 117 105
0.220769 0.356734 0.241360 135 138 137
-0.115612 -0.264383 -0.041221 112 113 107
-0.160803 0.254002 0.225867 169 178 171
-0.159299 -0.183688 -0.039541 112 113 107
-0.339835 0.246049 -0.046101 94 95 86
0.081368 0.266843 -0.021388 63 67 60
-0.250531 0.261169 0.032866 4 10 8
0.208700 0.063362 0.235559 141 147 147
-0.076103 -0.112529 -0.036418 113 118 108
0.163177 0.143909 0.236083 133 141 140
-0.300065 -0.230381 -0.048207 127 124 121
0.068304 -0.002368 -0.025071 41 45 40
-0.247786 0.228480 0.209799 152 164 156
0.372082 0.111398 0.240483 146 152 152
0.393236 0.103250 0.241351 146 154 153
0.364609 0.011171 0.238923 142 153 151
-0.262522 -0.333791 -0.047310 125 125 119
0.195339 -0.123579 -0.030256 48 49 40
0.031513 0.266818 -0.020044 44 48 41
0.296434 0.105461 0.237624 137 145 144
-0.161259 0.261142 0.016427 2 5 4
0.014944 0.352640 0.015622 6 6 2
0.255197 0.199402 0.238783 133 141 142
0.239583 -0.088383 -0.028408 0 1 0
0.117097 0.199407 -0.024455 79 83 78
0.356492 -0.020072 0.023362 110 117 111
0.142886 0.309885 0.236959 128 134 132
0.162341 -0.172089 -0.032603 117 118 109
-0.036992 -0.224714 -0.037492 112 116 109
0.156930 -0.000364 0.144144 131 142 140
-0.254762 -0.298327 -0.048853 131 136 126
0.180780 0.098907 0.235680 131 142 140
0.067262 -0.214441 -0.034266 106 114 103
-0.387207 0.155852 -0.002582 101 108 100
0.200591 -0.076063 0.231594 135 143 144
0.095353 -0.026949 -0.030572 72 79 73
0.365694 -0.007636 0.055801 112 115 114
0.374012 0.182388 0.241283 145 148 147
0.027006 0.159417 -0.031323 33 40 34
0.028662 0.185413 -0.029100 65 72 64
0.144618 -0.158625 -0.034179 114 115 109
-0.290247 0.255453 0.127257 16 17 13
-0.244556 0.622701 -0.038350 131 132 119
0.008357 0.227786 -0.026343 69 78 71
0.184069 -0.070530 -0.007934 137 146 139
-0.242044 -0.111183 -0.040227 108 113 103
0.329011 -0.217865 -0.031373 118 120 109
-0.383305 -0.008154 0.274810 55 56 52
0.270568 0.175477 0.239296 135 143 142
0.278051 0.201898 0.239852 133 141 140
0.346454 0.082461 0.239121 143 149 149
-0.045676 -0.103424 -0.035662 107 114 106
-0.099591 -0.284105 -0.041524 109 113 106
0.187352 0.102261 0.028716 102 116 122
0.067649 0.322377 0.219184 109 112 115
0.140924 0.095266 -0.031653 74 78 73
-0.293752 -0.085223 -0.043889 105 114 107
0.167416 -0.067900 0.172640 148 156 153
-0.244056 -0.106382 0.245038 7 10 9
0.239010 0.171248 0.237857 133 141 140
-0.279533 -0.161075 -0.043919 117 118 112
0.237951 -0.024412 0.236137 145 148 151
0.072293 -0.130705 -0.032319 47 55 44
-0.103375 -0.074953 -0.035789 101 108 100
-0.251290 -0.318395 -0.049489 130 131 127
0.360221 0.005653 0.238765 146 152 152
-0.162762 -0.265295 -0.040581 120 120 114
-0.047473 0.179802 -0.031987 80 87 79
-0.057277 -0.072101 -0.034040 99 106 98
-0.147372 -0.127106 -0.038853 118 125 117
-0.274923 -0.105828 -0.042717 106 113 105
-0.024054 0.168105 -0.034207 88 89 83
-0.317854 -0.142152 -0.044355 111 121 109
-0.218144 -0.136620 0.184867 21 29 26
-0.171740 0.109351 -0.033407 24 28 21
0.173368 0.033186 0.234028 135 146 144
0.087031 0.023371 -0.031106 60 69 62
0.029460 0.258425 -0.025940 70 74 67
0.321112 0.367655 0.246411 134 137 136
-0.010766 0.282998 0.020429 1 5 0
0.141311 -0.048420 -0.028258 91 98 90
0.005055 0.177873 -0.032509 82 87 75
0.232635 -0.246240 -0.035125 119 120 114
-0.110295 0.337105 0.014206 40 40 34
-0.260644 -0.104936 0.275801 200 212 202
-0.156673 0.132838 -0.037921 82 90 77
0.154634 -0.048851 -0.024953 97 105 94
0.013596 -0.042466 -0.031932 90 102 94
0.382361 0.057820 0.239873 142 150 151
0.152040 0.144486 0.017420 95 105 110
0.056982 0.297189 0.009434 0 8 5
0.281673 -0.035326 0.236433 135 143 144
-0.274020 -0.048231 0.256422 94 95 91
0.321310 -0.228289 -0.031425 120 117 114
-0.123369 -0.202703 -0.041831 109 110 106
-0.097890 -0.225239 -0.035160 21 16 12
-0.087057 0.019658 -0.035099 78 88 76
0.386535 0.056977 0.240012 143 154 154
0.086958 -0.103928 -0.032007 99 104 94
-0.041838 0.625029 -0.019350 126 128 115
-0.220155 0.271693 0.010503 8 8 8
0.260830 0.329524 0.242268 135 138 137
0.012151 0.254432 -0.025760 61 68 62
-0.090852 0.003648 -0.036383 74 87 72
0.053513 0.229436 -0.028002 77 81 76
0.059807 0.094786 -0.022869 35 49 38
-0.031699 0.272125 0.215372 9 15 15
0.139610 0.286971 0.032038 90 100 107
0.259649 0.355970 0.240439 132 138 138
0.129810 -0.121882 -0.031465 106 114 103
0.363973 -0.004044 0.076626 106 114 113
0.070090 0.334840 0.101226 57 63 65
0.175611 -0.233787 -0.034049 38 38 34
0.251574 0.031079 0.238094 131 138 132
-0.151501 -0.163526 -0.040484 121 123 112
0.048132 -0.050143 -0.032922 72 76 69
0.130297 -0.153753 -0.031237 110 114 107
-0.052789 0.089556 -0.002902 44 76 53
-0.111368 0.099126 -0.038472 75 83 72
-0.196796 -0.113556 0.163002 1 1 1
-0.296968 0.274846 -0.041299 139 140 134
0.350318 -0.178766 -0.029601 108 109 96
0.316021 0.357597 0.246040 132 138 138
0.318766 -0.002329 0.237621 141 147 147
-0.230250 0.250547 0.012706 0 3 2
0.191654 0.211919 0.236809 134 142 139
0.030364 0.161541 -0.029940 0 2 1
-0.074822 0.349045 0.019112 39 40 34
-0.335275 -0.223600 -0.049343 134 127 121
-0.017814 0.372333 0.031800 32 36 31
-0.346202 -0.078948 0.347352 121 147 149
0.068808 -0.054385 -0.025494 2 6 1
-0.243075 0.575455 -0.036145 136 137 126
0.080476 0.292213 0.195001 82 88 90
-0.313802 -0.251814 -0.049345 130 131 122
0.008413 0.354213 0.018039 8 9 5
-0.286839 -0.282816 -0.048966 131 132 123
0.159275 0.283246 0.236884 129 135 133
-0.200379 0.238934 0.014890 1 2 0
0.166245 -0.065857 0.170907 147 158 158
0.239559 0.145121 0.237751 135 141 143
-0.377686 0.057666 0.265172 115 143 147
-0.082462 0.261577 0.215588 18 18 18
0.105504 0.245023 -0.009556 86 93 87
-0.051212 0.268005 -0.034072 55 59 52
-0.297093 0.150368 -0.039050 124 131 123
0.020881 0.018990 -0.029144 54 83 63
0.148187 0.244275 0.019055 101 110 120
-0.328847 0.304922 -0.049535 127 132 118
-0.005266 -0.034316 -0.033546 84 93 84
-0.175486 -0.029925 0.162427 13 17 12
-0.191542 -0.187317 -0.042131 116 117 113
-0.291457 0.150183 -0.040379 114 122 111
0.345256 0.272444 0.244529 134 142 139
0.255009 0.211049 0.238962 132 140 139
-0.033359 0.031302 -0.032380 25 50 33
-0.093448 0.024207 -0.034802 74 87 74
0.204051 0.008359 0.234795 137 145 144
0.274261 -0.113418 -0.026121 3 4 0
0.368008 -0.005101 0.238698 141 149 150
-0.007602 0.627499 -0.022327 126 128 117
-0.232449 -0.175792 -0.039102 28 20 19
-0.080438 0.337932 0.012468 34 35 29
-0.295937 -0.085385 0.309647 86 87 81
-0.038299 -0.035879 -0.036500 90 97 89
-0.236539 0.132004 -0.039215 95 96 90
-0.222282 -0.125683 0.188377 31 31 27
0.024125 0.327219 0.018325 0 3 0
-0.297328 0.184955 -0.038815 132 135 119
0.275591 0.091794 0.238136 141 147 147
0.333654 -0.046512 -0.031750 60 64 59
0.131443 -0.007681 -0.027994 71 78 72
0.329378 0.354345 0.245814 140 140 140
0.291515 -0.044808 0.235418 133 141 142
-0.069108 -0.121313 -0.037637 106 114 103
0.104050 -0.122943 -0.026839 5 14 7
-0.051648 0.264611 0.233768 140 155 152
0.134784 -0.177495 -0.030939 108 113 103
0.014803 0.278143 -0.027491 59 68 59
-0.137070 0.359898 0.028228 32 36 29
-0.208678 0.087198 -0.027328 92 96 89
0.191348 0.159499 0.024232 105 112 120
0.262143 -0.068604 -0.027520 68 69 60
0.030746 0.296880 0.014775 4 4 4
0.096393 0.250319 -0.016848 63 67 62
-0.205856 -0.244541 -0.043537 128 130 121
0.152535 0.218013 0.235358 130 138 135
0.259388 0.073993 0.238878 60 77 93
-0.050291 0.284491 0.236289 141 147 145
0.087210 0.297417 0.090948 74 84 91
0.083291 0.638490 -0.013838 132 134 123
0.071255 0.283604 -0.020811 46 47 43
0.393094 -0.015268 0.187703 130 130 126
-0.113770 -0.133062 -0.038353 116 121 111
0.196997 0.131231 0.031684 107 116 126
-0.159509 -0.295544 -0.045247 112 116 111
0.166584 0.014986 0.231847 135 141 143
-0.218492 -0.266707 -0.045160 122 123 114
0.160613 0.287857 0.236946 135 138 137
0.347194 -0.015115 0.237931 142 150 147
-0.361817 0.072746 0.217827 104 130 130
0.173143 0.036376 0.234154 139 147 146
0.248545 -0.185431 -0.032153 109 113 106
0.314186 0.046133 0.237880 144 147 148
-0.215214 0.561859 -0.034439 127 129 113
-0.164371 0.250905 0.184767 6 9 8
0.383903 0.033933 0.239494 149 152 153
-0.039091 -0.022624 -0.036790 83 91 78
0.323118 0.275907 0.244074 138 144 142
0.165650 0.206650 0.235783 133 139 137
0.341842 -0.059702 -0.024640 34 34 34
-0.005024 -0.190216 -0.037281 118 119 113
-0.061930 0.287578 0.232580 146 155 148
-0.027653 -0.223220 -0.036586 110 114 107
0.271327 0.053448 0.238048 137 145 146
-0.287818 -0.279946 -0.048877 131 133 124
-0.071203 0.341825 0.013479 36 37 31
-0.249862 -0.102034 -0.039816 102 107 95
-0.044670 -0.141148 -0.036726 113 120 114
0.075160 -0.058876 -0.029747 83 90 82
0.071748 -0.059765 -0.029119 73 77 72
0.043621 -0.086940 -0.033782 42 46 41
0.123868 0.192053 0.014682 117 125 126
0.067849 -0.276307 -0.036269 105 109 102
-0.307130 0.640708 -0.048164 132 130 120
-0.270725 -0.067391 0.287708 112 116 109
0.355541 -0.020641 0.237155 139 147 146
0.130928 -0.091077 -0.029671 105 109 102
-0.377121 -0.004351 0.273835 58 62 57
-0.027124 -0.120035 -0.033024 122 119 114
-0.148995 -0.211676 -0.044243 116 121 111
0.201046 0.102981 0.236304 139 145 147
0.231730 0.338164 0.239850 131 137 135
0.193273 0.082138 0.235936 134 142 141
-0.220991 -0.226616 -0.043737 115 120 110
-0.218159 -0.163867 -0.041600 117 118 107
0.371201 -0.195544 -0.028583 101 107 105
0.139106 0.133448 0.232757 132 143 143
-0.088606 0.052084 0.010960 55 84 62
0.125369 0.176481 -0.024574 75 82 74
-0.062920 0.292406 0.021063 0 0 0
-0.197708 0.000081 -0.037150 98 99 88
0.058091 0.305909 0.020736 8 8 8
-0.134276 0.196841 -0.034184 56 60 55
-0.028511 -0.095547 -0.033491 110 111 107
0.392921 -0.052732 -0.027363 84 85 81
0.168776 -0.232207 -0.032516 110 112 103
-0.191385 0.244722 0.184306 5 4 4
0.329954 -0.017681 0.063554 107 114 108
0.275801 0.311403 0.241949 128 139 135
0.103021 -0.182855 -0.032788 115 116 110
-0.146226 -0.263310 -0.043463 107 109 100
0.195163 0.305721 0.238612 131 137 135
0.141582 0.013480 -0.028028 82 86 79
0.061454 0.350002 0.151040 14 10 11
-0.055271 -0.098319 -0.035214 104 112 101
-0.261299 0.189346 -0.036967 110 118 103
-0.289677 -0.111434 0.288933 53 57 50
0.170481 0.068531 0.013765 106 122 132
0.098004 0.159631 -0.020944 57 61 56
0.301402 0.384020 0.245959 133 139 137
-0.081319 0.051535 -0.000312 51 83 60
0.080141 0.320038 -0.003842 66 67 61
-0.240687 0.220403 0.002050 9 13 8
-0.082440 -0.202487 -0.038513 109 114 102
0.081472 -0.135572 -0.033029 109 114 104
-0.227704 -0.109909 0.215415 6 9 8
-0.246421 -0.280311 -0.048213 126 127 118
-0.105317 -0.280431 -0.042719 107 112 102
-0.227677 -0.205021 -0.044217 119 124 114
-0.046345 0.269078 0.219340 16 16 16
-0.030216 0.273260 -0.031385 74 76 67
0.167710 0.251861 0.236173 131 139 136
0.243455 0.021557 0.237559 87 89 115
-0.262255 -0.085367 0.281444 92 93 84
0.185687 -0.025404 0.231966 137 145 144
0.222187 -0.061654 0.056471 108 114 112
-0.180059 0.239070 0.222845 159 172 167
0.218385 0.286706 0.239398 131 139 138
0.116705 0.009761 -0.026400 66 70 63
0.351383 0.022886 0.238466 143 149 149
0.171524 0.157241 0.235930 134 142 141
0.299320 0.157374 0.239488 135 143 142
0.135937 0.068434 -0.029386 61 70 61
0.291955 0.295627 0.242145 133 139 139
0.130910 -0.247989 -0.032373 110 114 109
-0.094006 0.641790 -0.029127 114 119 105
-0.342621 -0.220396 -0.048089 121 119 107
-0.265318 -0.081854 0.284257 145 151 132
0.100155 -0.273846 -0.034680 113 113 109
-0.007538 0.328189 0.151079 4 4 4
-0.255874 -0.079646 0.279100 243 250 242
0.238973 0.118349 0.236650 135 143 142
-0.019654 -0.069355 -0.036464 98 106 95
-0.031366 0.301352 0.022108 0 3 0
0.302198 -0.025473 0.078266 112 115 116
0.239337 0.273744 0.240435 130 138 135
-0.232845 -0.017506 0.178590 41 44 43
0.371722 -0.142663 -0.030325 104 105 99
-0.302482 -0.209488 -0.048648 84 91 85
0.231332 0.351389 0.240195 131 137 137
0.084434 0.297848 0.238895 130 141 137
-0.264414 -0.144692 -0.042791 112 120 109
0.151489 0.279499 0.236541 128 136 135
0.168136 -0.068203 0.198608 143 149 151
0.163955 -0.112403 -0.030295 117 122 112
-0.253170 -0.160716 -0.045511 117 122 112
-0.060754 -0.063682 -0.033880 96 103 95
-0.170956 -0.027669 0.153923 13 19 19
0.135740 0.206822 0.236717 131 139 140
0.310146 -0.044564 -0.002827 108 112 107
-0.211165 -0.136086 0.118467 27 34 26
0.202589 -0.044036 0.233510 135 143 142
-0.135158 -0.225967 -0.040899 107 119 109
0.051416 -0.242776 -0.038623 109 113 108
-0.189907 -0.271151 -0.043307 121 122 116
-0.182121 -0.114651 0.165190 4 6 12
0.291782 0.157594 0.239402 138 144 142
-0.137192 0.370119 0.031376 37 39 30
0.391683 -0.112667 -0.029769 104 105 99
0.095182 0.031428 -0.032245 62 71 62
0.155150 -0.025082 0.215836 137 145 142
-0.184519 -0.251670 -0.043355 122 124 113
0.360448 0.197617 0.242318 142 150 149
-0.290554 -0.175669 -0.047707 124 125 119
-0.006949 0.273515 0.240440 139 139 141
-0.100268 0.347452 0.013915 38 39 30
-0.242808 -0.067471 0.235039 201 12 0
-0.128836 -0.098885 -0.038368 115 116 110
0.387057 -0.214269 -0.028048 97 105 94
0.233773 -0.069460 0.231688 132 140 137
-0.237671 -0.108587 -0.040087 107 115 104
0.179420 0.295780 0.238063 128 136 133
0.040338 0.356227 0.057340 3 6 5
-0.037479 -0.252372 -0.039144 112 113 107
0.108031 -0.069993 -0.031487 98 99 93
-0.019663 -0.078510 -0.036280 105 110 98
-0.271981 0.258190 0.198394 170 178 175
0.336848 -0.017693 0.058136 115 115 115
0.114263 0.324307 0.248887 126 137 133
0.303002 0.229021 0.240497 132 138 140
0.375331 0.005467 0.239138 143 149 151
0.315153 -0.168508 -0.032937 74 77 76
0.241111 -0.239075 -0.032991 117 118 109
-0.177664 -0.219008 -0.042361 125 127 116
-0.136305 0.268246 0.226606 170 174 169
0.101372 0.228742 0.234872 135 141 139
-0.100025 -0.237235 -0.039505 115 120 108
-0.232014 -0.106552 0.233312 6 6 6
-0.300008 0.512544 -0.040391 105 107 91
-0.358860 -0.005080 0.248779 55 56 50
0.178421 0.170214 0.236021 132 140 137
0.135311 0.221483 0.018093 97 108 119
-0.016822 -0.204615 -0.040061 108 115 109
-0.304853 0.184680 -0.037433 39 44 34
-0.125510 -0.207585 -0.043351 104 112 99
0.173451 -0.161476 -0.027679 54 55 51
-0.087338 -0.269991 -0.041160 114 111 106
-0.261476 0.067812 -0.020417 101 113 105
0.390438 -0.014863 0.236732 143 149 151
0.282960 0.128758 0.238393 135 143 140
-0.225696 0.134293 -0.039122 98 103 93
-0.276962 -0.078276 0.298087 19 18 27
0.068089 0.298373 0.238727 139 151 143
-0.038982 0.060535 -0.028275 28 55 37
-0.018498 -0.163548 -0.035633 118 125 117
-0.354360 -0.122232 0.291118 30 37 29
-0.080050 -0.125370 -0.036924 120 125 115
-0.377392 0.022469 0.263090 66 75 68
-0.079327 0.000047 -0.036290 75 88 73
0.239909 -0.070164 0.229426 126 134 133
-0.085760 0.217132 -0.027467 68 75 67
0.325326 0.190568 0.240995 142 145 146
0.212389 -0.141684 -0.032255 105 114 107
0.066932 -0.072732 -0.030852 80 84 77
0.091352 -0.124060 -0.031159 115 119 112
0.215927 0.314456 0.239458 128 134 134
0.255431 -0.128203 -0.027880 113 123 111
0.086003 0.102896 -0.031936 46 49 48
0.179480 0.094974 0.235821 138 144 144
0.155497 0.044393 0.228442 147 157 160
-0.139809 -0.251491 -0.042840 104 113 104
-0.269661 -0.108050 0.275402 132 139 133
-0.228948 0.583416 -0.034270 74 75 64
0.082861 0.297654 0.238695 132 140 137
-0.039888 0.027162 -0.030665 25 50 33
0.222463 0.253641 0.239572 133 136 135
0.209923 -0.029243 0.234256 141 148 152
0.232047 0.206481 0.237979 136 143 137
0.102982 0.175872 -0.027861 83 92 85
0.372584 -0.021121 0.235882 142 148 150
-0.333530 -0.116184 0.316576 90 120 114
0.109514 0.223722 0.235774 132 140 139
-0.348020 -0.052617 -0.035407 123 124 120
0.019587 -0.013127 -0.036190 77 85 74
0.070045 0.201702 -0.022565 91 103 93
-0.125882 -0.249301 -0.041299 104 111 105
-0.131157 -0.087625 -0.031012 2 2 0
0.148538 0.161930 0.235345 132 140 139
0.097233 -0.242984 -0.034594 114 116 107
0.112914 -0.229445 -0.034916 111 112 106
-0.130236 0.269637 0.017815 0 3 2
-0.282801 0.249729 0.071974 6 9 8
-0.178716 -0.031473 -0.036515 91 95 88
-0.318329 -0.112636 0.309230 59 60 54
0.020365 0.200766 -0.027292 53 54 50
-0.157983 -0.220063 -0.043010 116 117 111
0.159355 -0.133805 -0.029640 110 115 105
0.345464 0.146800 0.240382 141 149 148
0.360057 -0.229480 -0.028306 104 104 104
0.081705 0.198011 -0.019929 19 16 11
-0.287666 0.241590 0.206555 171 177 175
0.158677 0.291380 0.237323 132 138 136
-0.097182 -0.160624 -0.038658 21 17 18
-0.205534 0.547926 -0.045574 130 132 121
0.131990 -0.193877 -0.031516 110 119 110
-0.083717 -0.291570 -0.042404 108 112 105
-0.089374 -0.165699 -0.039329 110 115 105
-0.068510 -0.206424 -0.038329 118 120 111
0.236119 -0.072739 -0.019019 103 106 105
0.264993 -0.166840 -0.030483 24 14 12
-0.269815 0.169985 -0.038752 105 106 97
0.220124 0.198533 0.237041 133 141 138
-0.312024 -0.112767 0.302347 55 59 54
-0.229105 -0.083180 0.246311 30 25 21
-0.367590 -0.018553 0.273754 75 75 71
0.169013 0.147063 0.236152 133 141 140
0.316522 0.367582 0.245347 134 137 138
-0.259871 0.259950 0.142932 4 7 6
-0.209879 0.004535 -0.039188 93 98 88
0.011425 0.292078 0.018416 3 3 3
0.199037 -0.226462 -0.034853 114 116 107
0.002696 0.263053 -0.023851 69 73 68
-0.079324 0.204658 -0.031230 68 80 70
0.137280 0.229804 0.236414 130 138 137
-0.003881 0.008126 -0.033515 40 66 42
0.361346 0.132233 0.240324 143 149 149
-0.029824 0.087405 -0.016745 39 65 41
-0.181251 -0.235333 -0.043559 121 125 118
0.160346 -0.109540 -0.030658 120 121 112
-0.003760 0.619867 -0.026196 130 132 119
-0.109449 0.171233 -0.036154 71 78 72
-0.107329 -0.109797 -0.036104 112 121 112
0.114118 -0.264450 -0.031770 115 115 109
0.316219 -0.138803 -0.033925 102 107 97
0.001397 -0.280296 -0.037917 110 114 107
0.215857 -0.016436 0.235712 131 142 140
0.170321 -0.140326 -0.022605 73 73 67
-0.198513 -0.288269 -0.040807 22 19 14
-0.358561 -0.098147 0.342643 113 141 145
-0.246688 -0.113077 0.234372 0 7 1
-0.333425 -0.074880 -0.042796 108 113 103
0.161012 0.328037 0.239060 129 135 133
0.316502 0.348024 0.244388 133 139 139
-0.012344 0.643450 -0.020333 128 133 121
0.338637 0.064046 0.238859 139 150 150
0.238349 -0.063555 0.233623 133 141 142
-0.351859 -0.235080 -0.048241 135 136 130
-0.178064 0.646496 -0.026564 119 127 114
0.320117 0.267675 0.243109 138 144 142
-0.137638 0.124233 -0.038894 31 32 26
-0.111439 -0.293354 -0.043180 107 111 106
-0.317583 -0.113659 0.306548 51 55 50
-0.083894 -0.012166 -0.037171 81 91 79
0.023759 -0.040623 -0.031545 75 84 75
-0.026427 -0.229104 -0.037354 108 113 103
0.152581 -0.175909 -0.030753 107 115 104
0.279793 0.160724 0.239079 134 142 139
0.263849 -0.154462 -0.028846 113 114 105
0.176998 0.040078 0.234905 138 146 145
0.125213 0.210801 0.017223 100 107 113
0.266866 0.077772 0.238175 138 146 145
-0.085398 -0.245145 -0.041215 115 117 108
-0.135249 0.255710 0.191956 2 2 2
-0.074999 0.192466 -0.032453 70 82 72
-0.136621 0.226069 -0.032740 17 18 14
-0.065218 0.374195 0.019748 36 40 33
0.331278 0.106931 0.239003 142 148 148
0.345186 -0.012367 0.062056 112 119 113
-0.155794 -0.291958 -0.044963 113 113 107
-0.032403 -0.290390 -0.039529 106 110 103
0.345304 -0.154974 -0.025609 85 82 77
-0.140084 0.617377 -0.032580 81 71 71
0.152260 0.251112 0.023845 102 109 115
0.279694 0.192771 0.239548 136 142 140
-0.123340 0.085457 -0.037627 76 84 73
-0.136782 0.236020 -0.036693 8 13 3
-0.009519 0.231687 -0.030984 70 79 72
-0.055562 0.004654 -0.018738 37 59 43
-0.080100 -0.184231 -0.038123 116 121 111
-0.059925 -0.075976 -0.034801 97 104 98
-0.169307 0.230995 -0.033079 5 6 0
-0.284699 -0.097853 -0.044732 106 110 103
0.300142 -0.173057 -0.031734 112 116 109
0.214882 -0.205102 -0.034799 119 121 112
-0.037934 0.270760 0.021970 4 4 4
0.261491 -0.036120 0.235786 135 143 144
0.164612 -0.072785 -0.028162 110 112 103
0.142831 -0.102026 -0.032122 112 113 107
-0.230958 0.309926 0.050482 0 3 2
0.195564 0.015047 0.234000 138 144 146
0.242199 -0.134224 -0.026921 78 85 79
0.079501 -0.122499 -0.032400 111 112 101
0.048236 0.319196 0.226560 135 141 139
-0.339579 -0.115192 0.324069 96 121 126
-0.287559 -0.091243 -0.039646 93 102 93
-0.020526 0.001329 -0.034529 38 55 41
0.101391 0.200053 -0.023641 13 13 13
0.279996 -0.209976 -0.029555 6 2 3
0.232042 -0.060762 0.156362 113 119 117
0.115679 -0.145335 -0.029344 115 119 112
0.181651 -0.065512 0.031229 116 130 121
-0.076385 -0.087737 -0.036135 4 3 3
0.169919 -0.259181 -0.031543 110 111 100
-0.035732 0.268629 0.229256 15 21 19
0.180449 0.086381 0.025689 106 118 124
0.397614 0.169556 0.235212 144 152 153
0.112114 -0.007111 -0.029454 70 77 69
0.210674 -0.213694 -0.034438 109 104 100
0.360202 0.520924 0.152571 130 133 132
0.375128 0.245665 0.235939 143 149 147
0.131711 0.317454 0.240036 127 136 129
-0.095382 0.637200 -0.031197 133 129 120
-0.381045 0.024063 0.266559 65 72 66
-0.197742 -0.187501 -0.039674 109 114 104
0.388117 0.062063 0.240374 147 150 151
-0.338732 -0.067196 0.345318 116 138 141
0.155351 0.292813 0.237254 131 134 133
0.380652 0.106302 0.240441 144 152 151
0.192130 -0.162387 -0.030021 110 111 107
0.199153 0.569922 0.043587 119 121 112
0.063852 -0.051234 -0.031652 69 77 66
0.287242 -0.186736 -0.030416 115 116 105
-0.262419 0.280216 0.081029 6 7 3
0.322391 0.099944 0.238674 141 147 145
-0.050090 -0.252912 -0.040099 108 109 105
0.176707 0.212149 0.022161 98 112 118
0.163213 -0.015938 0.225734 141 144 143
0.215030 -0.058402 0.234583 133 144 144
-0.296761 0.044559 0.178705 62 63 52
-0.113710 -0.119140 -0.038169 115 119 112
0.153501 -0.239644 -0.031401 112 114 105
0.251929 -0.172635 -0.029467 110 111 102
0.376273 -0.185214 -0.029166 106 111 101
0.295874 0.367967 0.246640 128 139 137
-0.113208 0.152366 -0.032614 72 77 67
0.151146 0.168488 0.019872 93 97 109
0.067748 -0.067679 -0.029409 69 78 71
0.044091 -0.283286 -0.036989 105 107 98
0.147032 -0.007140 -0.026401 93 97 92
-0.070114 -0.009865 -0.036116 80 85 73
0.238454 0.200205 0.237823 133 141 140
0.154583 0.234738 0.235510 134 141 135
-0.321062 0.161467 -0.036016 123 124 111
-0.222882 -0.252142 -0.044390 119 123 116
0.153437 0.250619 0.236057 133 139 137
-0.076962 -0.260533 -0.041296 111 112 108
0.294435 -0.034692 0.049162 104 117 112
0.152473 -0.174205 -0.031229 110 112 103
0.046366 0.321121 0.226454 135 142 136
-0.273235 -0.159869 -0.043943 114 119 107
0.017062 0.160945 -0.029988 53 57 52
0.166722 0.214887 0.235847 132 138 136
0.094963 0.297360 0.048831 75 84 94
0.168522 0.183570 0.235827 131 139 138
0.262207 0.067587 0.239215 105 118 129
0.168486 0.052635 -0.011624 80 84 79
0.000529 -0.026737 0.017823 81 103 83
0.155268 -0.255925 -0.030741 107 111 104
0.248498 0.045155 0.238182 147 151 146
-0.041976 0.354033 0.022392 29 38 31
-0.344353 -0.164011 -0.046349 126 127 114
-0.064411 -0.119450 -0.035247 21 29 16
0.122346 -0.156995 -0.030743 116 117 108
0.066562 -0.058202 -0.031176 75 83 72
0.244228 0.208760 0.238677 132 138 138
0.145124 0.128551 -0.013303 98 101 102
-0.225152 0.007553 -0.039494 95 97 86
-0.141719 -0.101849 -0.037058 116 121 111
-0.027725 0.271981 0.241164 137 145 142
0.190252 -0.073309 0.110991 120 124 119
0.200869 0.142947 0.236360 133 141 140
