ply
format ascii 1.0
element vertex 1226
property float x
property float y
property float z
property uchar red
property uchar green
property uchar blue
end_header
0.216574 0.032098 0.199582 133 141 140
0.306874 -0.087111 -0.087587 104 106 97
0.063335 0.317868 0.199448 56 62 60
-0.238679 -0.057110 0.042859 1 4 3
0.348158 -0.002486 0.192055 134 142 139
-0.314406 -0.314535 -0.178346 126 128 119
-0.133623 0.268007 -0.016068 0 1 0
0.094627 -0.107480 -0.117189 111 113 104
-0.152498 -0.230645 -0.147940 105 112 104
0.033662 0.316035 0.031891 0 1 0
0.116957 -0.220548 -0.125914 116 118 109
-0.102468 -0.194966 -0.142433 109 111 102
0.016164 0.088692 -0.104486 56 85 65
-0.083735 -0.281814 -0.149023 112 116 109
0.005710 -0.154930 -0.130521 122 124 113
-0.150769 0.281277 0.191897 162 174 166
0.090360 -0.005944 -0.107397 72 79 73
0.114484 -0.107910 -0.115556 110 118 107
0.154517 0.208780 0.205457 128 139 135
0.317482 -0.139160 -0.097977 99 107 96
0.000010 0.149301 -0.054409 55 85 60
-0.047589 0.285666 -0.043612 75 81 79
-0.354440 -0.089146 0.345145 108 139 139
-0.054976 0.117550 -0.082241 44 76 57
0.323159 -0.034175 0.173606 112 118 116
0.128221 -0.215533 -0.124097 119 124 114
0.068744 0.242715 -0.091668 7 3 4
-0.228991 -0.035936 0.062779 13 13 13
-0.026248 0.106078 -0.103919 25 50 33
0.191053 -0.084918 -0.100874 113 118 106
0.253021 0.169296 0.206173 133 141 140
-0.102545 -0.015733 -0.127465 93 100 92
0.323458 -0.049006 -0.075980 67 72 62
-0.290703 0.267499 -0.137667 115 119 112
0.381959 -0.129658 -0.095922 106 111 99
-0.212074 0.089006 -0.132484 19 16 11
-0.061013 0.296518 0.199090 137 153 144
0.185532 -0.050901 0.181127 137 145 142
-0.235414 0.146568 -0.136586 100 105 93
-0.248323 0.164701 -0.135477 102 103 92
0.225814 0.102504 0.204748 134 142 141
-0.011838 0.282699 -0.095952 64 73 66
0.098570 0.320379 0.057355 75 80 89
-0.237503 -0.056251 0.041521 0 3 2
-0.206590 -0.164280 -0.147797 116 120 113
0.325942 0.366196 0.214250 136 142 142
-0.204030 -0.180017 -0.148440 60 57 52
-0.350680 -0.118483 0.318807 88 110 111
0.232678 0.119976 0.205449 135 141 143
0.225300 0.315397 0.210457 130 138 137
-0.371109 -0.335782 -0.190784 128 132 125
-0.249428 -0.110851 -0.146092 116 118 107
-0.306371 -0.166893 -0.158776 47 39 36
-0.124156 -0.208911 -0.144693 118 120 111
-0.031122 -0.087445 -0.125548 112 116 109
-0.127571 0.162565 -0.124546 47 54 46
-0.152892 -0.061300 -0.134016 114 115 109
0.093847 0.299021 0.200827 131 142 138
-0.259527 0.047377 -0.140084 80 82 71
-0.248873 0.253407 0.183877 165 176 172
0.208868 0.060080 0.201547 132 140 141
-0.363340 -0.118751 0.319279 81 105 105
-0.282843 -0.101479 0.214791 5 5 5
0.017316 -0.110646 -0.124345 113 118 106
-0.359183 -0.305143 -0.182523 130 130 124
-0.285721 -0.244344 -0.164262 131 129 117
0.096448 0.249258 -0.088612 83 90 84
0.155197 0.097941 0.196345 149 157 154
0.166413 0.078576 0.199437 133 144 142
-0.131083 -0.065505 -0.132547 114 119 107
0.191831 0.226632 0.206843 129 140 138
0.342202 0.372286 0.216908 138 141 140
0.200225 -0.089103 -0.099533 113 121 108
0.235375 -0.004466 0.195035 135 142 136
-0.030211 -0.207465 -0.136913 119 120 107
0.183907 0.225046 0.206514 133 139 139
-0.053438 0.151126 -0.038864 62 91 73
-0.187088 0.069314 -0.132007 96 98 87
0.304161 -0.207784 -0.113515 116 116 110
0.372496 -0.032976 -0.028413 90 99 92
0.015818 -0.189826 -0.131959 101 113 103
-0.054217 0.290983 0.067198 29 29 29
-0.181110 -0.176581 -0.145370 114 116 105
-0.271164 0.248467 0.039572 9 12 11
-0.241662 0.246818 -0.047161 6 9 8
0.291903 0.293774 0.208173 130 141 139
0.183697 -0.035717 -0.020510 110 118 117
0.057961 -0.146641 -0.125252 116 117 111
0.196601 -0.052976 -0.098081 102 106 99
-0.371207 0.042363 0.191750 13 24 20
0.182664 -0.248386 -0.125855 106 113 105
0.228166 -0.191410 -0.112917 119 121 112
-0.182571 0.083437 -0.131644 87 95 84
-0.158970 0.094040 -0.129641 76 85 78
0.324267 0.241838 0.208412 140 146 144
0.185421 0.035523 0.199803 130 143 142
0.188460 -0.228378 -0.122258 104 113 104
-0.286880 -0.067195 -0.145385 109 111 102
0.060825 0.030380 -0.110819 38 41 40
-0.113203 0.285496 0.141359 0 2 1
0.121456 0.060146 -0.103237 69 76 68
-0.274332 0.243183 0.185601 163 171 168
0.338405 -0.157081 -0.100966 105 110 100
0.083434 0.253586 -0.088304 79 83 76
0.022198 0.108229 -0.097174 56 95 69
-0.071344 0.287282 0.049243 33 40 32
0.151844 -0.066314 -0.106619 107 116 107
0.395249 0.186879 0.210165 146 152 154
0.056889 0.202310 -0.100800 83 90 84
-0.024825 0.299869 0.079195 30 34 29
0.018449 0.028166 -0.105970 47 59 49
0.079605 0.157114 -0.103261 43 50 44
-0.215196 0.273009 -0.114041 78 79 68
0.309130 -0.207013 -0.112864 115 119 114
-0.259615 -0.134544 -0.149720 72 67 63
0.268498 0.077657 0.205210 117 120 119
0.253781 -0.187026 -0.111947 79 84 74
0.308102 -0.134175 -0.096847 111 109 101
0.175453 0.324241 0.212041 133 140 134
0.250778 0.264993 0.207690 129 140 138
0.124185 -0.101260 -0.113162 7 11 4
-0.262962 -0.058739 0.254659 29 33 26
-0.024286 -0.166807 -0.133699 110 115 103
-0.258021 -0.085756 0.030764 16 19 18
0.329775 -0.190822 -0.108769 6 6 2
0.201649 0.134263 0.204384 137 140 143
0.183821 -0.232370 -0.122887 88 88 82
-0.128995 -0.025836 -0.130533 100 107 99
-0.225011 -0.246984 -0.157007 13 15 4
0.276850 -0.132317 -0.099326 110 117 111
-0.228478 0.248227 -0.055199 6 9 8
0.106937 -0.233526 -0.128314 112 113 107
0.246083 -0.071476 0.064221 110 113 112
-0.266154 -0.169842 -0.154500 14 14 10
0.186374 -0.132703 -0.107957 114 121 113
-0.203987 -0.125909 -0.143636 118 126 115
0.302787 0.335921 0.211160 134 137 138
0.383387 0.190922 0.208910 142 150 147
0.099830 0.050711 -0.106001 69 73 66
0.268004 0.103816 0.205816 140 143 142
-0.187030 0.126338 -0.132545 96 101 89
0.019904 0.305958 -0.089733 61 67 65
-0.232833 0.254861 0.179458 111 127 118
-0.283929 -0.197283 -0.159684 123 124 118
0.236764 -0.041399 0.189919 135 141 141
-0.277798 -0.084720 0.259724 199 207 194
-0.092624 0.282674 0.080585 32 36 29
0.231979 -0.066174 -0.088385 0 1 0
-0.270288 -0.275658 -0.164887 120 128 115
0.235045 0.383637 0.211792 127 135 132
-0.010018 0.094113 -0.108615 24 49 32
0.035292 -0.067749 -0.117819 94 99 89
-0.133465 0.280838 0.146124 2 5 4
-0.381686 0.015493 -0.157623 108 106 98
-0.325625 -0.313066 -0.179241 121 125 120
-0.300908 -0.097859 -0.150407 119 120 111
0.332158 0.289514 0.211644 139 147 146
0.151867 -0.247014 -0.127732 103 103 99
0.065138 0.336006 -0.077610 38 38 38
0.375040 0.014259 0.192129 139 147 146
-0.025149 0.143261 -0.068887 51 85 63
-0.218948 0.068518 -0.134653 93 98 88
-0.056649 0.295501 0.165431 1 4 3
-0.232314 0.064028 0.018491 0 3 1
0.164673 0.182239 0.203847 133 139 137
0.112146 -0.079469 -0.112699 108 113 101
-0.238883 0.246999 -0.036503 7 10 9
-0.033225 0.301395 0.165264 5 5 5
0.257063 0.276854 0.208087 133 139 137
-0.013673 0.303980 0.091552 28 32 27
-0.044519 -0.048363 -0.122678 44 42 34
-0.288851 -0.068128 0.285010 69 77 66
-0.229325 0.249008 -0.006986 2 5 4
0.297824 -0.046012 0.163608 117 125 124
0.163597 0.350654 0.212649 128 136 133
0.084460 -0.065806 -0.112647 85 92 84
0.095286 -0.180461 -0.124834 113 121 110
-0.061967 -0.158920 -0.135576 111 118 110
0.075117 0.326765 -0.079727 53 60 52
-0.194776 0.257365 0.023674 9 9 9
0.217662 0.037051 0.200185 133 141 140
-0.384184 0.045276 0.227408 17 17 19
-0.322380 -0.299809 -0.175508 131 128 123
0.085402 0.101669 -0.106513 38 50 42
-0.317380 0.234872 -0.148031 91 92 86
-0.290535 -0.222909 -0.162158 108 112 105
-0.224442 -0.297860 -0.162676 120 121 112
-0.100927 0.094594 -0.124804 74 76 65
0.114598 0.292140 0.058264 75 85 92
0.146532 -0.210933 -0.122284 24 19 15
-0.120600 0.247803 -0.109927 67 75 64
0.370934 -0.029436 0.070422 105 111 109
-0.348932 -0.046756 -0.155820 7 10 9
0.116721 -0.230378 -0.126916 109 118 109
0.133969 0.146587 -0.096335 55 63 60
0.119990 0.041384 -0.104072 65 72 66
-0.098746 -0.291964 -0.153156 111 112 106
-0.268945 -0.072645 0.055571 44 52 39
0.290473 0.014851 0.198622 130 125 121
-0.056988 0.211116 -0.112110 2 9 3
0.216221 0.036788 0.200112 131 142 142
-0.331155 0.267267 -0.150250 135 140 126
0.238491 0.087535 0.204431 138 148 151
-0.040536 0.299187 0.173052 1 4 3
-0.285357 -0.072609 -0.146176 114 116 107
-0.075423 0.028766 -0.121691 86 94 83
0.036023 0.205802 -0.102150 0 1 0
-0.250638 0.252968 0.090864 0 4 0
0.122223 -0.221371 -0.125394 119 121 112
0.272033 0.411642 0.210112 132 139 133
0.245834 -0.015093 0.194888 134 140 140
0.019693 0.293731 -0.090667 69 70 66
-0.053539 -0.164536 -0.135677 113 121 110
0.308739 0.371163 0.214338 133 139 139
0.245263 0.015319 0.198627 138 142 137
-0.233407 0.139229 -0.135429 105 110 98
0.245748 -0.073300 0.020119 108 111 110
-0.222241 -0.071587 -0.024518 87 88 82
-0.024851 0.297440 -0.095537 70 75 65
0.349684 -0.081019 -0.087361 105 105 99
-0.204154 -0.294717 -0.159965 124 125 119
0.126321 0.270747 0.100830 75 79 93
0.395644 -0.012640 0.160741 120 126 126
-0.085492 -0.134530 -0.133966 113 118 104
-0.275598 0.247173 -0.005747 6 8 0
-0.211775 0.252227 -0.028622 9 10 6
0.390897 0.093582 0.201877 140 151 149
0.106768 0.304482 0.043208 75 82 90
0.205732 0.270608 0.208594 130 138 135
0.275598 -0.065246 -0.082594 20 20 14
0.314447 0.182961 0.206476 136 147 145
0.383777 -0.012350 0.176805 127 126 126
0.268429 0.303550 0.208102 133 139 139
-0.112261 -0.129729 -0.135865 111 120 111
-0.218041 0.264128 0.183040 165 176 172
-0.082847 0.289507 0.155084 3 4 0
0.096481 0.302145 0.202974 134 137 138
-0.226602 -0.228739 -0.154796 36 40 33
-0.251185 -0.085578 0.197079 8 8 8
0.257641 0.050568 0.203256 138 144 142
0.083024 -0.032356 -0.109484 82 91 82
0.348063 0.057824 0.200071 141 147 147
0.314794 -0.046961 0.092587 105 111 109
0.145792 0.204842 -0.015882 100 112 118
0.266493 0.311498 0.208596 133 139 139
-0.115620 0.223765 -0.113466 67 76 67
-0.320208 -0.102026 0.327442 110 139 136
-0.164159 -0.136117 -0.140943 48 57 48
0.155964 0.184619 0.016560 62 66 78
-0.134399 0.273531 -0.107405 58 65 57
0.108541 0.263953 -0.084399 89 91 82
-0.252374 -0.165995 -0.152480 117 122 112
0.070979 -0.094939 -0.118170 100 108 97
-0.085308 0.064659 -0.059344 97 114 96
-0.078180 -0.268216 -0.145945 103 107 100
-0.301199 -0.096421 0.276167 60 64 57
-0.166034 0.040215 -0.130788 90 100 88
-0.393793 0.232935 -0.170368 174 172 164
0.139108 0.224520 0.204443 139 150 146
-0.309056 -0.152630 -0.158122 122 120 112
0.172246 0.130162 -0.001988 45 53 70
-0.276124 -0.204803 -0.159845 129 130 124
-0.351514 -0.245721 -0.172596 129 130 121
-0.270152 -0.092540 0.242183 153 158 148
0.160217 0.122741 -0.095774 32 39 33
0.193738 0.367779 0.212487 133 136 135
0.053616 0.287944 -0.086059 59 62 61
0.063132 0.013916 -0.109757 74 75 71
0.223759 0.277210 0.208446 129 135 133
0.258391 0.125101 0.206276 135 143 140
-0.079929 0.094800 -0.070000 45 79 57
0.278991 -0.213583 -0.115206 112 113 107
0.249685 0.250633 0.206854 133 139 137
0.061543 0.109065 -0.037219 89 123 101
-0.185519 -0.201439 -0.149348 122 123 110
-0.344304 -0.144554 -0.162922 82 72 70
-0.191241 0.268237 0.121581 25 26 20
0.305053 0.204293 0.206691 139 145 143
0.343153 -0.153068 -0.099728 44 36 35
0.297393 -0.129030 -0.097351 108 113 103
0.200601 -0.066287 -0.077419 127 134 128
0.004888 -0.233612 -0.136138 106 110 105
0.131968 0.240998 -0.022925 102 112 117
0.097469 0.298111 -0.079273 68 69 63
0.199499 -0.061421 -0.099448 54 49 47
-0.309868 -0.105723 0.268970 40 49 40
-0.029493 0.302207 0.124536 37 41 36
-0.057879 -0.186091 -0.138063 115 119 112
-0.005704 0.305952 0.191756 17 17 17
0.188754 0.083849 -0.092822 87 91 86
0.136892 -0.215746 -0.123636 123 125 114
0.151279 -0.015114 -0.104284 39 43 36
0.212921 -0.028079 0.191393 134 142 139
-0.226380 0.254373 0.053916 1 8 2
-0.021734 0.303338 0.117391 41 42 38
-0.235555 0.247702 -0.043113 8 11 10
0.035976 0.021345 -0.058728 71 93 73
-0.027834 0.122664 -0.093640 35 62 42
-0.247028 -0.079783 0.199576 10 18 15
-0.390938 -0.255083 -0.178474 129 130 126
-0.107476 0.286991 -0.103313 60 68 57
-0.332211 -0.215023 -0.167426 130 132 123
0.181873 -0.242131 -0.125275 102 107 97
-0.082532 0.025668 -0.122687 86 98 90
-0.009477 0.306686 0.116933 37 38 32
-0.317329 -0.157181 -0.160678 114 119 109
-0.075920 0.065497 -0.069733 42 71 51
0.299857 0.115954 0.206201 139 145 143
0.078770 0.079205 -0.107847 46 50 43
0.102777 0.289839 -0.080227 72 77 65
0.269291 -0.071337 -0.084622 80 87 79
-0.362839 -0.111860 0.328283 91 116 123
0.199877 0.038306 0.200296 135 141 143
0.222448 -0.078053 0.015881 110 113 112
-0.186079 0.229442 -0.119158 84 92 81
-0.002039 0.304638 0.017195 3 3 3
-0.225520 -0.281869 -0.160568 117 119 110
-0.342879 -0.116346 0.299603 33 44 40
-0.018598 0.314453 -0.077592 0 2 0
0.275723 -0.063791 0.039168 109 112 111
-0.105756 0.270498 -0.040864 0 0 0
0.103339 0.314263 0.004165 77 94 97
-0.263284 0.027810 0.079130 22 29 23
0.374433 0.136282 0.205670 142 150 151
0.217461 -0.239378 -0.123806 82 83 77
-0.302884 -0.065610 -0.147193 113 118 108
0.342235 0.047001 0.199032 147 150 149
0.189510 -0.032799 -0.099613 100 102 93
-0.257265 0.251540 0.093401 5 12 6
0.267879 -0.021212 0.193821 131 142 140
0.279363 -0.062621 0.037794 106 112 110
0.253386 0.295391 0.208249 128 136 135
-0.005602 0.295467 -0.093920 67 77 65
-0.215447 0.210282 -0.126462 94 102 91
-0.313899 -0.316073 -0.178479 110 110 104
-0.151009 0.269777 0.076707 35 39 32
-0.245419 0.068727 0.023121 0 4 0
0.377157 -0.029437 0.026241 102 110 107
-0.022671 0.302119 0.110451 38 39 35
0.083468 -0.047351 -0.110934 85 90 78
-0.106266 0.286907 0.136552 11 11 7
0.025271 -0.240020 -0.136088 109 110 106
-0.251944 -0.024169 0.073027 6 12 12
-0.347422 -0.219213 -0.169031 133 137 132
-0.158108 -0.229781 -0.148691 107 112 102
0.060760 -0.174061 -0.126973 112 117 107
-0.160660 0.136320 -0.127928 91 95 90
0.282364 -0.045932 0.182124 115 130 127
0.136405 -0.000103 -0.104360 90 96 94
0.064191 0.102934 -0.036634 89 123 101
0.271949 0.177694 0.205852 133 141 140
0.270750 0.027974 0.200388 132 146 126
0.381187 0.025073 0.192666 143 146 147
0.282135 0.080834 0.204804 92 96 110
0.187541 -0.234994 -0.122821 101 105 100
0.042691 0.317415 0.211027 131 140 133
0.244492 0.255288 0.207376 132 138 138
0.181569 0.026299 0.199764 133 139 141
0.072960 -0.107259 -0.119232 103 110 102
0.181160 -0.237546 -0.124120 25 14 18
-0.332206 -0.047596 -0.150697 95 104 95
0.017612 -0.132041 -0.126618 117 119 110
0.379725 -0.043677 -0.076792 81 86 76
0.374134 0.086791 0.201368 142 150 149
-0.189793 -0.205625 -0.149907 95 104 95
-0.397617 0.028548 0.214603 67 67 61
-0.075707 0.039670 -0.122494 31 35 30
-0.317496 -0.107378 -0.154737 122 123 112
0.147888 0.078789 -0.099840 66 70 63
-0.083405 -0.283304 -0.149572 110 117 109
-0.053176 0.293692 0.098131 29 36 30
-0.076021 0.282417 0.008052 0 0 0
0.228206 0.209066 0.206196 133 139 137
0.091092 0.117897 -0.105717 1 1 1
-0.388862 0.084507 0.200075 112 142 145
0.345393 0.159186 0.206490 144 147 148
0.296071 0.060284 0.203513 139 145 145
0.163026 -0.166700 -0.115783 116 117 106
0.270258 -0.182923 -0.109171 111 119 108
0.287509 -0.059365 0.047595 107 107 107
0.348472 -0.187693 -0.107727 108 112 107
-0.151860 -0.162897 -0.142355 3 3 0
-0.169198 0.229372 -0.117209 90 92 81
-0.395030 0.011195 0.219723 71 71 73
0.186093 0.145322 0.202530 134 142 139
-0.138740 0.075720 -0.129354 77 86 77
-0.204265 -0.039794 -0.137821 102 107 97
0.388784 0.022108 0.191851 142 148 146
0.370369 -0.016665 0.176881 122 128 128
-0.225854 -0.053455 0.012749 16 22 20
0.319304 0.343061 0.212694 136 142 142
-0.259489 -0.198781 -0.157335 120 125 113
-0.158651 -0.014418 -0.132733 30 31 22
0.312898 0.316308 0.210771 138 144 142
-0.236023 -0.059359 -0.011875 2 5 4
0.200971 0.267517 0.208368 131 139 138
0.038881 0.316601 0.113448 1 4 3
-0.170306 -0.148016 -0.142283 128 126 118
-0.132124 0.276054 0.096796 25 27 16
-0.319980 -0.100013 0.292398 59 63 56
-0.091073 -0.093056 -0.131671 26 15 19
-0.350139 0.286377 -0.153101 128 133 123
-0.048105 0.297648 0.162905 2 3 0
-0.150761 -0.230405 -0.147588 83 90 82
0.066864 -0.091950 -0.118252 9 6 3
-0.068337 0.076139 -0.079324 41 68 48
-0.257433 -0.193230 -0.156429 121 126 116
-0.223928 0.095842 -0.132936 93 99 82
-0.174060 0.123518 -0.130883 98 99 88
0.183616 -0.055577 0.173135 145 153 150
-0.376317 0.052107 0.223312 17 28 28
-0.352336 -0.216277 -0.170038 138 140 131
0.260567 0.333209 0.210291 131 137 137
-0.197990 0.279792 0.186151 169 177 174
0.178146 -0.029692 0.018034 147 155 156
-0.068494 0.195688 -0.114708 70 83 70
0.380060 -0.005660 0.188705 138 149 147
0.315368 0.089803 0.204704 140 148 147
-0.179500 0.275728 -0.110226 67 71 64
0.156715 0.134016 0.198462 131 144 143
0.117103 0.284284 0.104168 50 63 74
0.298404 0.271479 0.208326 135 138 139
0.126552 -0.215778 -0.124387 120 125 113
-0.284706 -0.126947 -0.152668 113 121 108
-0.207726 -0.146518 -0.146056 118 120 111
-0.149306 -0.037037 -0.132827 105 114 105
0.179156 -0.045800 0.159522 124 130 128
0.343673 -0.042660 -0.015827 101 107 105
0.152764 0.273489 0.208075 130 138 137
0.020074 -0.095891 -0.121982 89 96 88
-0.212597 0.068705 -0.022250 17 18 14
0.227416 -0.064302 0.181539 123 131 130
0.160436 0.163840 -0.012847 92 93 106
0.336498 -0.041340 -0.040420 68 79 77
-0.205915 -0.083374 -0.139519 107 115 102
-0.321470 -0.097201 0.299019 62 63 57
-0.240567 -0.309825 -0.167175 129 129 123
0.378386 -0.023830 0.095027 106 112 110
-0.186681 -0.148818 -0.143722 136 122 116
-0.250682 -0.245814 -0.160106 123 125 116
0.078979 -0.250716 -0.133815 124 124 118
-0.045773 0.151806 -0.040995 47 76 58
0.125885 -0.005868 -0.105108 83 90 84
0.229386 0.219179 0.206591 132 140 139
-0.087501 -0.258259 -0.146095 110 111 105
0.284006 -0.000070 0.196559 133 141 142
-0.251979 0.007783 0.082009 19 25 23
-0.054624 -0.116471 -0.131463 117 121 114
-0.341890 -0.069165 0.351005 117 141 143
-0.212999 0.255299 -0.074041 71 78 72
-0.258224 0.004894 0.078161 20 28 27
-0.061169 0.313931 0.206971 149 153 146
0.222670 -0.144079 -0.106272 111 113 104
0.202749 0.387099 0.214465 129 136 130
0.301826 -0.036592 0.187482 127 133 131
0.099866 -0.019720 -0.108174 94 95 91
-0.203042 -0.136581 -0.145103 71 80 73
-0.274452 -0.279598 -0.165810 126 127 121
-0.084571 -0.036967 -0.126210 75 84 75
-0.307996 -0.083454 0.295596 79 83 76
-0.200841 -0.123636 -0.142947 112 119 111
-0.292493 -0.081249 -0.148120 112 117 107
-0.144000 0.281212 0.191352 161 173 165
0.287781 -0.057548 -0.076148 74 75 69
-0.214588 -0.188522 -0.150988 122 124 113
0.236048 0.041508 0.202181 143 147 140
0.124379 -0.036928 -0.107099 98 100 89
-0.043691 0.298833 0.170170 9 13 8
0.167647 0.272439 0.208403 132 138 138
-0.100903 0.282827 0.105721 18 19 15
-0.073363 -0.027246 -0.124888 98 108 96
0.011844 0.308426 0.198396 26 26 28
-0.026538 0.282963 -0.097388 64 76 68
-0.368760 0.197716 -0.163160 121 126 116
-0.043275 0.002611 -0.118569 87 95 84
0.183621 0.010641 0.195657 155 165 168
-0.230913 -0.016319 0.066354 19 20 16
0.333299 -0.099373 -0.090553 108 110 101
-0.266782 -0.275171 -0.164133 121 129 116
0.229559 0.331166 0.211605 130 138 137
0.168446 -0.085935 -0.105569 116 117 111
-0.205742 0.284391 0.188847 168 174 174
-0.002706 -0.101140 -0.125020 112 118 116
-0.296797 0.144317 -0.122695 89 98 89
-0.271980 -0.078515 -0.144723 107 115 104
-0.011381 0.044975 -0.105506 26 51 32
0.311432 -0.150211 -0.099773 103 104 100
0.375625 0.090379 0.201777 144 152 151
0.044012 -0.009900 -0.110276 82 86 81
0.020194 -0.034744 -0.114780 86 93 85
0.204102 0.143711 0.205140 133 141 142
0.125950 0.054664 -0.103066 75 82 76
0.234197 -0.211324 -0.116819 119 120 109
0.034136 0.316003 0.157269 3 3 3
-0.094112 0.284865 0.107944 35 39 32
-0.243592 -0.058394 0.080789 13 19 17
-0.224250 0.065642 -0.135531 92 97 87
0.275725 0.341182 0.210611 132 138 138
-0.262631 -0.057240 0.252336 8 11 12
0.075562 0.338528 0.159173 44 47 48
-0.198063 -0.019001 -0.135559 107 112 102
0.237455 0.161871 0.206248 135 141 139
0.073219 -0.052873 -0.111846 76 86 74
0.069806 0.061132 -0.109753 54 66 58
-0.227827 0.173830 -0.135301 92 97 87
-0.216417 -0.245645 -0.155988 117 118 112
0.316753 -0.150956 -0.099822 78 78 74
-0.344790 0.244181 -0.155461 128 130 119
-0.377753 0.406203 -0.152515 138 140 124
0.190427 -0.077334 0.117502 138 146 143
0.301434 -0.040085 0.180974 121 124 125
0.307463 -0.051337 0.064333 105 108 107
0.085565 0.332093 0.119413 96 99 98
-0.068943 0.053627 -0.112679 73 86 71
0.315360 -0.097317 -0.090580 109 109 103
-0.150963 0.269351 0.071567 32 39 33
-0.090893 -0.102225 -0.132696 115 119 112
0.295155 -0.056189 -0.024531 105 109 102
-0.268001 -0.079321 0.254069 100 88 86
-0.207454 -0.063897 -0.139564 112 117 107
-0.275540 0.244981 -0.068826 119 125 125
0.271719 -0.056535 0.137775 114 118 111
0.192974 -0.170471 -0.113196 114 116 107
-0.068126 0.316865 0.202383 145 149 142
0.003160 -0.188484 -0.132667 120 124 117
-0.141625 -0.145189 -0.139864 103 108 96
0.173252 0.329823 0.212779 132 139 133
0.122341 0.193597 -0.094310 50 51 47
-0.026184 0.294658 -0.049292 58 65 59
-0.042178 0.302172 0.205054 137 150 145
-0.396766 -0.060473 -0.165696 113 117 110
0.040874 0.226520 -0.098826 84 91 85
-0.102577 -0.131861 -0.135066 108 115 107
0.325770 0.210625 0.207224 142 148 148
-0.065009 0.048730 -0.069496 33 65 44
0.164107 -0.007016 0.122011 128 136 133
-0.146191 -0.248074 -0.148864 110 99 94
-0.019769 -0.040953 -0.119009 100 105 95
0.188480 -0.059507 -0.100204 115 117 106
-0.210318 0.019457 -0.137850 98 106 95
-0.186812 -0.222597 -0.149924 5 5 1
0.175529 0.112383 -0.026566 109 119 124
-0.374222 -0.124466 -0.165162 128 130 119
0.206425 -0.080700 0.034928 108 115 107
-0.304810 -0.310001 -0.175419 129 129 123
-0.330846 0.332221 -0.142775 138 140 127
0.097575 0.305769 0.204196 131 139 136
0.213434 -0.001008 0.195281 134 142 139
0.086524 0.321476 0.157542 82 84 90
0.224639 0.064282 0.203083 94 100 98
0.344792 0.392413 0.216232 133 141 140
-0.071159 0.060770 -0.070994 35 67 46
0.018089 0.015100 -0.052678 82 104 86
0.097478 -0.016388 -0.107730 0 1 0
-0.072374 0.293558 0.143376 2 5 4
0.263768 0.215955 0.205316 132 138 138
-0.201131 0.062182 -0.036478 16 19 18
-0.058097 0.063720 -0.084481 33 62 44
0.219086 -0.068568 0.176782 121 124 123
-0.220053 0.220816 -0.125036 11 12 3
-0.380485 -0.232626 -0.175589 90 85 81
0.232043 -0.135985 -0.103601 115 117 108
0.249190 0.315226 0.209677 126 137 135
0.342768 0.413774 0.218295 136 139 140
0.388601 -0.013198 0.166261 123 127 122
-0.183971 -0.297936 -0.158539 27 27 27
0.139861 0.243949 0.074644 89 95 106
-0.032887 -0.001898 -0.117548 89 94 84
0.104232 -0.025032 -0.107516 87 95 84
-0.093205 -0.172774 -0.139069 109 114 104
0.002643 0.308585 0.104537 37 41 36
0.093408 -0.111231 -0.117734 109 114 104
-0.152697 0.268411 0.063628 31 35 28
0.020818 0.313120 0.043957 0 3 2
0.358315 -0.033685 0.061477 106 114 111
0.324312 -0.156218 -0.100890 51 57 55
0.347842 0.207184 0.207903 145 148 151
0.099427 0.303942 0.204219 135 138 137
-0.131699 -0.270373 -0.150077 117 124 116
0.175316 0.027432 0.195355 135 149 153
0.166301 0.106206 0.198620 134 142 141
0.304877 -0.136336 -0.097567 108 109 100
-0.299051 -0.058001 0.293762 72 70 62
0.234327 -0.066986 -0.090339 57 66 57
-0.322406 -0.097774 0.333080 110 139 140
-0.378838 0.062845 0.174343 93 117 115
0.116129 -0.030749 -0.107028 93 100 92
0.089887 0.322283 -0.076053 52 52 48
-0.087000 0.268904 -0.103921 61 61 61
-0.106412 -0.223133 -0.144136 119 124 114
0.080148 0.338368 0.134913 78 84 82
0.115628 0.230472 0.198210 133 139 139
0.176243 -0.035393 0.138226 141 144 143
0.208910 0.273471 0.208654 132 138 136
0.132321 0.066463 -0.103030 60 66 64
0.289802 0.072252 0.204381 135 146 142
0.008893 0.311995 0.123927 3 4 0
-0.271450 -0.095965 0.231530 3 4 0
-0.389498 0.273374 -0.162329 153 161 148
0.387506 -0.047332 -0.078199 88 88 82
0.113554 -0.197956 -0.123916 115 122 114
0.115738 0.044703 -0.104089 66 70 65
0.011683 -0.267962 -0.140872 114 118 111
-0.162376 -0.076392 -0.135498 113 122 113
0.062425 -0.194154 -0.128943 108 113 103
0.014765 0.309532 0.188529 11 14 15
-0.016209 0.010609 -0.114982 77 87 73
0.323527 -0.089035 -0.089023 105 109 102
0.284174 -0.049467 0.169207 113 116 117
-0.126698 0.282573 0.138430 4 4 4
-0.153900 0.160628 -0.126784 79 84 72
0.357049 -0.129047 -0.095561 111 112 106
0.042698 0.317761 0.157625 6 6 6
0.023823 -0.214041 -0.132523 113 118 108
0.261667 0.009276 0.197871 143 150 144
0.159435 -0.179067 -0.117431 120 121 110
0.355820 -0.135950 -0.096721 99 106 98
0.066364 0.047921 -0.037361 44 51 43
-0.330094 -0.133822 -0.158128 117 124 116
-0.392324 -0.107305 -0.167988 117 122 112
-0.020269 0.307193 -0.093249 25 29 22
0.233983 -0.067538 0.150875 105 111 111
-0.079432 0.001663 -0.123651 92 97 83
0.224831 0.212175 0.206396 136 139 138
0.085777 0.168140 -0.100011 65 65 67
0.171001 0.335238 0.213704 131 137 135
0.367479 0.006340 0.191906 139 145 145
0.250358 0.089817 0.204899 108 117 129
-0.218060 -0.195949 -0.152531 121 125 118
0.136549 0.254454 0.205699 128 139 135
0.119408 -0.093062 -0.112640 110 118 107
0.291601 0.059327 0.203526 135 140 160
-0.010065 -0.091551 -0.123956 105 114 105
-0.082021 0.095500 -0.068052 53 82 60
0.276376 0.383261 0.213010 132 140 139
-0.375128 -0.289671 -0.181106 121 125 118
0.300483 -0.056799 0.007149 102 105 104
-0.062483 -0.229574 -0.140818 9 4 2
-0.031574 -0.209411 -0.137016 122 124 115
0.327674 0.331704 0.212513 142 142 142
0.185761 -0.062368 0.125907 139 147 144
0.234954 -0.203121 -0.115493 117 118 107
0.214300 -0.009735 0.193668 135 143 144
-0.270759 -0.075521 0.049536 16 15 15
-0.295042 -0.136137 -0.153941 19 15 16
-0.314893 -0.233400 -0.166524 135 133 125
-0.116812 0.219485 -0.114910 66 78 70
-0.334685 -0.052042 -0.151069 111 113 104
0.388751 -0.025041 0.034903 102 106 101
0.395295 -0.017996 0.092865 106 112 110
-0.322211 -0.106605 0.322986 61 91 83
-0.008346 0.105903 -0.105014 27 49 33
0.174005 0.137255 0.065885 100 110 115
0.139100 0.242311 0.205693 132 139 133
0.257716 0.174347 0.206020 135 141 141
0.116305 0.239297 -0.089168 67 68 64
0.245557 -0.191734 -0.112576 110 111 107
-0.359742 -0.082382 0.347908 113 142 141
-0.200445 -0.276384 -0.156958 117 118 112
-0.315593 -0.095827 0.291805 67 77 63
0.075099 0.343767 0.066869 71 71 75
-0.353635 0.381359 -0.143782 118 116 106
0.271185 -0.026363 0.192772 128 138 141
0.291373 -0.047999 0.165327 116 124 123
0.157683 0.030239 -0.103933 71 76 66
0.175382 0.127351 0.048458 104 114 119
0.125519 -0.084746 -0.111696 108 109 103
0.102979 -0.079192 -0.113118 24 28 21
-0.274184 -0.063250 0.267945 198 203 193
0.264947 0.348778 0.211884 134 137 138
-0.306890 0.277495 -0.142023 120 128 115
-0.053843 0.249112 -0.104850 34 38 33
-0.208955 0.065833 -0.030810 11 17 15
0.203109 -0.126749 -0.105250 120 125 113
-0.260533 0.247319 0.184854 155 164 157
0.240513 0.225829 0.206630 131 137 137
-0.266286 0.259740 0.193746 165 176 172
0.164727 0.156275 0.037822 100 108 109
0.097324 -0.041367 -0.109311 72 76 69
0.296011 0.061887 0.203687 140 146 146
-0.086451 -0.019382 -0.125694 96 101 91
-0.124439 0.038882 -0.128297 23 27 22
0.328689 -0.165289 -0.102635 109 104 100
0.286957 -0.059971 0.039264 108 108 110
-0.221082 0.251024 -0.023286 8 9 5
-0.000190 -0.260393 -0.139881 117 121 116
0.328684 -0.108763 -0.091930 26 18 15
0.028616 0.251534 -0.096074 74 88 79
0.325945 0.370650 0.214457 138 141 140
0.083159 0.159533 -0.102116 32 35 34
-0.220897 0.068254 -0.134929 91 98 90
-0.319903 -0.073767 -0.150350 112 114 105
-0.275040 -0.070543 0.264684 122 130 119
0.255539 -0.077267 -0.085684 93 106 93
-0.146248 0.056650 -0.129484 79 87 76
0.191258 0.265487 0.208034 126 137 135
-0.099057 0.203823 -0.115032 68 78 66
0.101683 -0.106302 -0.116694 117 124 116
0.207756 -0.076422 0.136429 112 118 116
0.209611 -0.072041 0.165647 113 120 114
-0.131657 0.295015 0.194439 159 168 161
0.219502 -0.079218 0.052683 107 118 114
0.371010 0.092686 0.202159 143 149 147
-0.241907 0.253072 0.065412 4 8 3
-0.038805 0.296900 0.095617 31 41 29
0.295321 0.396928 0.213648 133 139 139
-0.252272 -0.062304 0.222616 135 32 29
0.350724 0.402010 0.215282 134 140 140
0.152678 -0.043929 -0.104658 98 102 95
0.046418 -0.183266 -0.128664 107 111 106
-0.025529 0.230320 -0.104521 81 90 81
0.399788 -0.021883 0.012202 97 106 99
-0.259043 0.247900 0.184634 155 164 157
0.248260 -0.213796 -0.116824 125 123 115
-0.092561 -0.259058 -0.146657 115 115 109
0.070719 0.345420 0.199387 88 88 88
0.157039 0.110305 0.197693 134 142 141
0.056963 -0.243034 -0.134130 115 116 107
0.168381 0.237347 0.207322 133 139 137
0.307891 0.332718 0.211081 143 143 143
0.158010 0.124317 -0.095418 57 66 57
-0.315654 0.140184 -0.134582 87 94 86
-0.237978 -0.007821 0.068414 20 26 24
0.014613 0.086587 -0.105292 57 85 70
0.261859 0.341818 0.211164 131 139 136
0.304719 0.097914 0.205089 135 146 142
0.083139 -0.170477 -0.124833 117 118 112
0.171082 0.139291 0.047559 95 109 115
-0.260987 0.246549 0.002531 11 11 11
0.141193 0.152100 -0.095367 59 68 61
-0.390820 0.076958 0.199378 119 143 145
-0.359736 0.225046 -0.162832 115 111 100
0.297066 0.253036 0.207271 135 141 139
0.161085 0.064639 -0.100166 72 76 71
0.166718 -0.142436 -0.111860 111 113 104
0.226933 -0.005897 0.194422 135 141 141
-0.120859 0.103329 -0.127952 76 84 73
-0.306221 -0.155794 -0.158323 29 24 20
0.059354 0.319666 0.182203 13 16 17
0.201355 -0.182469 -0.114030 110 114 107
0.383357 0.085526 0.200906 143 149 147
0.088295 0.317888 0.159370 84 83 92
0.232922 -0.142470 -0.105149 114 122 111
0.296577 -0.016993 0.193870 135 141 143
-0.361459 0.174999 -0.148357 120 130 116
0.071794 -0.197676 -0.128663 53 51 43
0.149074 -0.239483 -0.126903 0 2 0
0.121115 0.047778 -0.103894 67 74 68
0.259656 0.134384 0.206664 136 142 142
-0.342873 -0.101207 -0.158267 128 126 118
-0.393025 -0.318392 -0.189083 35 22 26
0.158334 -0.029721 -0.103442 95 105 93
-0.186850 -0.010389 -0.135970 98 103 93
-0.106372 0.272261 -0.029968 3 6 5
-0.244189 -0.060456 0.202920 33 25 22
-0.167333 0.261294 0.005050 0 3 2
0.203368 0.311846 0.210921 127 135 134
0.307394 0.000150 0.196025 136 142 142
0.174668 0.240846 0.207422 132 140 137
-0.312892 -0.094335 0.290314 70 78 67
0.247140 0.359161 0.213335 128 139 135
-0.251231 0.246377 -0.042788 11 12 8
-0.093980 0.209554 -0.114644 60 69 62
-0.137300 0.266679 -0.021972 5 5 5
0.385451 0.154377 0.207250 147 147 151
0.183449 -0.045234 -0.100347 106 114 101
0.061497 -0.124930 -0.122780 110 112 101
-0.306009 -0.061993 -0.147686 45 46 42
-0.064215 0.292996 0.180677 11 14 13
-0.102057 -0.292531 -0.153229 101 105 100
0.083868 0.042112 -0.108022 64 71 65
0.049844 -0.151420 -0.126429 112 116 109
-0.005583 0.313092 0.210172 141 148 142
0.198665 -0.072874 -0.099201 109 114 104
0.303253 -0.053253 0.058014 103 114 110
-0.277682 0.194970 -0.139350 61 63 54
0.301125 -0.084817 -0.086683 106 106 100
0.019477 0.281137 -0.090907 69 73 68
0.050087 0.318174 0.176502 10 10 10
0.287115 0.053206 0.203606 78 100 122
0.195095 0.118893 0.202933 135 141 141
-0.237551 -0.037544 -0.139464 103 111 100
0.076980 -0.164256 -0.126212 107 116 107
-0.162172 0.082153 -0.129624 9 17 6
-0.026190 -0.235209 -0.139299 111 113 102
0.372850 0.206017 0.209132 143 149 149
0.363096 0.074076 0.201240 142 150 149
0.101122 0.307792 0.099447 76 83 91
0.332033 0.198373 0.206930 142 148 148
0.110173 0.321731 0.209736 134 142 141
0.294991 -0.155979 -0.102761 105 107 96
0.215719 -0.158602 -0.109170 1 2 0
-0.328190 -0.116396 -0.157179 120 125 115
-0.220230 -0.046633 -0.020957 1 1 1
-0.352792 -0.005362 -0.146510 111 123 113
-0.281063 -0.073697 0.272639 182 188 186
0.103011 0.312607 -0.037292 92 97 104
-0.237495 -0.058519 0.014744 3 3 3
0.279127 0.080178 0.204819 147 154 162
-0.222296 0.248080 -0.121181 92 97 85
0.092966 -0.097156 -0.115597 109 113 106
-0.329042 -0.284540 -0.173545 126 127 118
0.207017 0.003476 0.196663 135 141 143
-0.161034 -0.148326 -0.141592 121 123 114
-0.180789 0.267819 0.111747 38 43 33
0.068031 0.112340 -0.032836 93 120 100
0.185973 -0.246103 -0.126515 40 46 44
-0.115737 -0.264446 -0.148842 115 116 107
-0.138657 -0.157235 -0.140749 107 108 102
0.167924 0.049798 0.189395 124 135 146
-0.208369 -0.164543 -0.148044 121 123 114
0.327981 0.144230 0.206220 143 149 149
0.186496 0.259775 0.208371 127 135 132
-0.051612 0.120445 -0.082177 44 73 53
-0.071724 -0.281422 -0.148489 0 3 0
-0.209837 0.254641 0.016581 1 1 1
0.040146 -0.187635 -0.129770 5 0 0
-0.252860 -0.069469 0.106764 21 24 23
-0.278591 -0.102853 0.230413 64 72 71
-0.135332 -0.256180 -0.149195 117 119 110
0.097253 -0.181852 -0.124762 119 124 114
0.093213 -0.167123 -0.123821 110 117 109
-0.259608 0.246571 -0.003361 6 9 10
-0.127928 0.126496 -0.127054 6 7 1
0.051203 0.088003 -0.083958 63 97 77
0.324525 0.340160 0.212307 141 144 143
-0.186439 0.288972 0.189101 164 173 166
-0.335151 -0.161390 -0.164115 126 127 118
0.097029 0.323657 0.022140 77 84 88
0.328745 -0.005364 0.193185 137 145 146
0.113289 -0.050060 -0.108852 96 98 89
-0.257199 -0.307590 -0.168807 134 130 123
0.196523 -0.101857 -0.102050 115 123 110
0.397811 -0.101599 -0.091072 104 106 95
0.283990 -0.061781 0.022889 103 111 108
0.044597 0.318092 0.074165 6 6 6
0.312975 0.312188 0.210445 135 141 139
0.149613 0.203758 0.029348 68 85 88
-0.392813 -0.186663 -0.178830 129 137 126
-0.170814 -0.124476 -0.140198 116 118 107
0.302993 0.133039 0.206364 139 147 144
-0.391670 -0.318024 -0.189908 43 30 34
-0.324434 -0.100799 0.296832 57 61 56
0.080056 0.305751 -0.081218 65 67 56
0.013058 0.084015 -0.105131 54 88 68
-0.205521 0.065897 -0.033435 9 15 13
-0.001507 0.309025 0.167881 0 3 2
0.161839 0.158212 -0.081779 96 102 104
-0.300643 -0.059706 -0.145661 108 113 103
-0.029696 -0.094637 -0.125974 97 98 89
0.268672 0.292996 0.207689 131 137 137
0.325692 -0.185101 -0.107508 117 118 112
-0.258199 -0.088363 0.205469 8 8 12
0.044278 0.032860 -0.049331 70 102 83
-0.155223 -0.044043 -0.133347 54 55 49
0.101186 -0.042663 -0.109031 79 83 78
-0.392059 0.064880 0.225796 77 83 85
-0.330845 -0.179306 -0.163801 130 131 127
-0.280439 0.249543 0.026675 0 2 0
-0.171643 0.240362 -0.115664 88 93 83
-0.242251 -0.081009 0.185906 11 17 15
-0.062155 0.295714 0.143731 18 22 17
0.165836 -0.121766 -0.109668 117 122 112
0.348990 0.025235 0.195530 142 148 148
0.026379 0.239849 -0.097842 77 89 81
-0.193686 -0.275310 -0.156246 106 110 103
0.110734 0.249069 -0.087265 76 88 78
0.219817 -0.025340 0.191916 135 141 141
-0.252005 0.246856 -0.004619 9 9 9
0.340631 -0.121766 -0.094678 109 113 106
0.188886 -0.079537 -0.101695 118 120 111
-0.072055 0.286493 0.064664 35 39 32
0.081685 0.085966 -0.107175 40 47 39
-0.319899 -0.092844 -0.152656 93 102 95
0.128188 0.252660 -0.083072 78 85 79
0.003642 0.316306 -0.091205 61 70 61
0.316176 0.285092 0.209864 142 142 142
-0.056435 -0.063344 -0.125622 100 109 100
-0.182016 0.174847 -0.128648 98 106 95
0.173554 -0.012336 0.008638 128 140 132
0.380197 -0.023274 0.094509 105 111 109
0.367146 0.234012 0.210150 144 147 150
-0.336124 -0.203271 -0.166819 135 133 123
-0.266966 -0.102409 -0.146638 23 23 17
-0.089142 0.216311 -0.112027 75 82 76
0.182273 -0.050660 0.099081 134 142 141
0.160210 0.173831 0.059162 100 112 118
0.283326 -0.112905 -0.094543 13 17 10
0.285323 -0.054891 -0.074324 68 70 59
-0.047129 -0.035368 -0.121673 28 34 32
-0.097679 -0.105050 -0.133835 118 126 113
-0.195947 -0.228970 -0.152168 118 119 108
-0.353430 -0.251099 -0.173608 129 130 121
-0.050898 0.022068 -0.119155 60 64 59
0.307595 0.035834 0.200086 137 145 144
-0.379112 0.255102 -0.159545 134 135 126
0.040140 0.281899 -0.089003 58 70 62
-0.264500 0.242865 -0.065903 0 1 0
-0.157185 0.295397 0.194600 163 172 165
-0.250758 -0.085682 0.025748 22 23 19
-0.182120 -0.186988 -0.147612 114 118 113
0.399617 -0.103025 -0.091125 105 110 100
-0.044473 -0.164804 -0.135108 112 116 109
0.112696 0.287074 0.204196 130 138 137
0.273651 -0.211235 -0.115203 112 114 105
0.165701 0.276065 0.208679 129 140 138
-0.284715 0.237446 -0.137265 108 113 103
-0.139082 0.042782 -0.129192 9 10 6
-0.201002 0.253448 -0.047026 8 8 8
0.003994 -0.201890 -0.134091 120 125 113
0.171060 0.133687 0.010164 96 105 115
0.148608 0.264525 0.207297 131 139 138
0.213304 -0.182314 -0.112564 112 117 107
-0.316150 -0.252307 -0.168998 139 137 129
-0.209296 0.078240 -0.132287 87 94 86
0.119913 -0.058375 -0.108863 21 6 7
-0.209355 0.068352 -0.027924 20 21 17
-0.010759 0.307107 0.174857 1 4 5
-0.278900 -0.133543 -0.152458 107 115 112
0.360815 0.232887 0.209720 143 149 149
0.367037 -0.118811 -0.094210 105 103 95
-0.285263 -0.268039 -0.165611 139 141 130
0.150292 0.138704 0.197854 133 141 142
0.212896 -0.076624 0.123050 114 123 116
0.245032 -0.172173 -0.109293 111 112 101
-0.169634 -0.273101 -0.153998 61 61 61
-0.203017 0.265821 0.123704 38 42 35
0.298193 0.124408 0.206676 137 145 142
-0.041700 -0.024679 -0.120685 99 106 98
-0.315986 0.214775 -0.148100 125 121 114
-0.032308 -0.263933 -0.142830 104 105 101
0.021524 -0.210954 -0.133014 116 117 111
0.190256 0.173599 0.204768 133 141 140
-0.206340 -0.274106 -0.156894 115 120 108
0.080625 0.336149 -0.055386 25 28 27
0.364855 0.318012 0.215425 141 144 145
0.011433 0.123353 -0.092134 60 92 71
-0.055881 0.296202 0.129391 28 37 28
0.156820 0.114095 0.197491 134 142 141
-0.028697 0.012945 -0.060046 78 105 85
-0.071255 0.109782 -0.074183 44 78 56
-0.098571 -0.263242 -0.147837 115 116 110
-0.228923 -0.130021 -0.145590 31 35 28
0.123540 0.213297 0.198568 132 140 137
-0.165480 0.264526 0.035326 34 34 34
0.246966 -0.078490 -0.087002 97 97 91
-0.251372 -0.237462 -0.159294 124 125 119
-0.274694 0.241626 -0.132571 107 104 99
-0.040033 0.643112 -0.103551 129 137 126
-0.045815 -0.233500 -0.140119 103 110 102
0.345072 -0.026734 0.173804 113 116 115
-0.290922 -0.198426 -0.160257 114 124 112
0.112229 0.027903 -0.105161 51 57 55
0.271937 0.181632 0.205797 136 142 142
-0.146576 -0.064010 -0.134077 111 118 110
-0.123591 -0.232657 -0.146188 111 112 106
-0.282975 0.247045 0.138336 16 16 16
0.007910 -0.213072 -0.134643 123 125 114
0.062176 0.059088 -0.108625 50 64 53
-0.200878 0.253570 -0.043771 5 5 5
-0.278648 -0.171722 -0.156107 120 125 115
-0.345056 0.276533 -0.152731 108 113 103
0.068372 0.322916 0.168833 50 52 58
0.364405 -0.193085 -0.108232 115 116 110
0.191481 -0.172375 -0.113592 116 117 111
0.184066 -0.168515 -0.113765 118 120 111
-0.089716 0.085911 -0.057077 73 102 82
0.222667 -0.078592 0.052628 102 110 107
0.176819 0.040365 -0.099349 100 109 100
-0.318617 -0.256044 -0.169815 136 138 125
0.269818 -0.004249 0.195861 135 146 144
0.092669 0.192003 -0.098433 81 85 78
-0.278733 -0.029790 -0.095193 42 47 37
-0.183696 -0.208108 -0.149613 129 127 119
0.109320 -0.072650 -0.112098 98 102 95
0.270390 -0.168164 -0.106586 113 117 110
0.301413 -0.023245 0.192439 132 140 139
-0.329434 -0.129972 -0.157775 120 127 119
0.223625 -0.067215 0.175673 114 122 119
-0.264684 -0.241269 -0.160851 19 15 6
-0.134365 0.039359 -0.129034 91 98 92
0.253275 -0.072365 -0.085126 86 90 83
-0.300323 -0.086613 -0.148460 105 110 100
0.285929 0.230425 0.206399 134 140 140
0.006594 0.259189 -0.096160 78 85 77
0.103106 0.262899 0.196811 130 141 139
-0.395197 -0.302285 -0.187359 127 128 119
0.014558 -0.256386 -0.138458 111 113 104
0.395917 0.018631 0.191918 145 148 149
0.286317 0.102528 0.205629 136 142 140
-0.334250 -0.064828 0.347434 122 142 139
-0.033897 0.277042 -0.098568 69 76 68
0.382264 0.045351 0.195696 141 149 148
0.044470 0.097224 -0.087932 65 99 79
-0.094727 0.287165 0.156975 3 3 3
0.163881 -0.007310 0.129777 138 146 143
0.217993 0.324057 0.211321 130 138 137
0.098459 -0.061828 -0.110813 91 95 88
-0.301187 -0.116422 -0.153268 120 119 119
-0.288985 0.256327 0.191483 173 176 175
0.167386 0.299840 0.209588 129 135 133
-0.057020 0.310522 0.204509 141 149 148
-0.363727 0.073391 0.199814 41 42 38
-0.345128 -0.333978 -0.182893 125 125 121
-0.311373 -0.102893 0.276068 54 55 51
-0.008827 0.098218 -0.107516 26 51 34
-0.200165 0.254868 -0.022053 4 4 4
0.138764 0.242135 0.054971 92 104 110
-0.168482 0.245181 -0.114278 81 86 76
0.272547 -0.052039 0.173590 117 117 117
-0.061868 0.129302 -0.061909 47 79 58
0.257059 -0.011508 0.195523 128 143 142
0.317629 0.398996 0.214776 132 138 138
-0.213441 0.061447 -0.032170 14 17 16
0.040968 -0.182468 -0.128868 110 112 103
-0.236400 -0.058431 0.010954 2 5 4
0.160642 0.192786 0.204477 132 140 139
-0.065061 0.294932 0.136127 38 39 33
-0.168552 0.117491 -0.130401 90 98 85
-0.270608 -0.298435 -0.168715 124 131 123
-0.238075 -0.079201 0.181057 8 11 10
-0.144350 0.039968 -0.130075 94 101 93
0.124288 -0.008147 -0.105174 86 93 85
0.298621 -0.108786 -0.092673 9 11 2
-0.160775 0.034731 -0.130592 6 15 6
0.302451 -0.128287 -0.096585 110 112 103
-0.265609 -0.084406 0.245462 112 122 108
-0.349617 -0.316775 -0.182490 110 103 97
-0.126322 0.270651 -0.007627 0 2 1
0.246251 -0.196379 -0.113989 116 117 106
0.016395 -0.230211 -0.134354 110 111 102
0.300263 0.203236 0.206639 138 146 143
-0.173373 -0.143173 -0.141809 126 131 121
0.177766 0.316473 0.211284 130 138 135
-0.123332 -0.212223 -0.144790 119 121 112
0.265150 -0.051053 0.182470 120 128 125
0.214546 -0.080686 -0.094002 107 116 107
0.178399 -0.028492 0.180764 132 143 139
0.135665 0.038062 -0.103534 66 75 68
0.239543 0.137466 0.206542 134 142 141
0.337194 -0.211830 -0.113500 119 120 109
0.373151 -0.194828 -0.108350 25 25 21
0.312309 -0.050415 0.054949 108 107 107
0.361610 0.097098 0.203231 143 149 149
-0.280030 0.211616 -0.138856 66 67 61
0.358768 0.110336 0.203920 144 152 151
-0.228451 -0.252827 -0.156503 124 125 119
-0.243129 -0.159261 -0.150593 114 118 111
-0.350919 -0.082840 -0.158316 122 124 113
0.363973 0.036425 0.195909 137 148 146
0.132036 0.255815 0.027215 90 102 108
-0.221828 -0.155919 -0.148345 112 116 109
0.366626 -0.007068 0.189334 139 147 146
0.009300 -0.211132 -0.134566 123 125 116
-0.241322 -0.058375 0.044433 2 8 6
-0.027890 -0.085142 -0.124872 115 120 110
-0.382798 0.030857 0.208767 62 66 59
-0.236964 -0.114661 -0.144810 119 124 112
-0.008340 0.312418 -0.093178 68 70 61
-0.324640 -0.163790 -0.161992 123 125 116
0.195804 -0.108664 -0.104155 114 121 113
-0.151363 0.205444 -0.120161 77 79 68
-0.240045 0.256994 0.121001 4 5 1
0.324183 0.359049 0.214009 134 140 138
0.370935 0.104301 0.203453 144 152 151
-0.077639 -0.077872 -0.129112 113 109 102
0.343499 0.000940 0.192987 139 147 148
-0.265710 -0.087391 0.234607 20 21 17
-0.300980 -0.065389 -0.146799 113 118 108
0.020540 0.317983 0.211817 139 147 144
0.218413 -0.007488 0.194095 137 145 144
0.058880 -0.032605 -0.110869 73 80 72
0.306138 0.436017 0.209269 132 140 137
-0.382886 0.019804 0.204242 53 57 50
-0.178553 -0.298651 -0.158316 119 120 114
-0.306460 -0.071841 0.298665 84 89 79
-0.093275 0.226497 -0.110109 53 61 50
0.286218 0.333001 0.209953 132 138 138
-0.261006 -0.061919 0.240106 32 39 33
-0.358657 -0.116503 0.321743 84 109 116
0.335448 -0.045416 -0.074272 74 72 62
-0.337529 -0.113747 0.304211 44 49 39
-0.242839 -0.056336 0.069558 3 7 2
0.361969 -0.023114 0.162033 120 126 124
0.000174 -0.126017 -0.127030 110 114 107
-0.342114 -0.117729 0.320596 95 116 124
0.168750 0.079840 -0.097571 65 68 67
-0.189377 0.030588 -0.134173 89 94 84
0.017833 0.311460 0.054099 0 5 3
-0.233736 0.259066 0.117789 2 5 6
-0.047777 0.239205 -0.106715 70 82 74
0.215076 -0.080433 0.039050 110 119 112
0.308909 0.040846 0.200621 140 146 148
0.078019 -0.234643 -0.132395 96 103 97
0.134484 -0.136747 -0.115722 117 122 112
-0.293817 -0.085751 0.280567 81 83 74
0.009601 0.144165 -0.065412 57 94 71
-0.174105 -0.175473 -0.144655 113 118 106
-0.259437 0.224248 -0.131979 60 57 54
0.360118 0.001740 0.191651 135 138 137
0.270951 0.051681 0.203263 141 149 146
0.192306 0.354712 0.213436 130 138 137
0.204236 -0.028430 0.191743 131 144 141
0.340901 -0.055859 -0.079026 84 89 77
0.308132 0.285901 0.209207 135 141 141
-0.152589 0.016995 -0.130124 89 91 82
-0.394786 0.082474 0.203257 117 139 140
0.018483 -0.276530 -0.140615 81 69 69
-0.003517 0.222210 -0.103460 89 93 86
-0.254492 -0.072209 0.222701 25 28 27
0.347174 -0.041221 0.003036 100 106 106
0.370977 0.071186 0.200142 139 150 150
-0.193164 0.169035 -0.130985 87 94 86
-0.064665 0.291779 0.110785 35 39 32
0.103179 -0.197809 -0.125462 115 117 104
0.151982 0.103411 0.195306 135 143 142
-0.253954 -0.128142 -0.148560 116 121 111
0.095489 -0.089302 -0.115353 109 114 104
-0.131969 0.269090 0.002317 1 1 1
0.349983 0.393556 0.216388 138 141 142
-0.003446 -0.007449 -0.114592 98 103 93
0.043268 -0.102649 -0.122313 105 106 100
0.130742 0.030895 -0.103518 0 3 2
0.354625 0.257213 0.210973 141 147 145
0.159384 0.153890 -0.058193 110 122 124
-0.068614 0.132209 -0.050066 59 81 65
-0.168437 -0.210978 -0.147950 113 114 103
-0.078766 -0.273159 -0.146490 83 83 77
-0.008380 -0.138086 -0.128855 129 133 126
-0.252608 0.105417 -0.132142 103 108 96
0.391223 -0.020074 0.087456 102 110 109
-0.106074 0.238259 -0.109603 69 77 66
-0.184455 -0.250841 -0.152449 93 84 79
0.031206 0.147448 -0.035843 74 108 86
0.188110 0.207877 0.206188 133 141 138
-0.050608 -0.186630 -0.137615 123 132 125
-0.128312 0.294856 0.200019 155 167 159
-0.118820 0.160047 -0.125168 78 86 73
-0.115031 0.292861 -0.103022 53 58 48
-0.069120 -0.269920 -0.145881 103 110 104
-0.016282 -0.266116 -0.142315 117 119 110
-0.206791 -0.001186 -0.137481 65 77 67
-0.269857 0.109063 -0.132805 100 105 93
-0.167228 0.265171 0.048883 34 34 28
0.341982 0.008396 0.193622 139 145 143
0.053147 0.328653 0.211635 135 141 139
-0.346028 -0.122704 0.313793 98 122 120
0.144906 -0.160886 -0.117594 85 83 73
-0.205722 -0.257523 -0.155098 112 112 106
-0.310803 -0.176588 -0.160152 117 121 116
-0.378683 0.291268 -0.157560 140 141 128
0.343421 0.255198 0.210231 142 145 144
0.331956 -0.163108 -0.102125 103 107 100
-0.154378 -0.264173 -0.151477 108 110 101
-0.047508 0.296584 0.178825 15 15 15
-0.019179 0.119807 -0.097502 30 55 34
-0.252533 -0.068113 0.075470 0 2 0
-0.008670 0.303628 0.025865 9 10 6
0.193379 -0.078810 0.074804 111 120 113
0.011533 -0.118854 -0.125319 114 116 105
-0.355886 -0.119479 0.316342 82 105 110
-0.377222 0.015130 0.207593 49 56 48
-0.394717 -0.144202 -0.170034 138 141 125
0.333336 -0.042878 0.054717 105 113 110
-0.288246 -0.054651 -0.142019 103 107 100
0.000884 -0.231061 -0.135628 7 0 0
0.307635 0.430791 0.209875 134 140 138
0.084597 0.349700 0.205593 130 138 135
-0.321954 -0.073172 0.315519 74 86 78
-0.095926 0.286702 0.188581 0 1 2
0.171134 0.099457 0.199376 134 142 143
0.097524 -0.149146 -0.121851 119 120 114
0.327439 -0.170390 -0.103647 29 30 26
-0.340032 -0.006645 -0.133292 24 25 21
0.320010 -0.181270 -0.106513 115 117 108
-0.012899 0.153461 -0.047038 41 75 53
0.247528 -0.163488 -0.107771 117 119 108
0.109450 -0.048774 -0.109135 89 93 86
0.323862 0.002481 0.194844 136 142 142
0.366352 -0.020615 0.165727 119 126 120
-0.148512 -0.273071 -0.151696 5 0 0
0.173409 0.009411 0.184542 139 147 148
0.202507 -0.230844 -0.122133 109 113 108
-0.385275 -0.339862 -0.190926 124 131 123
-0.110194 -0.032836 -0.129096 101 105 98
0.215739 0.093560 0.204026 132 143 141
-0.117978 0.278691 0.092149 30 34 29
-0.246183 -0.038627 0.071880 6 12 12
-0.370241 0.413761 -0.148883 77 76 59
0.227571 -0.077407 0.051918 109 117 116
-0.264446 -0.012732 0.067254 40 42 33
0.248763 0.274761 0.208217 129 140 138
-0.085383 0.288349 0.175278 11 14 15
-0.289518 -0.226190 -0.162441 19 15 8
-0.088441 0.281918 0.026833 0 4 0
-0.313865 -0.070315 0.305118 81 82 73
-0.377506 0.186265 -0.160011 129 131 122
-0.274704 -0.091407 0.149148 104 106 97
-0.319054 -0.276365 -0.171466 122 127 113
-0.127370 -0.049202 -0.131809 104 113 104
-0.345262 -0.135515 -0.161824 23 21 13
0.106728 0.308207 0.000126 88 98 103
0.165571 0.125223 -0.094114 59 69 57
-0.381023 0.021043 -0.155191 101 109 96
0.118118 0.266709 -0.081606 77 81 76
-0.261309 -0.079467 0.230279 22 31 24
-0.105853 0.268350 -0.105512 65 66 60
-0.387873 0.040450 0.213725 66 71 61
0.147347 -0.014014 -0.103981 86 90 83
0.249806 -0.070269 0.067536 112 115 114
-0.047594 0.025004 -0.119575 70 77 69
-0.184582 0.267935 0.154074 6 7 3
0.195813 -0.070950 -0.000015 139 146 140
0.371013 -0.151600 -0.099112 21 16 12
-0.327394 -0.112547 0.276907 43 44 40
-0.322432 0.292689 -0.145743 133 141 130
0.352454 -0.116434 -0.093254 99 106 100
-0.086353 -0.114331 -0.133530 112 120 107
-0.131347 -0.095954 -0.134575 102 111 104
-0.233215 0.053752 -0.137588 92 90 80
0.362480 0.153706 0.206269 142 148 148
-0.178014 0.289494 0.190681 167 174 168
0.379751 -0.001439 0.189814 140 148 147
0.173864 0.020694 0.185561 137 148 148
0.053883 -0.235392 -0.133555 112 117 107
-0.318436 -0.233914 -0.167098 139 141 132
