ply
format ascii 1.0
element vertex 1227
property float x
property float y
property float z
property uchar red
property uchar green
property uchar blue
end_header
0.079750 0.088917 -0.027664 42 45 44
0.208881 -0.018139 0.236211 134 142 141
0.004226 0.305066 0.063869 24 28 23
0.040436 -0.021039 0.047973 65 82 68
-0.007885 0.315574 0.123389 27 36 29
-0.067196 0.043467 -0.002269 43 72 50
0.375256 -0.037184 0.164139 117 123 121
-0.301977 -0.071431 0.315143 71 74 73
-0.180487 0.614005 -0.041963 107 101 86
-0.136387 0.243802 -0.000747 3 6 5
-0.255761 -0.107053 0.255338 8 14 12
-0.049262 -0.234395 -0.031652 117 122 112
0.094813 0.117541 -0.028123 50 54 49
0.085459 -0.168023 -0.026946 106 107 96
0.011087 0.302255 0.057476 2 2 2
0.226678 -0.085497 -0.011875 105 114 107
-0.186831 -0.148122 0.199095 21 24 25
0.200683 -0.071802 0.235155 133 144 144
0.070145 -0.256452 -0.027684 69 65 58
-0.296580 0.243599 -0.042936 133 135 124
-0.137412 0.266157 0.160970 4 4 4
-0.160010 -0.204216 -0.036883 86 83 78
0.190989 -0.095932 0.212327 114 118 111
0.173604 0.022506 0.235517 135 141 141
-0.056317 0.291774 0.169474 1 4 3
0.127815 -0.164946 -0.027698 109 113 106
0.152325 0.275248 0.234393 127 135 134
0.127892 -0.069640 -0.026625 100 109 100
-0.218565 0.227485 0.042651 2 2 2
-0.053651 0.267308 0.005882 0 3 2
0.387476 -0.177836 -0.024387 105 107 98
0.003501 0.297746 0.195489 12 13 7
0.151978 0.010243 -0.024577 87 91 86
0.295903 0.024733 0.240160 139 145 147
-0.234572 -0.081588 0.254701 218 0 0
0.292237 0.210197 0.243409 133 141 140
0.025055 0.295777 0.014510 1 4 3
-0.338285 0.089823 0.109421 37 42 32
-0.294808 -0.331235 -0.043981 15 15 15
0.258486 -0.145529 -0.029253 105 109 102
0.164768 -0.060880 -0.026284 109 114 104
0.197827 0.240429 0.238462 132 140 137
0.320799 -0.053843 0.035400 103 106 105
0.145166 -0.101600 -0.026405 117 118 109
-0.123854 0.250307 -0.035622 12 11 11
0.040554 0.300465 -0.003098 2 5 4
-0.129637 -0.207502 -0.033707 89 93 86
0.158074 -0.201032 -0.027630 115 116 107
0.168133 -0.047644 0.063310 137 149 151
0.045837 0.317840 0.102999 3 6 7
-0.165724 0.197728 -0.035395 90 92 79
0.069787 -0.094618 -0.027577 81 85 78
-0.356488 -0.090282 0.360058 128 150 153
0.329649 0.228156 0.244269 143 146 145
-0.034560 0.004945 -0.014330 30 56 41
-0.339169 0.326501 -0.049826 136 134 122
-0.193909 -0.107111 0.205610 5 16 14
-0.287196 -0.117005 0.253537 67 72 60
-0.364207 -0.117337 0.240480 54 61 53
0.378455 -0.161691 -0.026243 104 105 99
0.173450 -0.009221 0.216970 140 147 151
0.345543 0.074413 0.243645 145 151 149
0.195547 -0.052549 0.235807 131 142 140
-0.143968 0.264761 0.168103 5 6 2
0.206538 0.215779 0.238783 129 141 133
0.069863 0.320979 0.111464 15 11 14
-0.306107 -0.208687 -0.042101 40 28 26
-0.198760 0.241150 0.186181 10 14 9
-0.159153 -0.079404 -0.033560 107 115 104
0.166326 0.138496 0.236798 133 141 140
0.031493 0.315624 0.219164 141 145 140
-0.252932 -0.220578 -0.039934 119 124 114
-0.193268 0.631412 -0.040028 115 108 102
0.223422 -0.086227 0.192974 108 111 110
-0.079338 -0.150558 -0.032767 115 123 110
0.269650 0.145164 0.241956 132 143 141
-0.005813 -0.220580 -0.030467 123 125 116
0.038625 0.310684 0.188659 3 6 5
-0.204441 0.230083 0.006493 9 9 5
-0.329749 -0.100046 0.346704 122 148 150
0.324399 0.342578 0.245056 133 139 137
-0.039692 -0.204328 -0.031707 119 124 114
-0.165682 -0.011653 -0.031748 84 92 81
-0.258593 0.192428 -0.040586 113 118 106
0.197353 0.138620 0.238633 134 142 141
0.108053 -0.236286 -0.027162 110 114 107
0.209823 0.159417 0.239618 133 139 139
0.163288 0.024314 0.225772 139 150 150
-0.114682 0.022365 -0.031677 50 57 49
0.198566 -0.257855 -0.026471 108 116 103
0.300910 0.166082 0.243380 137 148 146
-0.317028 -0.072236 0.332780 68 77 70
0.185849 -0.060032 0.228490 133 144 140
-0.176999 0.048742 -0.029067 95 100 90
-0.102278 0.015113 -0.032043 80 88 73
-0.281404 -0.222580 -0.040038 131 136 126
-0.308980 -0.128114 -0.044132 57 59 50
0.397954 0.050160 0.244762 142 152 155
0.035708 -0.093866 -0.028251 95 96 87
-0.217474 0.636388 -0.041270 119 125 108
-0.127534 0.174554 -0.033206 69 74 64
-0.142511 0.146549 -0.033456 72 80 69
-0.115697 0.002816 -0.032688 87 100 85
-0.204968 -0.127303 -0.039767 103 105 96
-0.198039 0.243171 0.207356 152 155 154
-0.072934 0.292264 0.126581 37 41 34
0.158168 -0.035907 0.200914 135 144 137
-0.174117 -0.108366 -0.036368 55 62 54
0.397941 -0.033482 -0.039786 64 68 61
-0.040061 0.192190 -0.030907 78 85 77
-0.318140 -0.231480 -0.044325 130 135 125
-0.081272 0.215267 -0.033695 68 74 72
-0.256239 -0.209972 -0.039413 115 119 112
0.187603 0.105220 0.236485 133 139 139
-0.196491 -0.012052 0.176790 3 7 2
-0.354766 -0.061335 0.350164 106 125 127
-0.099136 0.103274 -0.029790 71 81 69
0.283374 0.033501 0.239968 139 145 145
0.145406 -0.073626 -0.025993 102 107 97
0.060114 0.086346 0.038482 40 64 52
-0.115163 0.280773 0.112233 30 33 32
0.157381 0.214916 0.235588 133 139 137
-0.118590 -0.256953 -0.034967 108 110 101
-0.084605 0.563818 -0.040382 134 142 131
-0.179427 -0.233238 -0.037461 117 121 114
-0.118677 -0.038317 -0.032600 99 109 97
0.027327 -0.114601 -0.028501 47 47 41
-0.298731 -0.337628 -0.044450 118 119 110
-0.236095 -0.005138 -0.026148 53 57 52
0.112895 -0.045270 -0.026954 20 20 16
-0.048962 0.299000 0.079153 44 45 34
0.188127 0.214271 0.237799 132 140 137
0.242601 0.057290 0.238091 110 110 112
0.251315 0.044022 0.238319 127 135 132
-0.272786 -0.199699 -0.040233 58 59 53
-0.008925 -0.179673 -0.030259 119 124 114
-0.099378 0.281281 0.068971 34 34 34
-0.153081 0.238032 -0.034452 38 40 31
0.376909 0.230178 0.250448 145 151 149
-0.274915 0.564175 -0.047997 129 127 115
0.289052 0.184464 0.243075 135 143 142
-0.386984 0.068476 0.247531 121 143 146
0.357182 -0.041454 0.034676 103 106 105
-0.004915 0.241133 -0.032862 66 70 65
-0.206504 0.222873 -0.026669 71 81 69
-0.155073 0.264974 0.108684 40 41 35
0.264377 0.344773 0.241404 136 139 138
0.388229 -0.158386 -0.025995 106 107 98
0.142394 0.246137 0.053696 92 98 109
-0.197688 0.036835 -0.030190 97 99 88
-0.017346 -0.250270 -0.031117 4 0 0
-0.154869 0.262225 0.078991 32 33 29
-0.272721 -0.262218 -0.039568 134 135 124
-0.241939 0.030741 -0.020544 103 103 97
-0.146383 0.627704 -0.037517 30 23 17
-0.369627 -0.085843 0.351639 117 143 145
-0.145555 -0.256983 -0.036033 118 119 113
0.163294 -0.249119 -0.027086 114 118 111
0.044216 0.315692 0.091122 6 7 3
-0.242034 -0.090941 -0.045716 87 91 84
-0.218097 -0.097325 0.223949 8 21 8
0.088188 -0.230736 -0.026826 119 121 112
-0.137324 0.580259 -0.041957 127 128 117
-0.034829 0.195523 -0.030726 79 88 79
0.090364 0.079059 -0.028385 4 7 6
0.155881 -0.033897 0.221277 133 142 135
-0.315408 0.138277 -0.044177 129 130 119
0.188338 0.033373 0.236335 143 149 149
0.148597 -0.202732 -0.027652 113 113 107
-0.228239 -0.168083 -0.039618 117 124 116
0.266895 -0.143815 -0.029978 11 17 15
0.019276 -0.173089 -0.029280 114 118 111
-0.396049 0.020923 0.287372 67 74 66
0.010546 0.067333 -0.021512 60 87 65
0.012009 0.274635 -0.033758 57 62 52
0.181343 0.111133 0.036130 102 115 114
-0.219529 0.237048 0.138612 4 4 4
-0.075016 0.054684 0.011406 44 81 56
0.140203 0.155497 -0.021002 59 68 61
0.146076 0.198619 0.235104 133 139 137
-0.285076 -0.085501 0.299835 81 82 76
-0.058068 0.267507 -0.018656 15 16 12
-0.151505 0.264392 0.094059 38 39 33
-0.070123 0.267118 0.023351 0 0 0
0.382492 0.118284 0.244213 146 152 152
-0.090505 0.274883 0.192794 15 15 15
-0.148797 0.262986 0.158937 5 6 2
-0.164141 0.240398 0.023848 0 2 1
0.056961 0.304219 -0.009679 1 7 7
-0.080123 -0.046174 -0.031503 97 105 94
-0.158536 -0.215362 -0.036366 119 121 112
-0.319683 -0.267933 -0.045234 130 130 124
0.012050 -0.094829 -0.028368 102 111 102
0.077539 -0.136322 -0.027020 105 112 104
0.238647 -0.010957 0.237259 140 147 141
-0.151983 -0.233322 -0.035922 111 112 103
-0.224403 -0.014688 0.220643 25 26 20
-0.293787 -0.307738 -0.043124 125 126 122
0.136097 -0.096379 -0.026387 106 114 103
0.394286 0.010248 0.243581 145 151 149
0.016027 0.319342 0.218457 141 145 140
-0.215195 -0.329271 -0.041287 52 35 47
-0.170738 0.059714 -0.031702 100 102 91
0.029531 -0.117567 -0.028733 35 33 21
0.002240 0.021275 -0.025184 28 52 38
0.242522 -0.055262 0.236645 134 142 141
0.172276 0.087353 0.236913 135 141 141
-0.230155 -0.086489 0.249153 21 24 23
-0.150881 -0.317107 -0.037902 122 122 116
0.198973 0.175125 0.238267 131 139 138
0.275348 -0.050923 0.235178 135 141 141
-0.345623 -0.119491 0.344023 90 118 122
0.380715 -0.105707 -0.031946 104 104 98
-0.124616 0.259979 0.206479 11 17 17
0.158050 0.108074 0.235796 138 144 144
0.329713 -0.129000 -0.029973 68 69 65
0.154678 -0.200158 -0.027221 115 113 103
-0.286973 0.181766 -0.041097 18 23 13
0.082420 0.318933 0.230794 133 139 137
-0.097072 0.254984 -0.026966 47 58 54
0.343062 0.220626 0.245168 144 147 146
0.229946 -0.242183 -0.025292 118 119 115
-0.276224 -0.097759 -0.045412 84 81 76
-0.038991 -0.288234 -0.032124 106 111 101
0.082987 -0.173279 -0.027264 121 123 114
0.027213 -0.171665 -0.029125 106 113 107
0.308159 -0.239124 -0.023945 121 116 112
0.342421 0.296138 0.245594 140 146 146
0.327046 -0.090931 -0.034823 98 99 90
0.104858 0.281775 0.025195 83 97 103
0.289795 0.300211 0.243609 136 139 138
0.145130 0.248872 0.057078 93 103 110
0.269105 -0.244428 -0.024076 110 110 106
0.385512 -0.193839 -0.023751 96 100 93
-0.086270 0.289639 0.115370 40 41 35
-0.177099 0.279724 0.202887 160 171 167
0.289742 -0.063490 0.051037 106 110 105
0.193423 -0.008615 0.235693 134 142 143
0.399054 0.175266 0.248439 133 144 142
0.142954 -0.112436 -0.026108 116 118 105
-0.310139 -0.307244 -0.045511 129 130 124
0.364433 0.213623 0.245382 145 151 149
-0.010855 -0.013986 -0.030356 7 11 6
0.395395 0.145187 0.245634 146 152 152
-0.086371 -0.219071 -0.032242 115 116 107
-0.064579 0.282829 0.044767 13 16 15
-0.132738 0.244900 -0.001111 9 9 9
-0.172153 0.175148 -0.035025 90 92 81
0.027783 0.312117 0.179543 11 15 10
-0.308026 -0.100616 0.322797 76 85 78
-0.363321 -0.119107 0.345812 116 140 138
0.099976 0.216750 0.231767 137 145 146
-0.260843 0.157416 -0.041186 108 110 101
-0.106688 0.185867 -0.032984 77 78 69
0.341933 -0.046498 0.035803 106 109 110
0.192402 0.220967 0.238226 133 139 137
0.247502 0.084912 0.239268 136 142 142
0.254485 -0.231910 -0.025207 115 112 107
0.356768 -0.013216 0.241208 139 150 148
-0.255640 0.579506 -0.045825 127 128 115
0.168970 0.636912 -0.018651 126 128 119
0.215104 -0.232721 -0.025802 122 123 114
0.322992 0.019732 0.242186 140 146 148
-0.096622 -0.230073 -0.033583 118 119 110
0.214129 -0.079491 0.235770 131 142 138
-0.114507 0.273494 0.062549 32 33 27
-0.314728 -0.342758 -0.048232 130 131 125
0.092319 -0.169964 -0.027169 6 5 5
0.055294 0.082117 0.026018 89 121 98
-0.125023 -0.309929 -0.036347 102 102 98
0.208589 -0.104443 -0.028889 105 109 102
-0.085140 -0.014575 -0.032256 80 94 83
-0.307828 -0.116109 0.300049 48 52 45
-0.010145 -0.002964 -0.015740 56 81 62
0.336000 -0.199352 -0.024739 98 99 93
0.352609 -0.019855 0.240627 135 141 143
0.331677 0.307001 0.244968 140 143 144
0.177970 0.232653 0.237226 130 138 137
-0.280329 -0.162091 -0.041240 117 122 110
-0.169807 0.019140 -0.031805 91 93 82
0.285988 -0.010187 0.239771 14 44 119
-0.398562 -0.121649 0.226997 52 75 71
-0.153748 -0.146799 -0.035303 114 122 111
0.040974 0.306199 0.198683 9 12 13
0.180779 0.056432 0.034724 115 127 133
0.070346 0.309275 -0.022368 0 4 2
-0.047970 0.295897 0.164805 3 4 0
0.083794 0.031363 -0.028431 57 69 59
0.083788 0.295506 0.185011 79 85 87
-0.250879 -0.231585 -0.039308 121 129 116
0.075059 0.310777 0.195534 71 77 79
0.070663 0.173772 -0.028460 81 90 83
-0.009919 0.235184 -0.032769 69 71 62
0.162795 -0.106612 -0.027376 74 78 71
0.312288 0.203135 0.243368 137 145 142
-0.118809 0.565925 -0.041757 123 125 116
0.355250 -0.028040 0.239974 145 148 149
0.312742 0.228788 0.243542 139 145 145
-0.149728 0.253807 0.201851 20 26 28
-0.279967 -0.108007 0.279065 117 120 119
-0.002863 0.029960 -0.024847 28 50 34
-0.227410 -0.244769 -0.038995 129 130 121
0.094761 0.088283 -0.028478 42 45 44
0.062195 -0.111731 -0.027611 29 33 28
-0.178851 -0.279278 -0.037976 111 111 105
0.369230 0.233036 0.247188 147 147 147
-0.069256 0.152202 -0.031471 75 83 72
-0.344354 -0.123932 0.329939 80 108 112
0.220629 -0.243812 -0.025306 118 119 110
0.199291 0.206646 0.238103 132 140 137
-0.144358 0.259700 0.206311 146 157 153
-0.163800 -0.314996 -0.038089 69 73 68
-0.037442 0.234542 -0.033789 78 86 75
0.327456 0.042630 0.243210 142 148 148
0.252409 -0.192125 -0.026708 123 119 112
0.391747 -0.030364 0.051341 101 108 102
-0.058035 -0.245044 -0.032564 122 120 110
0.011502 -0.202073 -0.028664 115 116 112
0.373912 0.051584 0.244783 143 149 149
0.072319 0.320595 0.128729 57 63 65
0.324375 -0.019040 0.239554 143 146 147
0.296941 -0.062599 0.217714 114 118 113
0.263472 -0.071002 0.048468 109 109 109
0.358127 0.253542 0.246073 144 147 150
0.291672 0.027004 0.240257 139 147 146
0.017288 -0.095569 -0.028430 102 111 102
-0.144879 0.261539 0.185683 11 14 13
-0.330829 -0.103822 0.345820 117 143 141
0.267289 -0.157093 -0.028821 15 22 16
-0.319037 0.237303 -0.044664 140 138 126
0.224147 -0.084217 0.157180 116 119 118
0.059550 -0.071592 -0.027918 17 18 14
-0.155610 0.256800 0.185534 10 13 14
0.065864 -0.079287 -0.028034 83 84 73
0.369419 0.004049 0.242618 145 151 151
0.181910 0.245424 0.237861 134 137 136
-0.040563 0.624958 -0.030759 134 132 122
-0.394405 0.046582 0.269432 91 92 83
0.147464 -0.060658 -0.026156 94 102 91
0.352815 -0.068336 -0.035846 86 87 81
0.229499 -0.162573 -0.027840 118 120 111
0.200385 0.177294 0.238373 132 138 136
0.085109 -0.044882 -0.027737 19 20 16
-0.222066 -0.066371 0.240771 13 13 15
0.187767 -0.209911 -0.026725 116 118 109
0.108390 0.260177 -0.023903 93 93 93
0.378614 -0.009106 0.241947 145 151 151
-0.352443 -0.125776 0.327885 81 103 104
0.357670 0.121791 0.244012 144 152 153
0.053376 -0.181645 -0.028501 109 113 106
-0.253199 0.209865 0.021774 15 12 9
0.107789 -0.150673 -0.027259 116 121 111
0.104498 0.271010 -0.019954 93 99 97
0.358164 0.208556 0.245017 143 149 149
0.362913 -0.041872 0.184872 119 125 123
0.065518 -0.016366 -0.029361 64 73 64
0.388436 -0.151840 -0.026417 105 109 102
0.280103 0.127451 0.241949 136 142 140
0.351769 -0.213599 -0.023393 22 11 19
0.244075 -0.154783 -0.028957 115 117 108
-0.122419 -0.260602 -0.035424 103 110 104
0.062498 -0.238152 -0.027975 103 104 100
-0.113872 0.249731 -0.028308 44 52 41
0.028758 0.638744 -0.029986 130 132 119
-0.241259 0.225342 0.168174 1 5 0
-0.007089 -0.262041 -0.031080 116 120 113
-0.018462 0.026394 -0.024014 23 49 34
0.049069 -0.279156 -0.028993 110 110 104
0.356530 -0.041540 0.049215 104 105 101
-0.218689 -0.112430 0.224198 20 23 22
0.357808 0.164867 0.244798 147 150 151
-0.287860 -0.154731 -0.041782 120 125 115
0.268801 0.090399 0.240675 139 145 143
-0.196600 -0.324689 -0.040618 38 39 35
0.234454 -0.005459 0.237009 144 145 141
0.356783 -0.215654 -0.023976 104 111 103
-0.185652 0.571962 -0.045768 57 59 48
0.331301 -0.230757 -0.023060 121 118 115
-0.076836 -0.003387 -0.031884 89 93 86
0.240589 -0.183128 -0.027171 109 111 102
0.040093 -0.089648 -0.027790 87 91 84
-0.179926 -0.167965 -0.037852 119 120 114
-0.254397 -0.115664 0.218908 21 25 18
0.130285 -0.272445 -0.028076 117 114 109
-0.218944 0.234915 0.115212 5 5 5
0.291835 -0.064586 0.176074 115 118 117
0.376335 -0.035785 0.099169 107 111 106
-0.322287 0.015597 0.285937 44 39 37
-0.259706 0.208898 0.096978 14 14 10
0.097897 -0.197782 -0.027329 62 66 61
0.181567 0.065870 0.035525 87 97 102
-0.083341 -0.087067 -0.031765 104 112 101
0.040384 0.314109 0.080580 9 9 9
0.122224 -0.121356 -0.026427 105 110 98
-0.192365 0.023471 -0.029646 89 96 88
-0.000735 -0.262491 -0.030634 116 121 111
0.197551 -0.133690 -0.028647 3 3 0
0.160516 -0.163886 -0.027505 108 113 99
-0.230662 -0.089302 0.248658 20 21 17
0.177236 0.186442 0.237206 131 139 140
0.110324 0.034176 -0.027182 62 68 66
-0.204991 -0.276226 -0.038837 118 125 117
0.181740 0.252103 0.237337 129 135 135
0.311172 -0.234130 -0.024028 117 119 108
0.248413 0.170555 0.241576 134 140 140
0.079253 0.038430 -0.028563 16 17 13
0.370109 -0.161672 -0.025868 52 56 51
0.322820 0.277235 0.244861 145 145 145
0.114520 -0.164225 -0.027290 110 117 109
0.026294 0.080843 -0.017478 73 107 85
0.304896 0.123295 0.242949 142 148 146
-0.127878 0.098043 -0.031299 80 85 73
-0.128268 0.274924 0.099166 28 36 25
0.273517 0.059537 0.239829 135 141 141
0.068962 0.321078 0.116545 4 3 5
0.279527 -0.184122 -0.026705 122 119 114
0.312005 -0.058351 0.207613 120 126 126
0.299998 0.028570 0.240597 140 146 148
0.130156 -0.210889 -0.026840 110 110 110
-0.177547 0.102138 -0.034318 98 103 91
0.218360 -0.085907 0.142392 110 110 112
0.096435 0.293724 0.230352 133 141 140
0.277622 -0.169873 -0.028158 90 90 86
0.067668 0.046125 0.035795 96 125 103
0.145396 0.040334 -0.025158 60 69 62
-0.365519 0.047789 0.245681 114 144 147
0.259161 0.070079 0.239605 146 158 150
-0.047347 -0.103913 -0.029969 109 119 107
-0.034112 0.296343 0.063529 28 35 29
-0.370839 0.054998 0.246364 117 142 147
0.084999 0.299482 0.121386 83 93 98
-0.217796 0.237443 0.163590 8 8 8
-0.201744 -0.244921 -0.038483 26 27 23
0.358002 -0.067359 -0.035849 88 89 80
-0.152461 0.115377 -0.032950 84 92 81
-0.159733 0.247416 0.037521 1 4 3
0.265235 -0.191451 -0.026418 112 117 107
-0.023502 0.300696 0.173433 11 14 15
-0.088799 0.116780 -0.030726 71 81 67
-0.313503 -0.173149 -0.042427 122 127 115
0.279371 -0.003466 0.239110 104 118 140
0.200567 0.251432 0.238484 133 137 132
0.374618 -0.176919 -0.024773 100 102 93
0.389125 -0.090617 -0.031547 94 95 89
-0.140998 -0.296657 -0.036438 104 105 99
-0.184342 -0.155895 0.191483 17 21 16
-0.227073 0.227697 0.077735 8 8 8
-0.053819 0.287878 0.211938 145 151 149
-0.296051 -0.091413 -0.048062 110 115 105
-0.139990 0.582232 -0.041477 126 124 112
0.243143 0.338107 0.240497 133 139 137
-0.129423 0.039500 -0.031681 47 54 48
0.207922 0.176733 0.238852 132 140 139
0.267865 0.180097 0.242418 133 141 138
-0.318948 -0.125518 -0.046748 79 79 81
0.151191 -0.183345 -0.027372 114 119 107
-0.094149 0.115351 -0.030221 71 81 67
-0.219699 -0.112218 0.226304 19 25 23
0.311383 0.329378 0.243844 138 141 142
-0.256569 0.207861 0.020317 16 16 12
-0.106318 -0.286377 -0.034873 113 120 112
-0.275408 0.585641 -0.047312 123 128 114
0.033446 -0.207635 -0.028439 37 38 34
0.301279 -0.015970 0.239192 139 145 147
0.039239 0.293787 -0.031241 47 49 40
0.369232 -0.209042 -0.023205 112 108 109
-0.184104 -0.120339 0.200030 10 13 14
0.298784 -0.166042 -0.028201 99 107 94
-0.179722 -0.144244 -0.037216 121 123 112
0.204705 -0.116942 -0.029559 116 117 108
-0.034897 -0.271335 -0.031691 123 123 117
0.246466 -0.202656 -0.026092 117 117 111
-0.171305 -0.058514 -0.031753 105 106 93
-0.378785 0.073755 0.247938 114 138 140
-0.268947 -0.109695 0.265714 93 97 92
0.247809 0.019414 0.237272 86 89 119
0.008142 -0.156819 -0.029955 113 121 110
-0.041330 -0.048097 -0.030880 82 79 74
0.373763 0.046812 0.244516 147 150 151
0.259016 -0.229660 -0.024895 118 118 112
-0.354340 0.058062 0.242855 114 137 142
0.002609 0.309721 0.215564 139 145 145
-0.039247 -0.013600 -0.031065 76 89 76
0.304656 0.097115 0.242431 142 150 149
0.371951 0.062974 0.244293 144 152 151
-0.150016 0.266613 0.110865 37 44 36
-0.211010 -0.170032 -0.039216 115 120 110
0.149312 0.150710 0.235334 142 148 146
0.142490 -0.270299 -0.028253 117 117 111
0.299585 -0.049101 0.235418 134 142 141
-0.285882 -0.086139 0.300577 81 85 80
-0.260056 -0.063394 0.273087 108 115 107
0.099139 0.038356 -0.028289 7 10 11
0.395481 -0.143897 -0.027351 104 105 99
0.300771 -0.044683 0.235991 136 142 142
0.205920 0.189876 0.238810 131 139 138
0.010777 0.318427 0.130478 8 9 5
-0.221136 0.042696 -0.031138 105 110 98
-0.215322 -0.226734 -0.038996 131 128 123
0.335791 -0.201052 -0.024028 100 102 93
-0.122224 0.583889 -0.038757 121 119 109
-0.030421 0.634530 -0.031213 130 132 119
-0.228913 -0.143920 -0.040413 115 117 108
0.182464 0.311446 0.236315 128 136 133
0.181892 0.154758 0.237336 134 140 140
0.222693 -0.084310 0.132007 104 110 108
0.124507 0.018879 -0.025985 67 73 71
0.251234 -0.075606 0.074190 110 113 112
0.294893 -0.131889 -0.030695 99 103 96
0.136141 -0.270018 -0.027688 44 41 38
-0.312912 0.264653 -0.045952 135 140 128
0.160165 0.239011 0.059762 136 146 149
-0.222617 -0.089851 0.186610 18 25 19
-0.300261 -0.073415 0.314304 78 78 72
0.227888 0.649210 -0.019088 51 44 38
-0.214509 -0.105883 -0.040089 119 117 109
-0.024604 0.310947 0.116087 32 39 33
-0.158063 0.172877 -0.033852 89 94 84
-0.051912 0.286532 0.190570 14 17 16
-0.290546 0.581939 -0.047498 125 127 114
-0.195518 0.239499 0.207251 148 157 150
0.077405 -0.064848 -0.027051 80 87 81
-0.163095 -0.239825 -0.036907 120 120 114
0.054502 0.223588 -0.029482 72 79 73
-0.180330 0.105866 -0.034297 103 108 96
0.299159 0.143581 0.243182 141 147 147
-0.270557 -0.210978 -0.039492 18 16 6
-0.274928 -0.106923 -0.044619 100 105 95
0.167451 -0.039929 0.025242 136 149 146
0.328702 0.261779 0.245079 140 146 144
0.173593 0.062935 -0.022920 99 102 101
-0.231391 -0.190436 -0.039785 114 122 111
0.035441 -0.254875 -0.028987 1 2 0
0.337475 -0.181882 -0.025306 22 12 10
0.234643 -0.164824 -0.028051 36 28 25
0.336212 0.049420 0.243163 144 147 146
0.152912 0.616655 -0.021290 113 114 105
0.346629 0.231460 0.245090 144 147 146
-0.044030 -0.236495 -0.031923 112 117 105
0.189216 -0.079036 0.229861 135 144 137
0.199335 0.342473 0.236544 129 135 133
0.021915 -0.223598 -0.029409 111 112 101
-0.356690 0.053269 0.243640 110 139 140
0.110815 0.243392 0.004860 111 119 120
0.399719 0.055391 0.244830 144 152 153
0.297809 0.127561 0.242287 142 148 150
-0.228302 0.217280 -0.022374 82 91 84
-0.034861 0.633418 -0.031245 127 129 113
-0.062195 -0.137451 -0.031655 117 119 110
0.341811 -0.099131 -0.032553 96 103 97
0.157365 -0.180676 -0.027149 116 121 109
-0.081733 -0.132420 -0.032132 117 121 114
-0.119909 0.261183 0.206438 11 17 19
0.367096 0.276230 0.246168 152 152 146
-0.141453 -0.218716 -0.036003 116 118 109
-0.380374 0.073787 0.247455 116 140 142
0.173542 -0.130152 -0.027203 94 98 93
-0.139460 0.275611 0.207327 162 169 163
0.375587 -0.099886 -0.031849 99 103 96
0.090015 0.010878 -0.027914 70 74 69
-0.082877 0.278888 0.044373 8 12 7
0.098118 0.275393 0.166162 76 81 88
0.264870 -0.028743 0.237589 134 142 141
0.145955 0.132858 0.235654 134 142 141
0.205516 0.156909 0.239138 135 141 139
-0.308061 -0.226814 -0.042698 121 125 118
0.273850 -0.009256 0.239085 89 90 84
-0.305500 -0.101451 0.318306 82 82 78
0.263993 0.307557 0.242942 131 139 136
0.301842 -0.150700 -0.029294 33 33 27
-0.006523 -0.028317 -0.030376 89 93 88
-0.264268 0.216273 0.179172 13 16 15
-0.324400 0.156108 -0.042937 133 138 126
0.304213 0.054977 0.241735 139 147 144
-0.215589 0.605735 -0.042704 91 86 82
0.020283 0.303686 0.058357 2 2 2
-0.252016 0.212276 0.040343 8 15 9
0.287376 0.163255 0.243040 137 148 146
-0.119983 0.265064 0.041882 8 8 8
0.185760 -0.152708 -0.027555 122 124 115
-0.076184 0.075956 0.034298 78 107 89
-0.354170 0.015027 0.252871 55 62 54
-0.015153 -0.237746 -0.030595 112 116 109
0.068981 0.605902 -0.028396 124 122 112
0.018215 0.274392 -0.034910 52 56 49
-0.095867 -0.136653 -0.032668 116 121 111
0.307352 0.180990 0.243115 143 149 147
-0.195770 0.247319 0.143660 44 41 36
-0.196230 -0.289675 -0.039018 103 100 97
-0.343117 0.010672 0.286087 23 22 29
-0.396611 0.030002 0.284511 69 73 66
0.278432 0.259609 0.243298 133 139 139
-0.291890 -0.253083 -0.040258 133 141 130
-0.089601 0.643150 -0.029317 116 118 105
-0.043025 0.276493 0.025511 0 2 1
-0.069771 -0.102312 -0.031738 114 119 109
0.007805 -0.199489 -0.028983 119 124 114
-0.283216 0.609031 -0.046833 129 130 119
-0.228055 0.223401 0.051025 4 7 6
-0.321334 0.204540 -0.043882 53 51 39
-0.031618 0.104324 -0.006347 41 73 52
-0.241437 -0.319388 -0.041295 128 125 120
-0.086685 -0.211049 -0.032843 105 112 104
0.020958 -0.182687 -0.028716 111 112 106
-0.280967 -0.068677 0.295534 25 32 26
-0.179683 -0.153570 0.191545 26 25 27
0.036533 -0.197633 -0.028154 112 117 107
0.207262 0.145624 0.239732 135 141 139
0.393186 0.157424 0.245676 145 151 153
-0.247041 0.032520 -0.014434 119 123 116
-0.017812 -0.080700 -0.029183 96 104 93
0.262524 0.279203 0.242935 135 138 137
0.171488 0.272016 0.235971 128 136 135
-0.048624 0.185968 -0.031286 68 69 65
0.280637 -0.068065 0.171599 107 115 112
0.317927 -0.240266 -0.024820 120 124 117
0.049710 0.013095 0.009264 78 105 85
-0.137605 -0.251042 -0.035540 111 118 110
0.366359 0.116743 0.243842 146 152 150
-0.272996 -0.069563 0.285638 133 141 130
0.380651 -0.063004 -0.036163 87 91 84
-0.069122 0.084867 0.031954 54 83 61
0.186048 0.117992 0.036539 65 64 75
-0.295375 -0.068866 0.306849 73 75 66
-0.260556 -0.087121 -0.045935 105 107 96
0.048980 -0.070100 -0.027734 72 79 71
-0.275128 -0.157615 -0.041379 74 87 74
-0.103410 0.281994 0.132431 39 40 36
-0.115715 0.192014 -0.034794 65 69 64
0.077142 -0.050085 -0.027788 72 79 71
0.107184 -0.055675 -0.026467 96 101 89
0.192614 0.181514 0.238099 130 141 137
-0.175708 -0.200537 -0.037169 117 125 114
0.275919 -0.111467 -0.032188 105 112 104
0.241407 -0.015165 0.237513 149 152 151
-0.203562 0.232832 0.034186 0 1 0
0.081965 0.312240 0.080152 75 82 86
-0.178766 -0.147755 0.181340 69 70 64
-0.185353 -0.024151 -0.030040 93 101 90
0.396707 0.117276 0.245148 145 151 151
-0.277883 -0.228338 -0.040163 128 130 119
-0.042573 -0.093848 -0.030808 101 108 100
-0.318342 -0.121747 0.286485 39 43 36
0.042401 0.055553 -0.013218 61 95 75
0.185044 0.182094 0.237602 126 137 135
0.175598 0.138686 0.036061 104 111 117
-0.086586 0.285321 0.210834 147 159 151
-0.127055 -0.198785 -0.034357 116 120 113
0.083305 -0.118197 -0.027200 110 112 103
-0.089400 0.266465 0.027775 0 2 1
-0.209937 0.239268 0.107279 4 4 4
-0.317389 -0.143718 -0.044651 130 131 125
0.167799 -0.261661 -0.027052 115 116 112
0.238703 -0.180353 -0.026899 112 113 107
0.169381 0.046603 0.235223 135 146 144
0.124162 0.137888 0.237216 147 155 156
-0.041024 -0.158910 -0.031401 113 120 112
-0.104748 -0.029967 -0.032316 85 95 83
0.081997 -0.261708 -0.028323 106 111 99
-0.170985 0.578208 -0.045150 124 126 115
-0.134729 0.271297 0.085071 28 31 30
0.045502 0.188441 -0.028103 76 85 78
-0.186573 0.000966 -0.030096 87 91 84
0.270518 -0.203081 -0.025744 79 81 72
-0.055944 -0.166470 -0.032197 13 10 7
-0.215954 0.237456 0.141663 2 5 4
-0.290131 -0.177633 -0.041086 121 123 114
0.109187 0.256600 0.231636 128 139 135
0.346336 0.093349 0.243606 146 152 152
0.353084 -0.041709 -0.013272 90 96 94
-0.011960 0.314813 0.128401 29 30 26
-0.015210 0.309733 0.148540 4 7 6
0.053616 0.304866 0.224092 120 129 122
-0.021834 -0.130266 -0.030213 112 116 109
0.020191 0.298468 0.034645 2 5 4
0.180025 0.058732 0.235725 148 156 157
0.124099 -0.213498 -0.026995 71 72 68
-0.034747 0.304686 0.211265 142 149 143
0.252705 -0.229231 -0.025099 115 117 106
0.227630 0.289989 0.240609 131 137 137
0.353999 0.071141 0.243722 145 153 154
-0.243055 -0.210709 -0.039702 127 135 122
0.313012 0.376998 0.242064 135 138 137
0.122298 -0.224695 -0.026607 122 123 114
0.166122 0.176371 0.040277 88 98 101
0.037830 -0.019630 -0.030146 67 74 66
0.345494 0.243234 0.245119 149 149 151
0.244289 -0.019114 0.237356 93 104 104
-0.033226 -0.053934 -0.030838 91 103 93
0.025666 0.278107 -0.034323 55 62 54
-0.178547 -0.236257 -0.037342 124 129 119
-0.130163 0.011319 -0.031839 81 91 79
-0.087725 0.580337 -0.036006 128 130 121
-0.157267 -0.152529 -0.035516 117 125 112
-0.020439 -0.019540 -0.030766 78 88 76
0.178392 -0.019258 0.232148 112 120 117
-0.116184 0.564111 -0.042375 63 61 53
0.353734 0.215226 0.245174 144 152 151
0.376062 -0.038893 0.187695 120 126 124
-0.285641 -0.141695 -0.042999 117 119 110
0.146201 -0.197028 -0.026940 118 120 111
0.263985 0.285659 0.243251 132 138 136
-0.218171 -0.017939 0.227897 32 33 29
0.311649 0.379686 0.241381 139 139 139
-0.333174 -0.246147 -0.047994 130 134 129
-0.047891 0.215077 -0.032953 69 76 70
-0.148461 -0.292084 -0.036356 107 104 99
-0.112909 0.030640 -0.031444 23 30 22
0.396447 0.175298 0.247590 142 150 151
0.113219 0.176704 0.223455 126 137 135
-0.068605 0.286957 0.211428 145 156 152
0.093962 -0.146676 -0.026957 108 113 103
-0.088065 0.258267 -0.018640 22 26 21
-0.047390 -0.160104 -0.031384 117 122 112
0.346075 -0.044101 -0.037466 62 62 58
-0.139837 -0.205940 -0.034572 0 1 0
0.014365 0.022595 -0.022722 47 78 62
0.027013 0.019082 -0.018025 48 77 59
-0.071458 0.010116 0.035235 73 98 81
0.054626 0.011136 -0.031405 7 11 6
-0.203929 0.201898 -0.036672 89 97 86
-0.205443 -0.005798 0.165950 3 7 2
-0.347758 -0.199209 -0.044564 130 132 123
-0.207356 -0.067914 -0.035318 96 97 86
-0.037654 -0.134856 -0.030575 1 10 3
0.168706 0.140436 0.034107 61 65 79
0.289995 -0.125799 -0.031958 97 97 97
-0.202401 0.238917 0.199231 18 18 20
-0.013459 -0.206319 -0.029962 107 109 98
-0.115228 0.218045 -0.034929 61 63 54
0.171000 -0.201912 -0.027279 110 111 105
0.147771 0.148357 0.027301 96 112 120
-0.166717 -0.321171 -0.038865 116 120 113
0.096950 0.242728 -0.026497 30 27 24
0.166134 -0.185310 -0.027867 0 3 0
-0.069940 -0.093589 -0.031344 107 108 102
0.311537 0.252616 0.243803 142 145 146
-0.307621 -0.305366 -0.045175 128 129 123
-0.020946 -0.201114 -0.030818 112 114 105
0.318373 -0.181929 -0.026482 109 111 102
0.000025 -0.112563 -0.029392 107 111 104
0.137711 0.168124 0.234058 131 142 140
0.334279 -0.048412 0.001383 100 106 104
-0.142574 -0.250346 -0.035773 113 117 110
0.122033 0.279464 0.108699 60 71 82
0.127154 -0.106759 -0.026310 18 21 20
-0.058443 -0.257256 -0.032928 116 120 113
-0.155775 0.257329 0.182562 9 12 11
0.030769 0.104070 0.010128 77 114 89
0.217491 0.049411 0.236637 138 147 140
0.342247 -0.046706 0.106208 103 111 108
-0.071213 0.262778 -0.016267 0 0 0
-0.001306 -0.259604 -0.030570 111 112 106
-0.156169 0.260899 0.206645 170 179 172
-0.180534 0.145721 -0.034547 83 92 83
0.103966 0.181997 -0.026506 84 91 85
0.238348 0.058185 0.237878 113 115 121
0.073726 0.312898 0.183304 40 47 53
0.087285 0.298035 0.109973 75 87 89
0.273248 0.373840 0.239896 134 137 138
0.317569 0.171496 0.243728 138 149 145
0.172693 0.215487 0.236806 134 140 140
-0.074974 0.030563 -0.023597 88 108 91
0.192621 0.292538 0.238003 132 132 132
-0.335790 -0.316958 -0.049987 126 127 116
0.065347 0.319100 0.106902 2 8 8
-0.122695 0.251758 0.018284 2 2 2
0.323710 0.326205 0.245702 141 144 143
0.221360 0.056578 0.237264 134 149 144
0.049464 0.319340 0.147520 8 9 5
0.243864 -0.119557 -0.030544 107 112 100
-0.239990 -0.124518 -0.041745 47 48 44
0.276812 -0.140252 -0.030386 105 110 100
-0.040336 -0.201280 -0.031568 118 120 109
0.115481 -0.208798 -0.027101 112 120 105
0.148137 0.188653 0.235778 131 139 136
0.272575 0.145676 0.242161 137 145 142
-0.285330 0.217155 -0.043462 130 131 122
0.164324 0.202276 0.235866 134 142 139
-0.238527 0.198450 -0.039411 107 109 98
0.244363 0.145491 0.241263 131 142 138
0.152273 -0.192646 -0.027548 109 113 106
-0.046769 -0.073022 -0.030964 103 110 102
-0.186782 0.008746 -0.029901 88 101 88
0.210397 0.363879 0.236399 127 135 132
-0.281906 -0.286612 -0.040606 131 131 125
0.026010 -0.044696 -0.029484 18 21 20
0.130196 0.208411 0.233293 142 150 151
0.108625 0.271146 0.021411 91 98 106
0.196132 0.131259 0.049334 106 113 119
-0.066936 0.255468 -0.035179 57 70 57
-0.216442 0.577671 -0.043647 106 107 96
-0.347883 -0.114688 0.352518 101 131 134
0.105949 0.277308 0.021898 87 97 102
0.387286 0.057914 0.244414 147 153 151
0.359266 -0.041166 0.117540 108 111 110
-0.084005 -0.215473 -0.032238 108 112 105
0.260635 -0.022108 0.237810 87 94 118
0.182444 0.273865 0.236856 131 137 137
-0.260493 -0.182224 -0.040864 119 123 116
-0.175836 0.233725 -0.032196 59 60 51
0.089600 0.028752 -0.028790 70 77 71
0.151690 -0.173685 -0.027125 110 122 112
-0.155140 0.160013 -0.034141 79 87 74
0.379872 0.196743 0.246761 148 151 154
-0.008911 -0.221086 -0.030716 123 127 122
0.120877 0.235211 0.026716 104 108 120
0.206502 -0.203420 -0.026932 119 117 107
-0.196779 0.012705 -0.029975 91 95 90
-0.377746 -0.119036 0.284356 43 47 42
-0.084488 0.232342 -0.035372 1 10 1
-0.060331 0.027295 -0.006717 34 63 45
0.065946 0.225951 -0.029254 81 85 78
0.268120 0.053877 0.238972 144 153 163
-0.332433 0.141632 -0.048093 129 130 119
0.312230 -0.215873 -0.024219 89 93 86
0.162243 0.161037 0.235642 134 142 141
0.143878 0.222534 0.039444 101 111 118
0.028954 0.093076 -0.008294 72 106 82
-0.323361 -0.114680 0.331116 97 126 125
0.338444 -0.044734 0.236536 127 133 131
0.054403 0.165079 -0.027228 76 83 75
0.261180 -0.242834 -0.024168 116 117 113
0.364183 0.258149 0.247149 145 151 149
-0.271917 -0.162245 -0.041120 95 95 89
-0.196826 -0.119195 0.198393 10 14 7
0.272370 -0.079530 -0.037272 78 83 71
-0.202361 -0.315653 -0.039978 122 126 119
0.300729 -0.196198 -0.025517 111 120 111
-0.350632 0.058101 0.246121 121 133 135
0.184516 0.295456 0.237426 128 136 135
0.176003 0.074407 0.236650 138 146 147
0.012792 -0.146182 -0.029000 116 118 109
-0.302191 -0.171396 -0.041185 112 120 109
0.171809 0.048396 0.023645 121 128 132
0.200287 -0.090705 0.111842 108 114 112
-0.094789 -0.288839 -0.034504 50 47 42
0.047994 -0.127928 -0.028320 17 25 22
0.286024 -0.100640 -0.033636 105 106 97
-0.122832 -0.035500 -0.032257 92 102 88
-0.386860 0.013619 0.278033 68 69 63
-0.097894 0.291929 0.212737 148 160 152
0.241581 0.088778 0.239337 138 146 143
0.340796 -0.063349 -0.036415 77 82 72
0.253650 0.242599 0.241827 134 137 138
0.297699 0.101303 0.241697 140 146 146
-0.183824 0.252445 0.125722 46 46 42
-0.237984 -0.246684 -0.039036 124 125 121
-0.102954 -0.287302 -0.034637 114 118 111
0.126706 0.190211 0.000942 113 119 119
0.176177 -0.070107 0.124538 133 139 137
-0.115960 -0.143708 -0.033249 116 126 112
0.246914 -0.147733 -0.028901 111 112 106
-0.194265 0.170547 -0.035406 98 103 93
-0.270596 -0.111831 0.261087 73 80 74
0.188694 -0.088812 0.228890 137 138 134
-0.274729 -0.316497 -0.041155 125 127 116
0.264396 0.263258 0.242431 137 137 137
0.083632 -0.242063 -0.027566 117 119 108
-0.332589 -0.320915 -0.049505 56 55 55
0.297628 -0.063209 0.212435 121 124 123
0.107827 0.213721 -0.024922 78 87 78
-0.118027 -0.169298 -0.033740 112 120 109
-0.261661 -0.114059 0.241560 6 9 8
0.159412 -0.122623 -0.027344 116 117 111
-0.019161 0.311965 0.132223 32 41 34
0.272522 0.147408 0.242299 132 143 141
-0.334333 0.332000 -0.048659 135 137 124
-0.204334 -0.116994 -0.038539 112 116 111
0.027618 0.599989 -0.035823 118 120 111
-0.038627 0.018174 -0.019445 31 58 40
-0.180170 -0.003329 -0.030738 89 93 86
0.269739 0.000880 0.238925 143 147 142
-0.005156 -0.182361 -0.029762 120 127 119
-0.211220 -0.067622 -0.037909 86 94 83
0.392455 -0.031185 0.230451 119 130 128
0.137025 0.233849 0.040451 100 107 113
-0.096994 0.632797 -0.030546 121 123 112
-0.216901 0.232142 0.083652 8 9 5
0.347628 0.219595 0.245317 147 147 147
0.052029 0.228478 -0.030607 69 73 66
-0.200219 -0.195065 -0.037888 123 123 117
-0.140812 0.003249 -0.031890 91 99 88
0.192342 -0.039432 0.235253 132 143 141
-0.297643 -0.208995 -0.041228 41 28 32
-0.140093 0.178963 -0.033624 67 72 62
-0.075696 -0.166700 -0.032647 58 59 53
0.318628 -0.216259 -0.024247 112 114 105
-0.124688 0.622165 -0.036250 130 132 123
0.174806 -0.075224 0.227847 137 146 139
-0.367905 -0.127422 0.316114 97 116 116
-0.316490 -0.066957 0.325336 70 70 66
-0.179199 -0.035046 0.170262 22 22 22
0.109477 0.198951 0.231557 131 139 136
0.175461 0.062831 0.235756 134 142 141
-0.228798 -0.086513 -0.040978 105 113 102
0.101101 0.291376 0.039830 78 83 90
0.301300 0.035027 0.241109 139 147 148
0.399422 -0.161303 -0.025302 100 101 95
0.143837 0.211732 0.035551 101 111 118
-0.365560 -0.101238 0.351025 120 146 148
-0.305041 -0.290085 -0.044043 47 38 41
-0.146335 -0.047344 -0.033188 99 106 98
0.059387 0.314245 0.185461 9 12 11
0.025822 -0.095596 -0.028734 27 34 26
-0.395324 0.005046 0.286373 64 71 65
-0.315430 -0.168117 -0.043264 58 63 53
0.207029 -0.090959 0.193072 119 122 123
-0.194530 -0.090287 -0.037501 110 112 103
0.133085 -0.127719 -0.026708 42 40 32
-0.321228 -0.118353 0.315417 49 53 48
0.273701 -0.154339 -0.028658 112 113 104
0.391516 -0.153006 -0.025880 106 110 105
-0.324395 -0.268624 -0.045973 129 127 119
-0.333501 0.089542 0.147081 17 17 17
-0.103881 0.162724 -0.031539 39 41 30
-0.081661 0.259703 0.010698 1 4 3
0.333245 -0.046959 0.235873 130 133 134
0.204412 0.189589 0.238730 132 140 137
0.197818 -0.068030 0.235207 129 142 141
0.245208 0.373522 0.237860 128 139 135
-0.131552 0.157578 -0.032911 72 84 74
0.021174 0.315555 0.161885 4 4 4
-0.360206 -0.124356 0.292633 37 45 32
-0.037474 -0.067756 -0.030467 99 106 100
0.121403 -0.086825 -0.026684 27 28 24
0.079416 0.120809 -0.028297 0 0 0
-0.224783 -0.157269 -0.039395 117 118 109
0.356705 0.102200 0.244118 149 152 153
0.163905 0.068159 0.019738 112 119 123
-0.332851 -0.094928 0.350394 117 142 147
0.286160 -0.239986 -0.023992 116 117 113
-0.095815 -0.165389 -0.032879 21 25 18
0.066478 0.035363 0.029891 85 114 94
0.151158 -0.124239 -0.027079 114 116 107
-0.284893 -0.106942 0.285355 17 20 19
0.092901 0.268405 0.195226 109 123 125
-0.222468 -0.208655 -0.039206 110 115 105
0.046202 -0.206879 -0.028537 111 112 101
0.362104 0.238186 0.246193 149 149 151
-0.230909 0.112560 -0.034405 103 105 96
0.226155 -0.049783 0.236829 135 141 141
-0.152380 0.156279 -0.034450 46 47 43
0.096311 -0.089566 -0.027551 104 105 101
0.263302 -0.071706 0.064918 111 111 111
0.116168 0.281574 0.118467 63 67 81
0.099006 -0.239394 -0.027238 113 113 109
-0.142859 -0.318534 -0.038331 120 120 114
0.018184 0.006332 -0.015197 47 76 56
0.325166 -0.045637 0.235881 132 140 141
0.146955 0.060639 -0.025281 53 61 58
0.091299 -0.230146 -0.027015 115 116 107
0.344693 -0.119535 -0.030151 105 107 98
0.372788 -0.189832 -0.024205 52 52 52
-0.031281 -0.190237 -0.030446 117 121 116
-0.161579 -0.273391 -0.036863 111 113 104
-0.356638 -0.122230 0.260192 41 48 42
0.036676 0.318470 0.150206 2 5 4
-0.226367 0.570898 -0.045623 127 132 120
0.256632 -0.075277 0.200433 117 125 122
0.176372 -0.057179 0.227829 132 143 139
0.050616 0.040083 -0.002491 72 99 79
-0.196176 0.067784 -0.025666 33 34 30
-0.226881 0.097693 -0.033595 97 99 90
-0.294667 -0.085300 0.309948 86 83 78
-0.307211 -0.103628 -0.045938 113 118 106
0.163852 -0.045849 0.198019 86 94 91
0.220975 -0.181910 -0.027151 118 119 110
-0.178386 -0.151252 0.186517 6 5 5
-0.206466 -0.009159 0.174103 3 3 3
0.157244 -0.238290 -0.026472 118 119 106
-0.285781 -0.145656 -0.041735 119 124 114
0.399568 0.011016 0.244218 146 152 154
0.031797 -0.188767 -0.028718 0 1 0
0.190705 0.227056 0.237751 131 137 137
0.120979 -0.097463 -0.026518 102 107 97
-0.329519 -0.304042 -0.049183 129 129 123
0.304272 -0.204835 -0.025536 15 16 12
-0.166038 0.610720 -0.041471 119 122 106
-0.081462 0.155942 -0.030920 64 73 66
-0.067201 0.289437 0.156770 4 4 4
0.317859 -0.055892 0.186140 112 120 119
-0.114516 0.113980 -0.031597 85 85 79
0.368133 -0.038878 0.080849 103 103 103
0.109733 -0.115036 -0.026859 110 115 103
0.002184 -0.067726 -0.029365 103 111 98
-0.159989 -0.179805 -0.036083 130 131 120
-0.180618 -0.026297 0.206503 6 6 6
0.018985 -0.259184 -0.029583 115 112 107
0.189514 -0.093489 0.113804 114 118 113
-0.164613 0.218796 -0.034703 69 73 68
0.302439 0.159173 0.243081 140 148 145
-0.147881 0.079608 -0.032504 61 69 58
0.211908 -0.231736 -0.026044 115 116 105
0.248047 -0.202381 -0.026054 115 116 110
0.048085 -0.017899 -0.029416 68 78 66
0.121184 0.050553 -0.027775 61 67 65
0.305755 -0.212440 -0.024293 91 92 83
0.317016 -0.055218 0.120108 107 108 102
0.272113 -0.149478 -0.029762 113 114 105
0.178841 -0.075506 0.115110 141 144 145
-0.182915 -0.157459 0.189003 25 28 27
-0.170624 0.051681 -0.032134 94 99 89
0.077857 0.177475 -0.028316 88 89 85
0.038031 -0.278148 -0.029051 41 40 40
0.312279 0.038443 0.242052 145 148 149
-0.075348 -0.238850 -0.032825 119 117 105
0.199970 -0.062117 0.236048 131 142 140
-0.054530 0.268177 0.017220 0 3 2
-0.007521 -0.161371 -0.030048 116 120 113
0.266376 -0.126954 -0.031373 14 13 13
-0.265773 -0.310639 -0.040384 105 103 95
0.225683 -0.083764 0.156776 114 117 116
-0.087028 0.272392 0.036229 5 5 5
-0.123279 0.154752 -0.032732 71 78 70
-0.182171 -0.183509 -0.037637 112 116 109
0.024725 0.318832 0.133746 4 8 3
0.237849 -0.081999 0.181868 111 118 112
-0.194299 -0.327169 -0.040595 91 87 80
0.037566 -0.029080 -0.030226 71 79 68
-0.061574 0.295049 0.136926 28 32 25
-0.234234 0.239114 0.211327 172 179 173
-0.154658 0.157891 -0.034202 84 89 77
0.255898 -0.076440 -0.034483 68 69 63
0.257743 0.333925 0.241569 138 138 140
0.221865 0.047025 0.236616 106 110 103
0.065515 0.317843 0.158478 16 15 15
0.000761 0.641628 -0.030340 128 133 121
0.179993 0.171492 0.059621 98 103 110
-0.279858 -0.078058 0.296743 37 42 32
0.263525 0.164243 0.241988 134 142 141
0.232130 -0.067548 0.236531 135 141 141
-0.020441 0.281771 0.022278 1 1 1
0.214440 -0.135515 -0.028876 112 116 109
-0.103843 0.277008 0.058402 34 38 33
-0.238585 0.176568 -0.038293 99 104 92
-0.210978 0.019243 -0.028867 56 63 57
0.089797 0.294116 0.118090 76 81 86
-0.146626 0.581365 -0.042258 126 122 115
-0.160089 -0.166745 -0.035072 136 141 131
0.319931 -0.160639 -0.028086 106 111 97
-0.193980 -0.227768 -0.038329 123 127 120
-0.044097 0.047193 -0.020044 32 59 41
0.006699 -0.210650 -0.029599 119 129 115
0.119208 0.310592 0.232541 138 144 142
-0.002051 -0.271541 -0.031406 122 124 115
0.058514 -0.252529 -0.027619 70 71 62
0.282678 -0.181978 -0.026714 110 111 105
-0.195392 0.048492 -0.031955 94 99 87
0.024476 0.112246 0.040260 87 121 97
-0.303572 -0.162861 -0.041919 119 126 118
0.389163 0.066441 0.244645 146 152 152
-0.010098 -0.215146 -0.030165 123 125 116
0.378810 0.057853 0.244249 146 152 152
0.128440 0.194939 -0.020588 72 80 79
-0.156427 -0.308048 -0.037075 119 120 114
0.133207 -0.168852 -0.027641 40 31 26
0.206667 -0.091601 0.226975 114 120 120
-0.162317 -0.207799 -0.037202 120 130 118
0.070791 -0.042119 -0.027817 76 83 77
-0.096807 -0.182093 -0.033073 118 119 108
0.130599 -0.063864 -0.026272 94 101 93
0.048063 0.198648 -0.028927 37 40 39
-0.164026 0.181816 -0.035432 89 91 80
-0.202904 -0.324305 -0.040902 126 127 123
0.005552 -0.246383 -0.030078 123 125 116
0.336812 -0.035322 0.237950 141 147 147
0.160493 -0.041138 0.215954 135 143 142
-0.231444 -0.130136 -0.041203 118 120 111
0.080103 0.317807 -0.014081 22 33 31
0.130580 0.131612 0.237615 134 140 140
-0.230513 0.161033 -0.036523 91 103 93
0.088672 -0.212023 -0.027281 10 9 11
-0.049203 0.081653 -0.009791 50 75 56
0.090183 -0.233416 -0.026931 121 118 113
0.028009 0.313580 0.089096 0 3 2
0.337781 0.149566 0.244394 141 149 148
-0.168241 0.027418 -0.031625 88 93 81
0.020213 0.632162 -0.028914 131 133 120
-0.115320 -0.293775 -0.035421 105 107 98
0.154667 0.161410 0.235373 131 139 138
0.104523 -0.276877 -0.028422 15 4 0
0.045995 0.304291 0.220481 139 147 144
0.157250 -0.008009 -0.023922 81 81 85
0.030985 0.238613 -0.031483 63 70 62
0.272795 -0.061565 0.234849 132 140 141
0.258843 0.002068 0.238324 126 133 125
0.319791 0.282927 0.244752 138 144 146
-0.231288 -0.102027 0.244615 14 18 13
-0.229314 0.220923 0.026720 0 7 1
-0.314054 -0.119597 0.298975 42 46 41
0.162317 -0.035974 0.106412 136 142 140
0.238775 -0.120616 -0.030117 104 105 99
0.331518 -0.031885 0.237891 140 146 146
-0.250095 0.214169 0.065034 10 10 10
-0.396849 -0.038493 0.310973 31 35 30
-0.160379 -0.114964 -0.035334 109 113 106
0.386351 -0.034540 0.178345 120 127 121
0.259205 -0.234176 -0.024594 110 111 105
0.142016 0.629355 -0.018006 126 124 114
0.204281 -0.091972 0.027224 112 113 109
-0.266023 -0.129033 -0.043188 121 123 114
-0.158386 -0.284793 -0.037115 111 108 103
-0.236464 -0.082872 0.256244 171 15 10
-0.059941 -0.207887 -0.032295 0 1 0
-0.297563 -0.075758 0.312126 72 80 69
0.057517 0.315393 0.078126 10 10 10
-0.163092 -0.273640 -0.036974 115 113 105
0.262547 0.292281 0.242668 131 134 133
0.155750 0.348423 0.235720 127 134 128
0.091185 0.293190 0.111287 77 84 90
0.033595 -0.180428 -0.028467 112 117 107
0.013600 -0.271911 -0.030419 107 111 104
-0.006405 0.251455 -0.034368 78 88 76
0.049163 0.638190 -0.027604 127 128 115
0.017730 0.290241 -0.016180 0 0 0
0.109672 0.213776 -0.024376 76 85 76
0.291741 0.044765 0.240526 141 144 145
-0.167126 -0.298082 -0.037854 119 120 111
-0.250988 0.221084 0.160515 8 11 10
0.378493 0.210830 0.248100 145 151 153
-0.022856 0.613679 -0.030944 130 132 121
0.182731 0.162617 0.051104 68 59 54
-0.046050 0.291703 0.056982 24 28 23
-0.094393 -0.178406 -0.032873 118 120 111
-0.035481 0.049915 -0.021937 29 54 37
-0.292077 -0.122877 -0.044606 80 76 65
0.204394 0.270521 0.239338 125 136 132
-0.207709 -0.066176 0.221248 20 20 16
-0.120041 0.275727 0.140062 29 33 26
0.233385 0.370450 0.237931 132 140 137
0.062392 0.321942 0.220584 105 108 109
0.130037 0.141610 0.236545 133 141 140
0.120345 0.279559 0.108094 58 69 80
-0.030052 0.097534 -0.012407 38 72 50
-0.377822 -0.005098 0.278972 52 61 54
-0.207254 0.234229 0.207440 39 56 59
-0.045594 0.299949 0.081801 26 27 21
0.105562 0.279114 0.231915 134 140 138
-0.224938 0.103721 -0.035762 94 99 87
-0.298700 -0.271042 -0.041928 130 131 125
-0.322723 -0.086046 0.342714 113 141 145
-0.114315 -0.309565 -0.035958 103 104 98
-0.110966 0.252521 -0.001477 6 9 8
0.003486 0.066208 -0.022170 25 52 32
-0.142958 0.183157 -0.033946 67 69 58
0.068778 0.144679 -0.028598 70 77 71
0.346891 0.041461 0.243928 145 151 151
-0.288221 0.264762 -0.041995 101 106 94
0.322741 0.197375 0.243887 143 149 147
0.083815 -0.145220 -0.026988 108 112 107
-0.342248 -0.090183 0.358541 116 145 146
-0.320274 -0.117991 0.315154 48 52 47
0.104039 0.027225 -0.027667 68 75 67
0.160718 0.080693 0.021059 114 125 125
-0.209031 -0.027459 -0.029031 22 26 21
-0.359389 0.057390 0.244475 114 139 144
0.254040 -0.074124 0.085423 110 114 109
0.243991 0.009345 0.236664 115 116 112
0.163372 0.308471 0.234513 134 138 133
0.217966 -0.000520 0.236033 29 40 61
-0.238459 -0.304361 -0.040267 127 135 124
0.355401 -0.041767 0.072829 104 111 105
0.232706 0.137729 0.240704 133 141 142
-0.074466 0.282997 0.181311 1 7 5
-0.343359 -0.113737 0.350518 111 129 136
0.153695 0.107170 0.235696 135 141 141
0.280571 -0.011180 0.239523 148 155 149
0.341010 0.330634 0.247830 138 144 142
-0.044254 -0.242751 -0.031664 111 112 103
0.263053 0.091036 0.240430 137 145 144
-0.070470 0.293951 0.079102 33 35 24
0.333932 -0.068205 -0.036359 6 6 6
0.044131 -0.175395 -0.027861 108 113 103
-0.026212 0.201967 -0.030621 65 69 62
-0.087848 0.121372 -0.030804 13 14 10
0.186175 -0.045342 0.229247 138 146 143
0.302415 0.014474 0.241007 140 143 144
0.097895 0.242274 0.230444 133 139 137
0.156903 -0.033668 0.205455 136 143 137
0.156579 0.107703 0.235856 139 145 145
0.215312 -0.002559 0.235858 132 143 141
-0.160905 0.004994 -0.031710 94 95 86
-0.007682 -0.051418 -0.029174 82 92 80
-0.208191 -0.101950 0.210518 1 1 1
-0.242519 -0.310938 -0.040454 131 129 121
-0.300048 -0.187769 -0.041605 124 125 116
-0.019119 0.298131 0.184514 6 9 8
0.340646 0.063121 0.243961 142 150 147
0.123320 -0.088106 -0.027030 11 18 12
-0.032874 -0.251493 -0.031250 52 53 47
0.077916 -0.275723 -0.028039 126 127 121
0.305127 0.266989 0.244543 138 144 142
-0.281512 -0.148369 -0.041603 116 121 109
0.154912 0.125933 0.028949 104 114 119
-0.333597 -0.249401 -0.048018 37 27 27
-0.320834 -0.264969 -0.045510 123 124 115
-0.143201 0.239000 -0.012628 0 0 0
-0.206405 0.242519 0.148663 13 16 15
0.075338 0.317800 0.026337 57 63 63
0.092343 0.300869 0.018452 77 87 90
-0.150525 0.257138 0.195867 15 21 21
0.264142 -0.162648 -0.028259 107 111 106
-0.329327 -0.121221 0.326357 87 116 115
0.235091 0.241222 0.240679 133 139 137
-0.210813 -0.081938 -0.038948 63 66 65
0.178546 0.253664 0.237073 128 136 133
-0.239183 0.233316 0.211509 169 175 173
0.030030 0.095508 -0.004704 72 106 84
0.003531 -0.260287 -0.030347 67 60 52
0.024519 -0.255303 -0.029003 106 111 101
0.297404 -0.060655 0.070999 108 111 110
0.063017 0.308167 -0.026494 29 29 29
-0.392192 0.019784 0.281514 71 75 68
0.308331 -0.063631 -0.038094 78 74 67
-0.135000 -0.248987 -0.035749 73 75 64
-0.286755 -0.093310 -0.047983 114 116 107
0.136946 0.156087 0.013942 114 125 125
0.072647 -0.191299 -0.027102 110 117 109
0.127653 -0.009497 -0.025353 75 79 72
0.233553 0.109378 0.240114 134 140 140
-0.051349 -0.217578 -0.031631 121 123 114
-0.218633 0.233564 0.089792 6 6 6
-0.291033 -0.260584 -0.040916 134 139 129
-0.210039 -0.280169 -0.038752 124 129 119
0.163847 0.138249 0.032501 86 92 103
-0.098235 -0.203425 -0.033368 111 111 105
