ply
format ascii 1.0
element vertex 1222
property float x
property float y
property float z
property uchar red
property uchar green
property uchar blue
end_header
-0.258883 0.227674 0.151085 10 9 9
-0.066871 0.181377 -0.037537 81 86 76
-0.179942 -0.249794 -0.040972 125 132 124
-0.287910 -0.296329 -0.034625 128 130 121
-0.361366 -0.063529 -0.034043 19 27 16
0.295580 -0.104741 -0.030956 106 104 94
0.387988 -0.219472 -0.022323 101 101 97
0.153436 -0.014652 -0.028056 93 100 94
0.157154 0.001279 -0.028179 84 85 79
0.134210 0.299109 0.052060 79 85 96
0.247441 0.358787 0.236912 131 137 137
-0.369316 0.051096 0.251611 113 139 141
0.203135 -0.020661 0.232772 137 145 146
0.114287 0.312400 0.068710 55 60 76
-0.070081 -0.147583 -0.036900 28 35 29
-0.245917 -0.147771 -0.038600 114 119 107
0.271784 0.317119 0.239531 129 140 138
0.083314 0.078464 -0.030098 5 5 5
-0.237310 0.231311 0.191269 16 16 12
0.197047 -0.085275 0.099348 113 117 112
0.263819 -0.115893 -0.030398 98 94 95
-0.081068 -0.025420 -0.036380 92 102 90
-0.083608 0.271605 0.090653 36 37 33
-0.391727 0.119627 -0.027162 122 130 119
0.367555 -0.032464 -0.006006 100 106 104
0.380732 -0.022494 0.235893 138 149 149
0.371405 -0.090951 -0.029808 100 97 92
-0.342699 -0.121042 0.334613 90 115 122
-0.335358 -0.156002 -0.039291 120 128 117
-0.347766 0.030394 0.245980 96 124 128
0.313431 -0.053322 0.227866 122 128 128
0.226853 -0.233252 -0.028401 120 117 112
0.076175 -0.220941 -0.032806 117 118 112
0.287945 0.322496 0.240381 136 139 140
-0.394596 0.066261 0.248031 117 145 149
-0.109837 -0.023516 -0.036336 49 53 48
-0.267810 0.223307 0.107240 13 10 7
-0.128563 -0.274583 -0.039493 107 110 109
0.290077 0.119069 0.239077 138 146 147
0.073087 -0.031336 -0.030531 69 78 69
-0.111080 0.080572 -0.035595 89 97 86
-0.084049 0.022545 -0.035685 82 95 80
0.087016 -0.003949 -0.030677 7 11 6
0.157247 0.016263 -0.027231 93 99 97
0.039190 -0.283145 -0.033626 88 92 87
-0.193525 -0.075625 0.195003 0 2 0
-0.145633 0.264345 0.160766 2 5 4
-0.019275 0.124866 0.027781 64 91 73
-0.020795 -0.233206 -0.035185 119 123 116
0.137859 0.630696 -0.020277 122 124 115
-0.149367 -0.177194 -0.038302 123 124 118
-0.165937 0.255877 0.167023 8 8 8
-0.226227 -0.107497 0.234616 9 9 9
0.309678 0.022764 0.237321 144 147 148
-0.030953 0.220292 -0.035170 78 87 80
-0.032301 0.114843 0.004470 48 75 55
-0.089653 0.595933 -0.045307 119 123 116
0.075382 -0.130866 -0.029766 103 115 107
-0.051379 0.286499 0.115069 36 37 31
-0.327947 -0.117686 0.327747 91 122 120
-0.025430 -0.210622 -0.034577 114 118 111
0.100225 0.293702 -0.032697 64 75 73
-0.023603 -0.154546 -0.035328 115 123 112
0.156799 -0.024895 0.197187 133 144 142
-0.239971 -0.282961 -0.036300 131 135 130
-0.223500 -0.097522 -0.038139 109 113 106
0.121429 -0.237852 -0.030703 123 124 120
0.220578 -0.097991 -0.031455 92 101 92
0.224937 0.245648 0.237539 130 138 137
0.170346 -0.030405 0.116634 159 167 168
0.227724 0.332939 0.237282 130 138 137
-0.327598 -0.109384 0.338597 108 132 134
0.174762 0.123982 0.021484 101 111 118
0.265393 0.329533 0.238844 132 138 138
-0.139598 -0.214498 -0.038820 117 118 107
0.126548 0.291851 0.228562 130 138 137
0.355554 0.148278 0.241492 145 151 153
0.234406 -0.079649 -0.037250 51 58 50
-0.196091 0.645835 -0.047610 125 126 120
-0.230924 0.004250 -0.035148 91 98 90
0.059225 -0.090500 -0.030141 14 22 19
0.284216 0.146724 0.239240 133 141 140
0.131717 0.039218 -0.028797 62 69 63
0.209936 0.329726 0.236050 131 137 135
-0.150563 0.639650 -0.046291 61 53 52
-0.122523 0.142200 -0.037572 72 81 72
0.157960 0.025830 -0.026582 76 83 75
-0.006779 0.605381 -0.040273 118 120 111
-0.308172 -0.237459 -0.038785 137 138 127
0.359846 -0.199882 -0.023952 112 109 106
0.210309 0.073383 0.233808 135 143 142
-0.116406 -0.149553 -0.036721 119 124 112
-0.294101 -0.113717 0.278834 45 54 45
-0.125992 -0.037882 -0.037084 76 78 69
-0.241445 -0.325817 -0.037060 124 125 119
0.222018 0.022179 0.234148 140 148 145
0.300788 0.172260 0.240123 140 148 147
0.301248 0.044904 0.238096 139 145 147
-0.055481 -0.228311 -0.036284 113 114 105
-0.293535 -0.227306 -0.036675 128 126 116
-0.203386 -0.011631 -0.035644 99 104 94
-0.042107 -0.095780 -0.035233 93 102 95
-0.047445 0.306383 0.199508 142 150 147
-0.107794 0.251464 0.041629 0 3 2
0.158590 0.234199 0.232503 131 139 136
0.093884 0.298468 0.224821 132 140 137
-0.259765 -0.123276 -0.036064 114 118 111
-0.363218 -0.091220 0.353339 110 143 145
0.159362 -0.223656 -0.029767 108 112 105
0.352712 0.229550 0.241842 149 149 149
-0.049909 -0.003752 -0.036382 75 88 75
0.109894 0.041196 -0.029746 64 71 65
0.232958 0.230486 0.238325 131 137 137
-0.341768 -0.106252 0.354080 107 140 142
-0.152890 -0.125032 -0.037738 112 121 112
0.125120 -0.229572 -0.030709 125 126 117
-0.033626 -0.262834 -0.036277 117 119 110
-0.348594 -0.128394 0.313225 39 49 37
-0.192902 -0.107914 0.192044 14 17 16
-0.245233 -0.071149 0.263790 21 28 22
0.014604 0.058024 -0.029778 54 88 66
-0.394752 -0.109229 0.219472 31 32 28
0.252702 0.084085 0.236944 136 142 142
-0.009592 0.299422 0.127742 34 37 36
0.287728 -0.061897 0.151499 108 111 110
-0.148636 0.208549 -0.038833 39 46 40
0.017887 0.303234 0.146509 5 6 2
-0.268939 -0.223089 -0.035417 32 32 26
0.261440 -0.174440 -0.027935 107 115 102
0.290676 -0.098389 -0.032436 101 103 92
0.349187 -0.040971 0.076524 111 112 108
0.156786 -0.061335 -0.029416 95 95 95
0.335636 -0.012103 0.236306 138 146 145
-0.237283 -0.098712 0.252491 16 20 15
0.294687 0.185844 0.240484 139 145 145
-0.279520 0.233467 0.201123 174 177 178
-0.045592 0.092261 -0.012578 40 72 51
0.340515 -0.041036 -0.011813 101 105 100
-0.228005 0.238071 0.165080 8 8 8
0.068104 -0.279683 -0.032841 115 116 112
0.105820 -0.261509 -0.031412 108 112 105
-0.292609 -0.117296 0.251965 60 60 54
-0.251096 0.215195 0.057628 4 7 6
0.163910 -0.042090 0.196655 135 141 139
-0.078711 0.142872 -0.037854 69 79 67
0.113670 -0.020118 -0.029252 75 82 76
0.176164 0.253536 0.234236 130 138 137
0.378353 0.155013 0.241783 139 150 150
0.054048 0.311666 0.146853 11 11 11
-0.364810 -0.010314 0.254185 71 72 66
-0.012512 -0.185852 -0.034201 115 119 112
0.128089 -0.190056 -0.030392 117 118 109
0.115132 0.227783 0.230326 133 139 139
0.147042 -0.252902 -0.030723 67 56 64
-0.059259 0.288980 0.144215 24 28 21
-0.184246 -0.217580 -0.040001 123 128 118
0.012561 0.310190 0.203792 137 148 144
0.139651 0.208952 0.232912 130 138 135
0.074266 -0.099935 -0.030168 91 93 84
0.208271 0.056272 0.233159 124 131 137
-0.267689 -0.268673 -0.033951 111 109 99
0.257078 0.172930 0.238582 133 141 142
-0.084203 0.141653 -0.037786 5 6 0
0.147376 0.165465 0.232931 129 140 138
-0.361312 -0.074812 -0.042764 13 17 12
-0.129879 0.176352 -0.036802 65 70 60
-0.167654 -0.139763 -0.038619 116 117 111
-0.066341 -0.284858 -0.037401 90 101 99
0.089486 -0.235703 -0.031826 120 121 112
0.259497 -0.133745 -0.029350 104 112 99
0.253198 -0.139871 -0.029382 110 114 109
-0.291643 -0.132385 -0.032806 115 120 108
0.048370 -0.148621 -0.032525 110 114 107
0.258116 0.197684 0.239330 130 138 137
-0.124538 -0.080645 -0.036493 14 17 16
-0.308786 -0.213193 -0.039474 129 134 124
0.157048 0.233932 0.232387 133 139 137
-0.279975 0.227984 -0.039967 128 133 121
0.072503 0.162091 -0.030663 4 3 3
0.269322 0.390344 0.236655 133 141 138
-0.088794 0.135964 -0.037329 70 82 72
0.323444 -0.020193 0.235236 136 147 147
-0.324642 -0.336619 -0.042903 126 127 121
-0.120565 0.081381 -0.036858 87 99 89
-0.014996 -0.094670 -0.033662 103 111 100
-0.245696 0.224388 0.101374 6 9 10
-0.172031 0.253493 0.172837 3 7 2
-0.312799 -0.058765 -0.018600 106 116 104
0.037207 0.182474 -0.032378 82 90 79
0.384787 -0.030653 0.071837 104 110 108
0.336070 0.043154 0.239751 138 146 147
0.369400 0.255208 0.242431 139 150 150
-0.306875 -0.258051 -0.037318 133 129 120
0.263141 -0.237658 -0.026691 107 111 106
0.138849 0.163286 -0.008559 113 126 125
-0.223487 0.148027 -0.038707 96 103 95
-0.049970 -0.267265 -0.036104 110 115 105
-0.147180 -0.191700 -0.038219 121 125 118
0.324407 0.154609 0.240868 143 149 147
-0.228134 -0.084591 0.249195 28 23 21
0.142733 0.227500 0.025093 101 110 120
-0.100109 -0.299512 -0.038023 100 107 101
0.252807 -0.162960 -0.028845 109 114 104
0.286321 0.313470 0.240183 133 141 138
0.158338 0.057087 0.230844 136 142 144
0.148618 0.138539 -0.026279 47 48 44
-0.046578 -0.246911 -0.036091 92 95 94
0.319847 0.064896 0.239108 140 148 149
-0.160493 -0.128269 -0.037650 114 119 109
0.295869 0.360670 0.237964 135 138 141
0.221290 -0.061946 0.232188 135 141 139
0.198207 0.170685 0.236345 132 138 138
0.281093 0.277276 0.240660 132 138 136
0.290574 -0.165920 -0.028207 106 110 103
0.257638 0.048140 0.236443 117 120 123
0.370777 -0.035916 0.196405 124 130 128
-0.204252 -0.204926 -0.040557 6 3 0
-0.247174 0.226806 0.195777 12 18 18
0.170443 0.158408 0.234084 130 143 140
0.360893 -0.039433 0.192811 120 126 124
0.170766 0.054671 0.233578 134 141 145
-0.096521 -0.276650 -0.038167 103 101 93
0.047113 -0.088993 -0.030987 78 87 78
0.394648 -0.100650 -0.028453 94 98 93
-0.090874 0.642450 -0.040779 121 123 110
-0.229129 -0.103564 0.104593 37 37 33
0.110647 0.174779 -0.027019 86 93 85
-0.226046 0.221784 0.047752 5 6 0
0.366080 -0.105778 -0.029038 103 107 102
0.309622 -0.131079 -0.029753 112 117 107
0.397791 -0.025205 0.045048 106 109 108
-0.350008 -0.057191 -0.043150 120 124 117
0.063887 -0.016074 -0.030866 68 77 70
-0.196111 0.035932 -0.035732 89 94 84
0.040273 0.310667 0.189100 8 11 10
-0.146529 -0.218934 -0.038973 110 114 107
-0.208340 -0.124887 0.148583 4 3 3
-0.291438 -0.199537 -0.035671 130 131 120
0.350419 -0.140845 -0.026593 106 106 100
0.269681 -0.001971 0.235360 96 100 93
0.276117 -0.048359 0.233124 132 140 139
0.162865 -0.119677 -0.029470 0 1 0
0.266694 -0.068268 0.199045 115 121 121
0.131478 0.195043 0.012586 104 111 115
-0.081140 -0.242101 -0.037156 123 124 115
-0.071629 0.266528 0.054145 3 3 3
0.042727 -0.249749 -0.033732 16 6 6
-0.284464 -0.096952 -0.032934 106 113 105
0.174187 0.193058 0.023424 95 104 114
-0.202996 0.020483 -0.036108 91 95 88
-0.326946 0.335378 -0.031741 139 137 125
-0.085204 0.053820 -0.021860 103 128 107
-0.173325 -0.221943 -0.040202 119 120 114
0.222228 0.136816 0.236156 134 142 143
0.062321 0.011333 0.034861 42 51 44
-0.153707 -0.147763 -0.037665 121 123 114
0.305924 -0.100840 -0.031922 102 104 95
-0.181280 0.108559 -0.039267 107 105 95
0.158772 -0.027190 0.189685 133 144 142
0.264059 0.100172 0.237511 138 144 142
-0.079310 -0.173029 -0.036232 117 117 111
-0.002183 0.307505 0.202794 131 144 141
0.161657 -0.074625 -0.029680 107 110 111
-0.184047 0.248842 0.142578 43 45 36
0.392757 -0.102812 -0.027997 102 103 97
-0.117639 -0.303890 -0.039028 100 102 93
0.036671 0.029668 -0.023985 48 77 55
0.312790 0.070153 0.239043 145 151 151
0.131771 0.623447 -0.020878 122 124 113
-0.172176 0.255459 0.182659 12 12 12
0.110297 -0.103940 -0.028954 98 105 97
0.021372 -0.262527 -0.033952 112 117 107
0.143016 0.183941 0.232852 131 139 138
0.364477 -0.223462 -0.023123 107 111 106
-0.356338 -0.112114 0.353982 123 146 151
0.110676 -0.066817 -0.028809 94 95 89
-0.321768 -0.270100 -0.044146 126 127 121
-0.341381 -0.095311 0.358243 115 141 143
0.049847 0.293620 -0.034564 2 3 0
0.357429 -0.055433 -0.034578 72 76 69
-0.231346 -0.242361 -0.038920 121 128 120
0.334842 -0.214783 -0.025135 81 81 81
-0.313444 -0.092517 0.334467 97 112 109
0.021068 -0.135027 -0.032941 113 114 105
0.185246 -0.080457 0.127251 138 150 142
0.240261 0.184940 0.237916 133 141 140
0.100087 0.235073 -0.028148 83 92 85
-0.199027 -0.117738 -0.038560 116 121 111
0.203368 -0.085427 0.042270 112 116 109
-0.114668 -0.197214 -0.037910 114 116 107
-0.084687 0.192888 -0.036370 2 6 1
-0.313141 -0.236838 -0.038553 141 139 129
0.090759 -0.097070 -0.029324 107 111 104
0.002956 0.192053 -0.034023 84 91 85
0.064878 0.205776 -0.030779 80 81 77
-0.134103 -0.003237 -0.036162 89 102 89
-0.186662 -0.102899 0.084589 128 140 132
-0.187205 0.250806 0.197671 96 116 113
-0.190268 0.238932 0.107769 41 43 34
0.394062 0.174676 0.240002 147 153 155
-0.255343 -0.190794 -0.036812 120 124 117
0.326107 -0.046513 -0.019718 107 114 108
0.264561 0.159017 0.239242 135 141 141
-0.000000 0.235254 -0.033143 69 73 66
-0.178209 0.119507 -0.038141 94 96 87
0.098120 -0.240228 -0.032047 114 118 111
-0.335369 0.151812 -0.047081 129 134 124
0.209840 0.336929 0.235611 130 138 135
0.026936 0.283226 -0.034186 59 63 56
0.227176 0.646984 0.123057 145 143 135
-0.197186 -0.260874 -0.039867 113 117 110
0.372488 0.098785 0.241277 145 153 152
-0.019025 0.042430 -0.032719 24 49 30
0.188747 0.013922 0.233438 135 143 142
-0.077835 -0.032306 -0.036610 15 22 14
-0.017371 0.272637 0.025683 4 4 4
-0.351275 0.035531 0.245109 102 131 132
-0.043893 0.057468 -0.028266 30 56 41
-0.049087 0.074109 -0.022727 49 76 56
0.300779 -0.054680 0.070042 112 112 112
-0.180978 -0.223381 -0.040050 126 127 121
-0.183055 0.229123 0.007950 4 7 6
-0.202486 0.234056 0.091003 2 2 2
0.243124 0.124286 0.237241 131 142 140
0.155700 -0.189840 -0.030357 111 112 106
0.297441 0.145446 0.240035 135 146 146
0.194373 -0.240328 -0.029280 109 114 104
0.268781 0.344213 0.238517 134 137 136
0.199173 -0.169384 -0.029261 10 0 3
-0.249243 0.217453 0.064039 4 7 6
-0.329928 -0.045611 -0.021886 103 111 100
-0.029703 0.301099 0.200021 139 150 146
0.122367 0.176664 0.231054 134 142 139
-0.342331 -0.052261 -0.025292 29 30 24
0.110476 -0.215090 -0.031299 114 119 107
-0.094395 0.274468 0.119748 34 38 31
0.147411 -0.216455 -0.030211 106 113 105
0.020297 0.217584 -0.031784 74 75 69
-0.208053 0.226375 -0.038821 67 74 66
-0.019457 -0.175497 -0.034933 118 119 113
-0.036389 0.278357 0.058499 6 9 8
-0.369149 0.057444 0.250499 110 139 140
0.261945 -0.215125 -0.027110 77 73 74
-0.336321 -0.093512 0.355277 118 140 143
-0.274455 -0.220929 -0.035276 128 133 123
0.056907 -0.064245 -0.029701 48 49 45
0.288725 0.041081 0.237258 137 145 146
-0.181849 -0.248622 -0.040779 93 99 97
-0.216821 -0.020674 -0.034637 94 102 91
-0.255204 -0.114591 0.204410 105 110 100
0.066015 0.309248 0.087841 8 11 12
0.172799 -0.258851 -0.030330 112 115 114
-0.150944 0.266476 0.190722 7 13 15
0.101986 0.223607 0.226784 139 147 144
0.316663 -0.175866 -0.026770 108 109 103
0.047041 -0.130493 -0.031773 97 104 96
0.121707 -0.127513 -0.028966 29 25 18
0.384089 -0.030043 0.092341 108 111 110
0.287932 0.313787 0.240266 133 141 138
-0.051871 0.287727 0.118887 35 40 30
0.095916 -0.236069 -0.031934 121 119 111
-0.034932 -0.299978 -0.036808 105 112 106
-0.013794 0.083362 -0.026323 24 51 33
-0.136380 -0.102656 -0.036917 116 117 111
0.223375 0.022379 0.234302 138 146 143
0.254581 -0.134612 -0.029503 102 107 95
-0.134822 -0.292111 -0.039599 86 90 83
0.231685 -0.018401 0.233848 139 148 141
0.207068 0.644913 0.127798 139 139 133
-0.263338 0.222956 0.188705 15 15 15
0.093343 -0.115580 -0.029604 99 107 96
0.270874 0.144123 0.238676 138 144 144
0.204498 -0.084657 0.050471 111 117 115
-0.375217 -0.033499 -0.026331 130 134 127
-0.077462 -0.034063 -0.036773 0 6 0
-0.391192 0.011723 0.274876 64 71 65
0.130534 0.132812 0.230986 135 146 144
-0.169235 -0.075586 -0.039020 102 107 97
0.307237 0.230979 0.241760 140 146 146
0.395511 0.012945 0.238756 144 152 153
0.139201 0.646200 0.099253 138 140 131
-0.257248 -0.295358 -0.034503 124 132 121
-0.208177 -0.281290 -0.039047 123 127 120
-0.203229 -0.128143 0.147820 21 24 23
-0.024131 0.262575 -0.035099 62 71 64
0.330320 0.322972 0.241552 136 142 140
-0.322766 -0.084463 0.344502 116 145 146
-0.044585 -0.204231 -0.035906 126 130 123
-0.292582 -0.118359 0.264618 75 72 67
0.015347 0.290637 0.067071 5 5 1
0.081751 0.332730 0.219279 133 139 137
-0.365868 -0.079110 -0.039238 13 17 12
-0.206121 0.005758 0.149299 5 5 5
-0.159862 0.105905 -0.038082 96 101 89
0.045727 -0.091024 -0.031006 79 86 78
-0.070851 -0.023456 -0.036210 89 94 82
-0.128461 -0.286607 -0.039160 97 97 93
-0.093905 -0.167211 -0.036975 120 125 115
0.004151 -0.278810 -0.034774 30 38 27
0.118365 0.301062 0.054060 75 81 92
0.011994 0.343748 0.200465 136 143 137
-0.128835 -0.314399 -0.040172 87 77 75
-0.042533 0.307380 0.199738 145 151 149
0.139511 0.098312 -0.025919 55 56 50
0.329354 -0.129333 -0.028881 72 81 72
0.280955 0.165901 0.240056 135 143 142
-0.281411 -0.214270 -0.034778 129 129 123
0.234285 0.177838 0.237835 134 140 140
-0.333507 -0.193161 -0.044631 131 135 128
-0.204987 -0.144861 -0.039490 64 66 57
0.038974 0.310243 0.186805 4 7 6
-0.293592 -0.093483 0.307382 77 84 78
0.170737 -0.210889 -0.029423 74 78 71
0.119096 0.258495 0.229871 128 136 135
0.264602 -0.134415 -0.029563 100 103 102
-0.051120 -0.110115 -0.034606 110 119 110
0.319257 0.035295 0.238723 141 149 150
-0.163940 -0.277706 -0.040310 102 102 96
0.054383 0.050443 -0.001911 76 115 91
0.144526 0.288558 0.229749 131 134 135
-0.347343 0.032686 0.245406 103 125 128
0.121879 0.266269 0.229127 131 139 140
-0.054951 0.019207 -0.016194 35 62 44
0.348037 -0.041789 0.227508 126 129 130
0.176731 0.103060 0.233513 133 141 140
-0.026343 0.282014 0.065705 23 24 20
0.093920 0.277016 -0.031945 64 68 63
-0.091336 -0.259216 -0.037553 108 113 101
-0.113306 0.180520 -0.037653 72 77 67
0.395306 0.002530 0.237704 145 151 153
-0.219084 -0.092212 0.219531 93 94 88
0.345743 -0.209917 -0.024554 108 108 102
-0.313668 0.241972 -0.039352 135 137 128
0.269084 0.030746 0.236617 75 83 111
-0.271077 -0.077620 0.287327 242 251 242
0.049064 0.322397 0.209937 137 146 139
-0.125843 -0.284670 -0.039071 103 104 98
0.339387 -0.043884 0.228327 125 131 131
0.150189 0.193821 0.232463 131 139 138
0.278993 -0.163160 -0.028353 108 110 101
-0.231662 0.171926 -0.039485 102 107 95
0.206369 -0.088600 0.223012 126 133 127
0.228985 -0.197527 -0.028536 108 112 105
-0.186252 -0.139645 -0.039215 117 125 114
-0.322069 -0.074457 0.340552 112 135 140
-0.068367 0.274045 0.072151 36 37 31
-0.053406 0.150828 -0.038356 63 90 72
0.320322 0.260216 0.242196 138 149 147
0.137726 0.098065 -0.026159 55 58 57
-0.249582 -0.111642 0.247299 4 7 6
0.339144 -0.184720 -0.025290 89 89 89
0.354085 -0.061342 -0.034774 80 84 79
-0.371113 -0.091549 -0.043174 123 127 122
-0.064193 0.273945 0.064761 32 33 24
-0.095286 0.024313 -0.035806 83 91 80
0.068102 0.311250 0.205105 68 76 73
0.013520 -0.211466 -0.034638 115 116 105
0.173218 -0.045210 0.068332 150 163 162
0.257830 -0.197220 -0.027680 110 114 109
-0.338525 -0.306301 -0.045607 127 125 115
-0.363575 0.001256 0.263838 75 72 67
0.125413 -0.130147 -0.029171 109 113 108
-0.099035 -0.194323 -0.037942 105 106 102
0.146488 0.282125 0.230143 129 135 133
0.188050 -0.207866 -0.029052 104 112 101
0.130576 0.097035 -0.027037 55 55 55
0.021284 -0.253406 -0.034548 107 115 104
0.074524 0.319417 0.156611 51 51 55
-0.094193 -0.100185 -0.036027 108 109 103
0.216436 0.266858 0.237250 125 136 134
-0.205573 -0.104779 0.195895 0 2 1
-0.184251 0.184522 -0.039243 54 54 54
-0.163915 0.246083 0.087418 43 44 40
-0.321515 -0.113467 0.327597 67 79 71
0.344210 0.012220 0.237832 141 149 148
0.229385 0.252511 0.238019 131 139 138
-0.227158 -0.008125 -0.032513 91 99 86
-0.002081 0.262065 -0.034286 68 77 68
-0.090865 0.155792 -0.037648 70 77 69
-0.366275 0.002665 0.270046 65 69 64
0.351531 -0.040256 0.229002 128 132 127
-0.349213 0.022269 0.240130 95 118 123
0.048455 0.299401 -0.015781 6 5 7
0.309616 -0.051977 0.071912 107 111 106
-0.272889 0.131826 -0.040780 48 48 42
0.094477 -0.123981 -0.029428 95 100 90
-0.207271 0.232426 0.094379 3 3 3
0.162617 0.164789 0.233381 134 140 138
-0.174816 -0.144480 -0.038945 127 135 124
-0.048358 -0.178904 -0.036049 113 120 112
-0.211695 -0.212792 -0.040619 120 124 117
-0.390138 -0.040965 -0.033290 129 133 126
-0.298354 -0.078751 -0.030301 110 115 105
-0.015945 -0.256879 -0.035122 109 113 106
-0.197417 0.225806 0.011190 6 9 8
-0.341604 -0.091569 0.358747 118 143 148
-0.063772 0.284575 0.116563 29 30 24
0.160176 0.263801 0.034667 99 106 112
0.307354 0.223493 0.241156 138 144 144
-0.236169 -0.112572 0.229017 4 4 4
-0.186184 0.105452 -0.039468 72 73 67
-0.132627 0.102087 -0.036426 82 90 77
0.141909 -0.223537 -0.030592 119 117 107
-0.239311 0.231719 0.134164 8 9 5
0.282706 -0.060517 0.062586 109 112 113
0.240504 0.171525 0.237943 133 141 142
-0.323817 0.317163 -0.031197 122 130 119
-0.173546 0.131669 -0.038316 95 100 88
-0.328986 -0.305028 -0.043290 129 129 125
-0.148174 -0.110158 -0.037271 116 120 113
-0.258389 -0.128084 -0.036716 118 116 106
0.350138 0.035022 0.239271 150 153 152
0.079569 0.305734 0.218327 131 140 133
-0.165465 -0.166650 -0.038803 121 129 116
0.247456 0.325743 0.238172 135 138 139
-0.081266 0.274398 0.107313 37 42 32
0.091458 0.281791 -0.032563 57 61 56
-0.240204 -0.329845 -0.037535 52 41 49
0.319625 0.062929 0.239517 142 148 148
-0.195105 0.246668 0.185996 10 13 12
0.006854 0.005030 -0.026071 32 54 38
0.287877 -0.058881 0.046409 104 110 108
-0.201054 -0.269182 -0.040141 20 21 17
0.267174 -0.108084 -0.031814 86 88 79
0.178690 -0.053222 -0.030246 122 127 117
0.020852 -0.114547 -0.032560 100 112 102
0.266716 0.110954 0.238144 132 143 141
-0.102632 0.175775 -0.037369 74 78 71
0.253857 0.092673 0.237503 138 144 146
0.392163 0.064121 0.241173 146 152 152
0.373530 0.240190 0.242141 141 149 146
0.150469 0.171527 0.021736 58 62 76
-0.281291 -0.112453 -0.033263 116 117 113
-0.372888 -0.109189 0.225008 53 54 48
0.341917 -0.070859 -0.034262 87 88 82
0.211207 -0.252318 -0.029174 108 109 105
-0.218342 -0.201154 -0.039961 119 126 118
0.112562 0.305572 0.061791 69 74 83
0.179597 0.032041 -0.013084 142 151 144
-0.110262 -0.308433 -0.038980 96 97 93
0.186704 -0.022469 0.232685 133 141 140
0.055904 0.300575 0.039375 6 9 8
0.057186 -0.030714 -0.030545 14 18 13
0.031355 0.089910 -0.009180 77 106 84
-0.051084 -0.166118 -0.036212 42 49 43
0.347830 -0.114031 -0.029724 103 104 100
-0.086216 -0.286732 -0.038278 111 113 104
0.370648 0.009856 0.237807 139 150 150
-0.175854 -0.069865 -0.038078 0 5 0
0.107329 0.187853 -0.027539 86 90 83
-0.059029 -0.205066 -0.036751 107 108 102
-0.327177 -0.229634 -0.045432 135 140 130
0.148852 -0.115657 -0.028850 119 120 116
-0.021412 0.115593 0.003539 43 77 55
0.303687 0.187449 0.241086 140 146 146
0.028402 -0.138833 -0.032650 97 99 88
0.274596 -0.214485 -0.026709 25 17 16
-0.357651 0.014606 0.254646 60 61 57
-0.324458 -0.105052 0.339327 112 143 143
0.329986 0.086578 0.240526 144 152 151
-0.162443 0.246480 0.076067 25 25 21
0.363141 -0.186856 -0.024375 100 104 99
-0.181229 0.123906 -0.039209 95 99 92
-0.315082 0.262167 -0.036849 133 135 122
-0.331335 0.306689 -0.033294 129 127 119
-0.389045 -0.025626 -0.028285 125 133 122
-0.260937 -0.256482 -0.034816 123 128 118
-0.298027 -0.287157 -0.037138 30 13 15
-0.175898 -0.195031 -0.039536 121 123 114
-0.234568 -0.328787 -0.038068 109 109 105
0.251182 -0.023468 0.233541 86 95 118
-0.251586 -0.298717 -0.034993 126 126 120
0.183945 -0.030617 0.229368 128 139 137
0.033109 0.308451 0.203764 16 15 17
0.172715 -0.165935 -0.030011 109 113 106
0.139981 -0.194249 -0.030445 119 120 114
0.090237 0.171624 -0.029069 79 85 83
0.080977 -0.252232 -0.032631 32 33 29
-0.134812 0.254326 0.071506 22 23 19
-0.245116 0.149222 -0.040860 99 107 96
-0.030287 -0.170754 -0.035495 116 125 118
-0.055807 -0.303483 -0.037719 116 116 112
-0.231539 0.626050 -0.047081 120 118 108
-0.039656 0.082855 -0.023748 41 73 50
0.172545 0.121590 0.234111 133 141 138
0.397781 -0.025059 0.108024 115 118 119
-0.087147 -0.189075 -0.037120 120 118 110
-0.253254 -0.256422 -0.035789 125 123 115
-0.190428 -0.117970 -0.038229 111 119 108
-0.181176 -0.014874 -0.035809 104 106 97
-0.147036 0.166346 -0.037755 69 70 64
0.017064 0.299378 0.116340 2 5 4
-0.105922 0.610042 -0.044434 119 122 106
0.398215 0.045901 0.240825 142 153 153
0.249161 0.368992 0.236432 132 138 138
-0.339522 0.261632 -0.040172 140 142 131
0.239550 0.301527 0.238367 132 138 138
-0.267596 -0.096884 0.279290 178 182 175
-0.218780 -0.081932 0.239870 13 24 20
-0.195655 0.191390 -0.039301 91 96 86
0.109698 -0.266747 -0.031454 110 114 107
0.376119 0.214361 0.240426 142 148 148
-0.123925 0.247448 0.042015 2 5 4
0.166429 0.354625 0.232338 132 138 136
0.017983 0.171502 -0.036023 66 70 63
0.155173 -0.267665 -0.031401 110 119 110
0.274646 0.647594 0.130512 143 145 136
-0.039313 -0.030819 -0.035491 87 95 82
0.277678 0.389565 0.237164 132 138 136
-0.258002 0.227668 0.203519 151 157 157
0.153428 -0.212181 -0.030716 13 9 10
0.355990 -0.039255 0.075445 105 109 104
-0.160810 -0.315642 -0.040052 117 118 107
0.355709 0.153689 0.241677 145 151 153
-0.009385 0.311325 0.201770 143 149 147
0.236760 -0.217906 -0.027964 6 9 8
0.270419 0.346825 0.238585 134 140 140
-0.282697 -0.280323 -0.034865 129 130 121
0.284557 0.040350 0.236988 139 145 145
-0.285543 -0.177156 -0.034372 124 122 114
-0.223587 0.020282 0.103147 51 55 48
-0.285491 -0.339237 -0.037061 129 130 124
-0.266708 0.246081 0.200575 169 177 174
0.208155 -0.086134 -0.004590 108 115 109
0.172059 0.633813 -0.020986 122 120 108
-0.047053 0.282466 0.090790 35 39 34
-0.326110 -0.316463 -0.042866 131 132 121
-0.186852 0.195506 -0.039037 69 73 68
-0.345480 -0.143194 -0.041537 124 125 119
-0.064542 0.075618 -0.004600 47 80 54
-0.291519 -0.260237 -0.035920 144 145 136
0.085392 0.211609 -0.029291 85 92 84
-0.089193 0.100695 -0.036745 102 117 101
0.013246 -0.174662 -0.033870 121 123 112
-0.111600 0.641829 -0.042106 93 99 82
0.006052 -0.272589 -0.034536 122 123 119
-0.263326 -0.106167 -0.035856 112 116 109
-0.227590 0.236008 0.142680 1 1 1
0.290920 -0.059065 0.112522 110 116 116
0.060878 -0.031800 -0.030697 65 69 64
0.246306 0.108716 0.237400 136 142 144
0.209740 -0.069775 0.231391 134 142 141
0.170592 0.646261 0.108670 136 140 133
0.278512 -0.230513 -0.026419 114 118 113
0.350230 0.049051 0.240412 144 152 153
-0.229883 -0.295845 -0.037865 58 55 50
-0.076468 0.298191 0.198146 146 157 153
-0.041804 0.056245 -0.029038 30 56 41
0.093266 0.302857 0.044383 76 83 91
0.162028 0.146604 0.021075 97 104 112
0.273374 0.299835 0.239715 131 139 140
-0.254207 -0.111252 0.250233 1 7 7
-0.284282 -0.225750 -0.036083 126 128 119
-0.242573 0.232235 0.137803 6 6 6
-0.246390 -0.081868 0.266308 29 35 33
-0.209306 0.115179 -0.038373 94 96 87
-0.185482 0.025015 0.055954 18 18 18
0.241878 0.008366 0.234715 138 146 143
0.322521 -0.099776 -0.030787 100 101 97
-0.288577 -0.097060 0.298686 73 80 74
0.168359 0.091875 0.234146 145 156 154
0.374083 0.159597 0.241765 145 153 154
-0.199659 -0.069237 0.204232 23 27 22
-0.165026 -0.001378 -0.036722 89 94 84
0.217595 -0.069938 0.232028 135 143 142
0.095958 0.624771 -0.024784 126 128 117
-0.368125 -0.104449 0.346792 127 144 147
0.094402 0.250492 0.220385 145 153 152
0.180453 -0.109472 -0.029736 117 119 110
-0.193656 -0.303860 -0.040121 129 130 124
-0.076958 0.282710 0.133549 34 35 29
0.192914 -0.010410 0.232958 131 142 142
-0.131269 0.164892 -0.037239 73 80 74
0.369805 -0.034902 0.228569 126 132 132
-0.288781 -0.147083 -0.034151 115 120 110
0.303338 0.141175 0.240164 140 148 147
0.334024 0.122392 0.240631 146 152 150
0.371199 -0.103101 -0.029176 88 92 85
-0.251292 0.229551 0.163335 11 14 13
0.171522 -0.247205 -0.030136 79 74 72
0.125226 0.339005 0.226135 126 134 133
-0.132015 -0.174001 -0.038134 102 107 97
0.176354 -0.249456 -0.029412 114 115 109
-0.005533 -0.022469 -0.034898 80 94 83
0.087975 0.304060 0.176830 92 97 102
-0.068449 -0.009261 -0.036733 84 94 82
-0.380756 -0.020549 -0.023233 126 133 125
-0.324567 0.142126 -0.046190 116 120 113
-0.305304 -0.313835 -0.036709 125 126 120
0.000592 -0.057590 -0.032884 100 110 98
0.015061 0.302237 0.128596 2 5 4
-0.128408 0.258225 0.094009 34 35 31
0.243834 0.040834 0.235396 128 129 125
-0.388566 0.138819 -0.017777 70 75 61
-0.025874 -0.126153 -0.034836 115 127 117
0.354429 0.039000 0.239565 142 150 149
-0.033981 -0.136055 -0.035591 118 119 115
0.324394 -0.051807 0.201410 117 125 124
0.282468 0.210230 0.240552 131 139 138
0.333315 0.034910 0.238918 143 149 151
0.228064 -0.185096 -0.028557 112 116 109
-0.327805 -0.129165 -0.031849 36 33 19
0.024415 -0.115651 -0.032420 100 104 97
0.182855 0.159304 0.021490 99 111 117
0.268566 0.078572 0.237493 137 145 144
-0.086428 -0.239973 -0.037045 123 125 114
-0.210536 -0.123117 0.147034 2 2 2
0.292606 -0.229616 -0.025951 114 118 111
-0.049176 -0.284850 -0.037096 108 108 102
0.176523 -0.019507 0.228872 133 144 142
-0.148169 0.154317 -0.037077 75 82 74
-0.198112 -0.192304 -0.040508 119 121 112
0.137169 0.254595 0.030554 96 103 109
-0.004617 -0.149563 -0.034458 75 82 76
-0.340107 -0.185380 -0.046597 123 124 120
-0.337176 0.261150 -0.038856 137 142 132
-0.198600 -0.094489 -0.038102 107 112 100
0.104178 0.074935 -0.030924 46 55 48
0.371473 0.220666 0.241043 146 152 154
0.392667 -0.151465 -0.024580 107 109 100
0.178350 -0.055223 0.070495 142 153 149
0.230195 0.220092 0.237893 132 138 138
-0.222371 -0.107792 -0.039053 109 111 102
0.154186 0.281242 0.037825 128 127 134
-0.084629 0.619392 -0.042050 124 125 114
-0.262442 -0.288897 -0.034097 88 77 83
-0.125450 -0.062332 -0.036730 102 103 97
-0.310262 -0.115052 0.297344 48 48 42
-0.037482 0.319259 0.198414 140 148 147
0.390043 -0.029143 0.189475 124 130 130
0.288692 0.235288 0.241034 133 141 142
-0.287907 -0.052269 0.014843 41 41 35
-0.155359 -0.204340 -0.039383 31 23 22
0.112111 -0.091314 -0.029139 100 101 95
0.169139 -0.021820 0.055763 125 136 132
0.097360 -0.043800 -0.029163 54 49 47
-0.098345 -0.203951 -0.037854 78 75 70
0.207259 -0.046843 0.231938 137 145 146
-0.231565 -0.178885 -0.039445 119 120 116
-0.289716 -0.237944 -0.035981 135 133 125
0.327607 -0.236973 -0.025747 113 117 112
-0.271323 -0.200885 -0.035069 61 62 53
-0.266330 -0.113574 0.249842 9 10 6
-0.314909 -0.219118 -0.039848 132 134 125
0.122334 0.281714 0.228920 128 136 133
0.044842 -0.177292 -0.032792 112 117 107
-0.019903 0.287687 0.086566 32 34 23
0.138735 -0.261742 -0.030998 98 98 94
0.032393 0.303439 0.131933 6 5 5
0.323754 -0.047694 -0.022923 92 99 93
-0.098295 -0.300624 -0.038251 89 96 90
-0.235815 -0.252800 -0.037866 72 79 71
-0.005565 0.299028 0.184665 1 4 3
0.309248 0.145857 0.240602 145 145 145
0.015835 0.293751 0.089383 1 4 3
0.071413 0.032066 -0.031129 55 62 54
-0.021811 0.224257 -0.034549 78 92 83
-0.301394 -0.083599 0.318405 82 83 77
-0.209101 -0.226813 -0.040550 125 127 118
-0.229803 -0.104477 0.241502 9 15 13
0.213693 0.202741 0.237302 135 138 139
0.308043 0.336565 0.240174 134 142 141
-0.216313 -0.085916 0.231533 75 76 70
0.085390 0.195360 -0.029004 90 96 94
0.037613 -0.256760 -0.033338 91 95 90
0.222946 -0.181202 -0.028815 115 120 110
-0.205960 0.242494 0.182882 8 15 9
-0.152296 0.239741 0.043523 0 3 2
0.167941 -0.214448 -0.029635 0 2 0
-0.121302 0.011245 -0.036252 79 89 75
0.267551 0.043441 0.236768 122 135 134
0.223886 0.280809 0.237934 130 133 132
0.125656 0.615750 -0.021030 58 59 50
-0.061406 -0.052049 -0.035574 93 103 91
0.117405 -0.195118 -0.030631 107 114 106
0.258561 -0.181332 -0.027872 119 117 109
0.210438 0.130504 0.236126 133 141 142
-0.275330 0.217744 -0.041140 125 126 113
0.237847 -0.130809 -0.030354 104 113 104
0.008989 0.168490 -0.037972 66 82 71
0.013745 -0.053470 -0.032126 97 104 98
0.260459 0.255929 0.240228 130 138 137
-0.149964 -0.276848 -0.039658 110 114 107
-0.354320 -0.123860 0.337261 85 107 110
0.153122 0.341508 0.228305 132 138 136
-0.250696 0.213820 -0.021263 0 1 0
0.341305 0.226323 0.242532 141 149 148
0.277203 -0.111615 -0.030759 107 109 100
-0.022925 -0.061750 -0.034020 96 103 95
-0.334225 -0.293369 -0.046223 20 24 17
-0.306533 0.231046 -0.039021 136 138 125
-0.046320 -0.297536 -0.037244 112 112 106
-0.107491 -0.057047 -0.036454 94 95 89
0.235761 0.363379 0.236336 130 138 137
0.335511 0.069493 0.239853 143 149 149
0.167303 0.186737 0.233970 132 138 138
-0.320077 -0.118383 0.304226 48 48 44
0.249633 0.088461 0.237192 135 143 142
0.263819 0.338487 0.238480 132 138 138
-0.059175 0.287640 0.194634 18 18 18
-0.141335 -0.017994 -0.036935 85 92 84
0.049202 0.299026 0.020667 4 4 4
0.259263 -0.195458 -0.027393 117 118 112
-0.257343 -0.102948 0.265762 61 69 58
0.141204 0.187400 0.232914 131 139 136
0.021931 -0.139940 -0.033015 115 120 108
-0.191204 -0.096545 -0.038441 115 116 105
-0.179166 -0.177396 -0.039566 115 117 108
-0.127791 0.617159 -0.047259 125 127 116
-0.229616 0.242639 0.199860 152 163 161
-0.368825 0.118275 0.025487 66 64 43
0.381628 0.107509 0.241614 149 155 155
0.332559 -0.122074 -0.028926 104 106 97
0.092377 -0.132796 -0.029668 105 112 104
-0.049041 0.268198 -0.037081 50 51 45
0.092542 -0.033564 -0.029367 79 85 83
-0.277577 -0.166871 -0.035368 62 64 48
0.115158 -0.114960 -0.029435 107 111 104
-0.337606 -0.103355 0.353163 113 141 145
-0.260005 0.223039 0.203276 122 126 119
0.074917 -0.263749 -0.032759 122 124 115
-0.345094 -0.109469 0.353731 113 134 140
-0.396764 -0.071522 -0.040600 122 129 121
-0.082192 -0.115656 -0.035810 113 117 110
0.140868 0.300251 0.228091 131 137 139
0.183502 0.122859 0.023106 81 93 99
0.083510 -0.129425 -0.029482 106 110 103
0.177205 -0.045750 -0.026501 138 142 137
0.014584 -0.136154 -0.033249 115 119 112
-0.136374 0.118807 -0.036669 78 88 74
0.329243 -0.162551 -0.026287 105 105 99
-0.131892 -0.114055 -0.037448 112 119 111
0.228536 -0.075768 0.120461 112 118 118
-0.133530 -0.114336 -0.037548 113 120 112
-0.030414 0.120224 0.017507 48 77 57
0.100148 0.319738 0.225373 133 141 140
-0.232974 -0.261617 -0.037682 104 98 85
0.337551 -0.178648 -0.025705 21 22 11
0.334516 0.016460 0.237956 141 149 148
0.122934 -0.174905 -0.030529 107 111 104
-0.004615 0.286300 0.066672 22 22 22
-0.282286 -0.108488 0.279048 101 105 100
-0.086787 -0.238478 -0.037068 120 121 112
-0.310239 0.237272 -0.038621 139 141 128
-0.274795 0.208428 -0.041414 45 41 30
-0.323901 -0.218466 -0.042404 128 133 123
-0.108366 -0.060867 -0.036629 41 42 31
-0.218928 -0.086117 0.239207 22 22 22
0.085484 0.180095 -0.029941 84 91 85
0.198612 0.163390 0.236016 134 140 138
-0.051693 -0.230889 -0.035648 108 110 99
-0.226607 0.138067 -0.038294 101 106 96
-0.198570 -0.119401 -0.038623 129 131 122
0.091988 0.025997 -0.030352 70 70 66
-0.369517 0.004715 0.275156 56 69 66
0.347224 0.254286 0.242160 140 146 148
-0.205200 -0.161874 -0.040120 14 7 1
0.186441 -0.137095 -0.029869 117 119 110
-0.097014 0.111239 -0.035447 72 80 69
0.297071 -0.166411 -0.027919 108 109 98
0.211834 -0.080722 0.076433 110 116 114
0.027150 -0.285158 -0.034236 108 108 102
0.287575 -0.059098 0.032113 106 113 107
0.017486 0.185991 -0.033928 49 49 45
0.007806 -0.068820 -0.033316 103 111 100
0.257299 0.163772 0.238219 137 140 143
-0.281891 -0.080198 -0.036812 106 114 101
-0.291887 -0.272639 -0.035849 136 140 133
0.260553 0.321847 0.238641 131 139 140
-0.387842 0.129380 -0.020258 92 102 90
-0.014101 -0.033942 -0.034132 87 100 85
-0.137434 0.290205 0.193191 161 169 166
0.130836 0.046912 -0.028631 62 71 64
-0.040632 0.294146 0.143492 20 24 19
0.345230 -0.042815 0.218297 120 126 126
-0.261240 -0.104940 0.267867 140 144 137
0.137529 -0.076113 -0.028378 102 104 95
0.222542 -0.024411 0.232854 131 139 138
0.222516 0.218599 0.237515 131 137 135
-0.006008 -0.235271 -0.034830 123 125 116
0.346129 0.311043 0.242075 141 144 143
-0.197206 0.089699 -0.038706 97 99 90
0.357100 -0.151040 -0.026462 105 109 102
-0.134260 -0.138728 -0.038229 113 118 106
0.272101 0.020309 0.236182 133 146 155
-0.074068 0.257515 0.022216 4 4 4
0.079990 -0.224908 -0.032822 113 121 110
0.008621 0.298198 0.112668 10 10 10
-0.199556 -0.087312 0.197127 17 20 19
0.033701 -0.169211 -0.034008 107 114 106
-0.185973 -0.142440 0.150347 0 0 0
-0.114053 0.010992 -0.036801 15 22 14
0.143619 0.198092 0.232642 134 140 138
0.284775 0.319855 0.240015 136 139 140
-0.190622 0.178588 -0.039417 82 90 79
-0.043427 -0.254037 -0.035871 111 112 106
0.241859 0.058406 0.235998 138 144 146
0.059915 0.078049 0.035332 95 127 106
-0.228914 0.220967 -0.044617 80 84 77
0.323443 0.029827 0.238509 141 149 148
-0.257770 0.628803 -0.049745 118 120 107
-0.373429 0.027605 0.259925 64 73 64
-0.359836 -0.121045 0.277226 41 42 38
0.106761 -0.140159 -0.029879 116 116 110
-0.019882 -0.237653 -0.035361 114 118 111
-0.058772 -0.047846 -0.035461 93 103 91
0.010643 0.204599 -0.032978 13 14 10
-0.224350 -0.002025 0.155767 36 45 36
-0.258507 -0.073847 0.275948 157 161 154
0.163727 -0.142917 -0.030037 50 51 45
-0.236814 -0.102462 0.248761 15 16 12
-0.248538 -0.275532 -0.035725 133 131 123
0.050478 -0.230056 -0.033492 99 103 96
0.224644 -0.158197 -0.029520 118 119 113
0.355531 0.025145 0.238844 147 150 151
0.261587 0.169948 0.238858 138 141 142
-0.348589 -0.107491 0.355709 108 133 138
0.226887 0.002441 0.233990 129 142 137
-0.274862 -0.174953 -0.034958 112 125 112
-0.048469 0.266354 -0.010807 0 0 0
-0.159752 0.234476 -0.011553 0 3 2
0.157912 0.116391 0.234232 131 141 144
0.357083 0.150347 0.241641 139 150 150
0.019458 0.116996 0.030381 76 105 83
-0.177284 -0.160180 -0.039550 129 131 120
0.379655 -0.096450 -0.029114 99 103 98
0.350012 -0.073333 -0.032633 87 92 82
-0.063098 0.051458 -0.016253 43 70 50
0.336067 0.294124 0.241419 138 144 144
-0.136604 0.262499 0.129759 32 34 25
0.221434 0.200334 0.237627 133 139 137
-0.064604 0.084175 0.002296 47 79 58
-0.121139 0.218127 -0.036971 65 72 64
-0.335270 -0.163466 -0.042760 122 126 119
0.301127 0.239754 0.241626 138 146 145
-0.145731 0.177884 -0.037417 73 77 72
-0.176766 0.243098 0.114686 42 42 36
0.244838 -0.083134 -0.036699 20 17 14
0.355822 -0.036248 -0.006742 103 106 105
0.110224 -0.063328 -0.028733 91 95 90
0.123275 -0.262891 -0.031489 106 113 107
0.344250 -0.036229 0.233401 140 146 146
-0.292274 -0.244650 -0.036334 141 139 129
-0.050292 -0.001775 -0.036624 79 88 79
-0.024472 -0.283675 -0.035758 114 114 114
0.249040 -0.182929 -0.028438 115 116 105
0.055034 0.027443 0.005476 73 105 82
-0.323469 -0.114907 0.327025 100 123 117
-0.274977 -0.138780 -0.035378 103 113 101
-0.057014 -0.153912 -0.035847 117 122 112
0.172223 0.194971 0.023202 96 107 116
-0.144789 0.645785 -0.044517 118 120 111
0.117123 0.265170 0.229063 130 138 137
-0.276429 -0.324992 -0.035322 129 129 129
0.147520 0.094057 0.234565 134 142 143
-0.135722 0.194351 -0.037949 64 65 59
0.301974 0.132233 0.239498 140 148 147
-0.068559 0.286301 0.186536 11 17 17
-0.204407 0.041330 0.043911 134 138 131
-0.191599 -0.231552 -0.040642 126 128 119
-0.065674 -0.246990 -0.037447 0 1 0
-0.322798 -0.123316 -0.030653 118 120 109
0.208173 0.117826 0.235306 134 142 139
-0.099775 0.588854 -0.047066 117 122 110
-0.164961 0.233750 0.007261 2 5 4
-0.053422 0.265992 -0.025193 52 53 49
-0.205047 0.256344 0.198914 168 176 173
0.233472 -0.074007 0.064509 110 113 112
-0.034372 0.084418 -0.024607 37 69 50
-0.338912 -0.341568 -0.045805 127 131 124
-0.257268 -0.304284 -0.034265 127 127 121
0.073480 0.168587 -0.030000 77 88 84
-0.020227 -0.266653 -0.035263 116 120 113
0.072493 0.024498 -0.031377 66 67 61
-0.095561 0.272324 0.113879 35 36 27
-0.326858 -0.187399 -0.042871 127 127 121
-0.175945 0.638604 -0.048313 119 121 112
-0.251300 -0.087953 0.269883 21 24 23
-0.114928 -0.155823 -0.037563 121 126 116
0.086303 0.307130 0.110048 81 91 96
-0.117489 0.034393 -0.036867 77 86 77
-0.123908 0.274264 0.184862 13 16 15
0.354960 0.100130 0.241333 145 152 146
0.369697 0.216324 0.241033 140 151 151
-0.109212 0.046477 -0.037245 81 98 82
-0.228209 0.092077 -0.024477 93 97 90
-0.221337 0.237730 0.139901 4 4 4
-0.204916 0.643270 -0.047382 107 109 100
0.136810 0.024086 -0.027822 70 73 74
0.390346 0.128830 0.241605 145 153 154
0.145367 0.246775 0.231160 128 139 137
0.105076 0.280108 0.014563 90 97 103
-0.156171 0.235842 -0.012317 0 0 0
-0.271985 0.225809 0.137088 11 12 6
0.030172 0.061548 -0.026320 56 90 70
0.363037 0.149786 0.241729 146 152 154
0.103672 0.124812 -0.030235 56 64 65
-0.242095 0.217599 0.042407 10 11 7
-0.266920 -0.105271 -0.035313 106 113 105
-0.220446 -0.316103 -0.038712 131 131 127
0.020565 0.190692 -0.033066 77 84 78
0.020093 -0.119768 -0.032945 106 111 101
0.349171 0.099031 0.241076 147 150 151
0.105100 -0.245139 -0.031549 113 113 109
-0.308666 -0.262770 -0.038511 128 130 121
-0.030807 0.292400 0.116626 34 38 31
-0.027532 -0.254354 -0.035309 103 111 98
-0.332372 -0.080489 0.351903 121 145 145
0.080260 -0.129995 -0.029615 110 114 109
-0.334435 -0.124679 0.307380 41 41 35
-0.049199 0.269781 0.047609 0 1 0
0.072772 -0.146245 -0.030742 114 124 112
-0.350220 -0.044560 -0.033034 0 1 0
0.059448 -0.135127 -0.031216 105 112 104
0.178641 0.202565 0.234768 131 137 135
0.388821 -0.174604 -0.023606 102 103 97
0.326405 -0.185306 -0.025943 108 109 100
0.265516 -0.155836 -0.028627 96 103 95
0.316316 0.122215 0.240378 141 149 148
-0.306107 -0.238698 -0.038677 134 130 119
-0.163628 -0.289681 -0.040110 96 97 93
-0.240768 -0.217143 -0.038288 126 133 125
-0.270788 0.223242 0.111816 5 5 0
-0.219400 -0.088042 0.217254 91 92 86
0.295050 -0.056386 -0.013126 99 108 101
-0.153054 0.244566 0.063860 26 33 25
0.265503 0.336678 0.238453 135 138 139
0.255438 0.023664 0.235428 81 89 117
-0.032017 0.053339 -0.031436 27 49 33
0.259184 0.239594 0.239713 133 139 139
-0.158932 0.101909 -0.038324 98 100 89
-0.068223 -0.200310 -0.036752 1 2 0
-0.184887 -0.312536 -0.040367 119 119 115
-0.135356 0.210846 -0.037879 39 40 36
0.151119 0.139059 0.015506 102 113 122
0.364604 -0.033257 -0.021259 103 106 105
0.124394 -0.021926 -0.028838 59 59 55
0.051626 0.203061 -0.031046 8 11 10
0.209947 0.079985 0.234177 135 143 142
-0.253513 -0.297578 -0.034986 133 135 126
-0.023886 -0.293749 -0.036378 101 108 100
0.276645 0.152340 0.239354 132 143 139
-0.386364 -0.028674 -0.028927 129 134 124
0.050596 0.056214 -0.007104 71 109 90
-0.129835 0.064802 -0.036975 85 90 80
-0.222994 0.607870 -0.049351 129 131 120
0.279187 -0.166311 -0.028496 108 109 103
-0.366580 -0.076099 -0.037850 48 48 44
-0.182866 -0.018532 0.163556 99 108 101
0.311428 -0.052520 0.126982 107 113 115
0.395704 -0.027064 0.201698 128 131 130
-0.369738 0.059074 0.250550 108 137 138
-0.192803 0.014344 0.055222 17 21 14
-0.071248 -0.079591 -0.035891 112 114 103
0.328502 0.413819 0.235525 132 140 141
0.235050 -0.191726 -0.028586 16 13 10
-0.285472 -0.125747 -0.033221 106 103 98
0.286489 -0.192224 -0.027044 116 117 111
0.320188 0.093385 0.240019 141 149 148
-0.208362 -0.102627 0.199630 0 5 0
0.203102 0.290520 0.235954 128 136 133
-0.292741 -0.154939 -0.033608 118 126 113
-0.361877 0.000156 0.259070 71 72 68
0.174640 0.222224 0.234187 131 137 135
0.337367 0.033947 0.239277 146 152 154
0.090927 0.630515 -0.025410 41 46 32
-0.166176 -0.151545 -0.038605 119 129 115
-0.225624 -0.072561 0.247537 26 22 23
-0.317410 -0.105579 0.331803 105 136 132
0.196898 0.084762 0.233151 131 142 142
0.186549 -0.073334 0.026976 133 140 132
-0.113541 -0.112471 -0.036945 115 120 110
0.021614 0.290751 -0.032543 36 43 37
0.028365 0.316451 0.206090 127 135 132
-0.120497 -0.153491 -0.037510 114 122 111
0.202838 0.017213 0.232884 133 141 140
0.305745 0.402913 0.235801 139 140 136
-0.213937 -0.205148 -0.040327 75 73 65
0.111267 0.308384 0.066871 58 67 79
-0.299013 -0.086688 -0.029250 73 73 69
-0.160421 -0.160643 -0.038740 123 125 116
0.194363 0.646212 0.113948 135 140 128
0.170986 -0.034048 0.052245 144 159 156
-0.261927 -0.262877 -0.034648 133 134 128
-0.337288 -0.124940 0.309132 43 44 38
0.099365 -0.259525 -0.032333 114 115 109
-0.196461 0.227389 -0.039990 75 76 72
-0.115084 -0.215058 -0.037817 121 123 114
0.351490 0.036755 0.239577 143 149 149
0.052623 0.022879 0.001810 69 103 81
0.269667 0.122411 0.238062 136 142 140
0.143773 -0.263737 -0.031564 113 117 112
-0.336965 -0.101975 0.353354 119 143 145
0.338660 -0.067720 -0.035012 88 88 82
0.126956 0.138442 0.224824 130 145 142
0.379595 0.126202 0.241990 145 153 154
0.019684 0.290108 0.063079 0 2 1
-0.262739 -0.085533 0.279094 143 142 127
0.384657 -0.040398 -0.037414 22 26 21
-0.239269 -0.216834 -0.038410 128 132 125
-0.335393 -0.198121 -0.046035 122 137 123
0.137181 -0.102421 -0.028645 110 118 107
-0.131728 0.175942 -0.036792 65 70 60
-0.322148 -0.174288 -0.038659 125 127 116
0.169671 0.010788 0.231839 158 163 168
0.364412 -0.031215 0.234613 138 146 145
0.302727 -0.012432 0.235749 137 148 146
-0.117857 0.272782 0.148954 30 31 27
0.243098 -0.028078 0.233320 99 114 131
-0.231929 -0.136888 0.168938 20 24 19
-0.303196 -0.053466 -0.013575 8 8 8
0.292784 0.371940 0.237482 133 136 135
-0.201724 0.022622 -0.035823 92 97 85
0.317788 0.209679 0.241664 143 146 145
0.260054 0.161884 0.239060 135 141 141
0.191993 -0.018289 0.232724 133 141 140
0.177650 -0.048627 0.226159 133 144 140
0.110787 0.308963 0.068984 58 67 79
-0.028478 0.114390 0.003018 48 77 57
0.305738 -0.079600 -0.033649 80 88 75
-0.192851 -0.049785 0.191684 0 1 0
0.168034 -0.067756 -0.030582 106 111 101
0.170304 0.110425 0.233782 134 142 141
0.057038 0.302197 0.079433 9 9 9
0.232404 -0.224822 -0.027686 115 116 107
-0.031287 -0.236528 -0.035749 82 82 76
-0.367364 0.053410 0.251534 113 138 143
0.177187 0.017782 0.233736 136 142 144
-0.272818 -0.201202 -0.034938 118 119 110
0.015847 0.303562 0.148171 7 7 3
-0.272443 -0.115492 0.248319 18 22 15
-0.154299 -0.220257 -0.039384 111 118 110
-0.164225 0.077077 -0.038012 99 103 96
-0.256746 -0.052350 0.256531 9 4 2
0.040697 -0.282890 -0.033578 108 112 105
-0.168391 -0.198538 -0.039610 87 82 80
-0.199236 -0.135249 -0.038948 117 121 114
0.256082 -0.071510 0.201828 112 120 119
0.337099 -0.043610 0.044459 106 109 108
-0.263590 0.246768 0.200666 170 178 175
-0.295556 -0.106024 0.296907 61 68 62
-0.190298 -0.034155 -0.035697 98 105 97
0.109145 0.140103 -0.028501 77 84 78
0.236792 0.270511 0.238650 131 137 135
-0.194075 -0.093651 0.193583 8 11 12
0.323067 0.172473 0.241572 138 146 147
-0.115116 0.099199 -0.036178 74 75 71
-0.386141 -0.100904 -0.041143 132 139 131
-0.231623 -0.231307 -0.039033 119 127 116
0.060716 0.151524 -0.032030 79 83 78
-0.170818 0.250283 0.131713 43 44 38
-0.186352 -0.136217 0.160564 56 63 57
-0.240241 -0.114475 0.225296 7 10 9
0.162065 0.120880 0.234360 133 141 140
-0.004072 0.277357 0.020337 3 4 0
0.168700 -0.017035 0.048356 125 136 132
0.371644 0.270006 0.242613 145 149 144
0.352914 0.082750 0.240921 142 150 149
-0.216181 -0.325325 -0.039859 119 123 118
0.111990 -0.178416 -0.030967 110 115 105
0.366008 -0.007654 0.236789 141 147 147
-0.254042 0.057596 0.000299 71 80 71
-0.072669 0.265386 -0.037149 53 54 50
0.391341 -0.020793 0.236863 142 149 153
0.317669 -0.084567 -0.032878 1 1 0
0.180938 -0.037607 0.226754 134 142 139
0.182309 0.055075 0.064943 132 146 148
-0.018699 -0.258828 -0.035423 117 117 111
0.295884 -0.073744 -0.035918 87 89 80
0.247046 -0.117318 -0.030382 112 114 103
-0.335766 -0.176934 -0.043818 124 125 116
0.060065 0.306909 0.103013 7 10 11
0.261404 0.645962 0.151043 143 145 134
0.143084 0.098826 -0.025478 65 67 58
0.015393 -0.288553 -0.035050 108 115 109
-0.383083 -0.098984 0.199695 60 64 59
-0.156566 0.284615 0.191697 167 175 172
0.117099 0.188622 0.229353 130 138 137
0.109527 0.196111 0.218054 128 140 144
-0.091136 0.205940 -0.037084 73 77 70
0.365770 -0.129529 -0.027881 64 65 59
0.324340 -0.083456 -0.032398 79 83 76
0.386499 -0.224172 -0.022659 99 103 98
-0.139342 -0.196726 -0.038497 115 123 112
-0.225770 -0.058271 0.241436 6 6 6
0.366037 -0.223200 -0.023054 105 109 102
0.251272 0.083818 0.236872 139 145 145
-0.221590 0.236196 0.131325 5 5 5
0.363893 -0.034811 0.232407 129 135 133
0.134875 0.117464 0.217678 137 144 150
0.135805 0.133311 -0.025581 77 84 78
-0.359322 0.016434 0.260735 59 63 56
0.213392 0.033948 0.233242 129 136 130
0.234577 -0.054822 0.232153 138 141 144
0.190025 0.131028 0.234114 133 141 142
0.138431 0.104286 0.232371 147 153 155
0.095877 -0.246703 -0.031941 112 121 112
-0.174576 0.252369 0.138635 42 37 33
-0.084546 0.256428 0.001350 2 5 4
-0.019777 -0.173861 -0.035123 117 121 114
0.331864 -0.067104 -0.035438 62 63 59
0.017782 -0.260174 -0.033868 114 118 113
-0.153858 0.248831 0.072790 26 28 19
0.287337 0.040840 0.237164 137 145 144
-0.225485 0.118883 -0.039315 95 105 91
0.260956 0.219899 0.239588 132 138 140
0.203560 0.033736 0.232836 131 139 136
0.299135 -0.034974 0.233630 132 138 140
-0.036193 -0.189965 -0.035160 44 51 45
0.182697 0.198269 0.025073 99 110 119
-0.273376 -0.320208 -0.034712 123 124 118
-0.127403 0.254268 0.067938 27 28 24
0.098080 0.299168 0.041271 71 83 89
-0.086520 0.279893 0.159508 5 5 5
0.170843 -0.032009 0.128099 138 152 143
0.290289 0.000388 0.236039 7 44 94
-0.046634 -0.011575 -0.034714 63 71 60
0.049507 0.311281 0.163876 10 9 9
-0.018634 0.291733 0.104449 33 34 28
-0.281776 -0.250958 -0.034721 109 113 106
-0.034387 -0.117283 -0.035056 105 109 102
0.338576 0.181615 0.241672 142 150 149
