ply
format ascii 1.0
element vertex 1231
property float x
property float y
property float z
property uchar red
property uchar green
property uchar blue
end_header
-0.304032 0.103805 0.010718 135 140 128
-0.009512 0.323445 0.030559 26 35 28
0.090062 0.049000 0.011830 55 70 65
0.180325 -0.055262 0.253013 149 161 165
0.163058 -0.000333 0.258184 149 161 165
0.308832 0.267065 0.249276 166 168 174
0.382763 -0.111990 0.010006 127 124 119
0.142386 -0.036029 0.178023 154 168 170
0.266495 -0.066879 0.214979 134 141 145
-0.439248 -0.013572 0.350222 162 162 162
-0.026847 0.186509 0.005994 86 100 89
-0.117850 0.052133 0.024466 71 96 79
0.143228 -0.139886 0.010521 127 130 131
-0.495956 -0.025762 0.341677 65 71 71
-0.080808 -0.172080 0.004001 59 67 64
-0.547050 0.020867 0.047296 66 70 63
-0.031465 -0.187089 0.008482 130 139 132
-0.525683 0.026846 0.402761 167 160 154
0.068806 0.179675 0.003586 64 82 80
0.070045 0.280088 0.127617 96 113 118
-0.088764 0.143371 -0.002776 70 90 75
-0.540515 0.030838 0.407468 164 160 153
-0.289504 -0.064209 0.002473 114 128 117
0.011514 0.057291 0.049658 81 120 96
0.105351 0.132783 0.234492 102 114 130
0.275286 0.015827 0.246031 163 170 174
0.026974 0.283173 0.232543 117 125 126
-0.242075 -0.064997 0.293804 115 123 112
-0.144992 -0.195692 0.008664 129 141 133
-0.239321 -0.100224 0.275283 27 35 36
0.250744 0.300472 0.249777 160 163 166
-0.130467 0.070628 0.007303 79 99 84
-0.428521 -0.021750 0.316955 91 99 96
0.259319 0.018996 0.252527 40 79 128
-0.228812 0.206247 0.204209 18 24 24
-0.234923 -0.024590 0.234490 48 54 54
0.214426 -0.053368 0.249440 152 162 165
0.128090 -0.182307 0.010163 131 138 132
0.161078 -0.066242 0.266062 147 161 163
-0.233659 0.198483 0.094507 14 20 18
0.021787 -0.060364 0.005135 76 91 77
-0.085808 0.014477 0.036624 48 86 67
-0.088767 0.279353 0.004252 5 11 9
0.309505 0.051499 0.230600 164 171 177
-0.178671 0.126559 0.006458 93 106 93
0.292173 -0.058324 0.233003 145 152 156
0.179628 0.266221 0.252581 147 154 158
-0.050105 0.279234 0.008712 7 13 11
0.112357 -0.030909 0.005118 91 103 95
0.145835 -0.020536 0.052923 103 115 107
-0.191350 0.051424 0.050536 82 91 84
0.050047 0.006177 0.039201 53 64 62
-0.254008 0.188825 0.039719 18 26 23
-0.088370 0.348080 0.019707 40 48 45
0.166270 0.225618 0.245401 146 156 159
-0.414474 -0.085342 0.283374 85 92 84
-0.029145 0.049835 0.012918 32 64 43
0.283632 -0.000369 0.244269 160 170 175
-0.170612 0.273355 0.004426 12 18 16
0.111071 0.314432 0.248613 146 154 151
0.229796 0.327519 0.241853 156 158 164
-0.347568 -0.134997 0.298757 115 127 117
-0.258176 -0.190917 0.002946 131 140 131
0.017855 0.283335 0.224610 35 46 55
0.368472 -0.024039 0.100163 131 134 135
-0.280946 -0.093508 0.000134 65 78 73
0.278374 -0.183952 0.009667 125 126 120
0.080756 -0.166218 0.001833 34 45 41
-0.014871 -0.197676 0.009588 43 55 47
-0.022786 0.267774 0.239273 146 158 160
0.083278 0.027823 0.008381 59 74 71
-0.288835 -0.053198 0.014241 108 122 111
0.137906 -0.036170 0.215337 154 171 176
0.147236 0.069915 0.050936 112 128 138
-0.217180 0.205701 0.056448 5 11 11
0.031112 0.169114 -0.002505 36 39 40
-0.224815 0.221643 0.250123 173 184 180
0.148193 -0.065774 0.261464 145 162 165
-0.078866 0.081433 0.037114 70 107 86
-0.061714 0.044999 0.018480 48 87 65
-0.177970 -0.036383 0.182220 20 28 25
-0.000805 -0.097637 0.009149 101 117 106
-0.346105 -0.016186 0.273560 62 73 69
-0.381878 -0.076494 0.344787 129 161 170
0.329576 -0.126117 0.013910 123 124 115
0.158425 0.323263 0.237647 148 155 159
0.135518 0.183929 0.253726 145 155 160
0.157873 -0.084469 0.232095 160 171 171
-0.174635 -0.163902 -0.000633 123 132 125
0.340645 0.152065 0.260733 173 175 181
-0.094476 -0.169433 0.000393 52 60 61
0.228760 0.148630 0.233577 152 162 167
-0.198609 -0.129941 0.186575 8 16 15
0.037872 0.273851 0.138056 13 19 19
-0.083564 -0.183710 0.016156 120 134 123
-0.458114 -0.018040 0.349761 136 139 138
0.005574 -0.025178 0.004459 61 88 70
-0.141318 0.246286 0.242128 168 183 182
-0.163119 0.230061 0.190858 15 21 19
0.002547 0.005548 0.012047 56 95 73
0.247400 0.159672 0.245919 159 166 170
0.098901 0.155124 0.230347 105 120 135
0.050093 -0.122048 0.004888 102 111 104
-0.036435 0.269772 0.256330 151 162 160
0.208214 0.221457 0.243668 148 155 161
-0.349284 -0.130092 0.310919 59 68 59
-0.261756 -0.082810 0.302553 165 180 177
-0.103466 0.246299 0.002751 9 15 13
0.017547 -0.029092 0.009630 68 89 76
0.289732 -0.008639 0.240609 161 168 172
0.249206 -0.029661 0.254940 88 103 118
-0.490226 -0.027182 0.338987 40 46 46
0.033800 0.278188 0.092498 13 19 17
0.166193 0.079058 0.053577 111 129 138
0.238041 0.240875 0.253637 156 163 167
0.145111 0.068487 0.247731 144 158 164
-0.062366 0.069416 0.036448 50 91 67
0.203727 -0.182273 0.002605 135 139 132
0.221761 -0.000517 0.249997 137 149 155
-0.156202 0.230252 0.204405 18 26 25
-0.065612 0.136787 0.001501 4 22 18
0.069338 -0.183477 0.007788 128 137 128
-0.088808 -0.195200 0.013954 128 142 131
0.241557 0.259348 0.256829 157 164 168
0.016049 0.275653 0.161388 6 12 10
0.214696 0.217939 0.237818 149 156 160
0.056323 0.128977 -0.002749 86 100 91
-0.075974 0.065522 0.044142 56 95 73
0.164208 0.013580 0.251456 146 158 162
-0.314820 -0.125532 -0.003692 133 142 133
-0.179367 -0.037456 0.188298 22 28 28
-0.166256 -0.098172 0.037953 110 124 113
0.332298 0.129824 0.251222 165 170 175
-0.184883 0.224625 0.216341 36 48 52
-0.000200 0.263987 0.014203 57 65 62
0.120259 0.260177 0.243504 143 153 158
-0.097784 -0.137482 0.007440 124 138 127
-0.355021 -0.070900 0.359263 138 175 178
-0.259315 -0.143541 -0.003725 127 136 127
0.175079 0.018094 0.252792 153 165 169
0.273102 0.328590 0.253633 160 162 168
-0.172844 -0.032073 0.000103 95 110 96
0.214901 -0.186206 0.004432 132 134 125
-0.339902 0.250647 0.002924 149 154 140
-0.117163 0.087811 0.011303 77 94 80
-0.387251 0.000152 0.298643 90 96 94
-0.105108 0.327413 0.069153 26 33 27
0.123137 0.085350 0.015438 66 77 73
0.259279 -0.198417 0.012269 134 138 131
0.077768 0.113090 0.002662 87 102 97
0.075099 0.005930 0.002348 72 87 82
-0.201159 0.170792 -0.001237 98 107 98
0.089611 -0.086653 0.010459 102 114 104
-0.328148 -0.078874 0.364113 126 163 166
0.213941 0.084688 0.246384 151 163 167
0.032359 -0.148967 0.003942 115 127 117
0.311151 0.018797 0.262877 167 172 177
-0.118051 0.166339 -0.004031 74 88 77
-0.439946 -0.068916 0.260432 94 100 98
0.040887 0.273546 0.043107 10 18 15
0.239382 0.344936 0.252467 157 160 163
0.313604 -0.085274 0.013667 105 109 102
0.061858 0.277070 0.119336 79 92 103
0.279501 0.290572 0.251581 164 167 170
0.256309 0.172088 0.245356 160 167 171
0.210349 -0.088480 0.170068 126 134 133
0.234638 0.063839 0.245047 136 145 157
-0.244850 0.131133 0.001008 109 121 113
0.160382 -0.006058 0.249918 150 162 168
-0.167990 0.220009 0.009467 4 10 10
0.162120 -0.115946 0.003495 123 132 125
0.319918 -0.037067 0.081550 124 135 135
0.288603 -0.049027 0.251566 161 168 172
0.150270 -0.141529 0.009976 131 139 128
-0.215954 0.138140 0.000757 99 108 99
0.106354 -0.116574 0.011397 58 62 55
-0.315144 0.248264 0.007001 133 140 132
0.146873 0.104114 0.246716 147 164 167
0.168081 0.112205 0.243419 144 158 162
-0.036035 0.212935 0.008079 23 34 30
0.045472 0.177736 -0.001354 86 98 88
-0.366920 -0.132981 0.321163 78 81 80
0.085259 0.010801 0.000518 72 87 82
-0.078521 -0.157205 0.001065 123 134 130
-0.125762 -0.139931 0.003221 118 132 123
0.342666 0.187351 0.258463 168 173 180
0.117210 0.129815 0.250032 143 157 163
-0.050444 -0.017751 0.014998 35 71 53
-0.111464 0.258330 0.002585 7 13 11
0.049547 0.223138 0.004461 73 86 81
-0.295905 -0.175345 -0.004222 130 142 132
-0.415021 -0.128282 0.269987 95 124 125
-0.292353 -0.112122 0.322162 79 91 83
0.242527 -0.157587 0.003168 82 83 77
0.064857 0.074468 0.015177 50 63 58
-0.062051 -0.176317 0.007026 122 137 123
0.137047 -0.029646 0.205105 153 169 177
0.235410 -0.077246 0.070143 122 133 131
-0.232304 -0.039284 0.240973 62 74 66
-0.278662 -0.099598 0.001784 123 134 130
-0.180440 -0.019120 -0.002932 88 105 91
0.157573 0.113452 0.246983 144 158 164
-0.030922 -0.051773 0.007493 85 102 88
-0.211459 0.186979 -0.001747 33 47 51
0.187406 -0.151380 -0.000075 133 140 134
-0.037130 0.365246 0.034813 38 47 40
-0.312684 -0.131097 0.313799 54 66 58
-0.090688 0.256533 0.207647 28 36 37
0.103083 0.279830 0.055696 89 106 118
0.243459 0.356195 0.245697 159 159 163
-0.054486 0.259791 0.005041 11 17 17
0.181299 0.071429 0.243608 150 160 165
0.137137 -0.194470 0.010300 127 134 126
-0.307008 -0.193497 0.006844 139 148 139
0.287067 -0.125830 0.012719 125 126 120
0.146126 0.038984 0.034295 129 143 147
-0.133979 0.170338 0.000645 73 87 76
0.165626 -0.186336 0.005043 129 136 128
0.064642 -0.113512 0.007108 105 117 107
0.305798 -0.048416 0.017341 119 125 123
-0.212957 -0.116674 0.226513 18 26 23
0.305819 -0.051716 0.015806 118 126 123
0.036759 -0.010061 0.035641 70 91 80
0.035831 -0.086289 0.008953 83 97 86
0.312386 -0.046223 0.143263 128 134 136
-0.232584 -0.146140 0.215494 20 25 34
0.076705 0.280532 0.047476 85 98 107
0.198110 -0.135378 0.001088 125 132 124
0.228682 0.277346 0.248255 155 163 164
-0.203319 0.301412 0.019779 40 49 42
0.328753 -0.070346 0.014468 90 86 87
-0.295214 -0.096651 -0.001774 113 129 118
-0.049560 -0.175439 0.003411 131 137 135
0.070018 0.064538 0.014025 52 65 60
-0.150372 0.326248 -0.003424 36 45 38
-0.124923 0.037736 0.006508 50 59 52
-0.201553 0.203888 0.008641 77 88 84
0.262692 -0.067482 0.220097 134 141 145
0.339643 0.056482 0.255929 170 175 182
-0.003050 -0.149254 0.004912 121 135 124
0.235178 0.010931 0.248020 154 164 169
0.321435 0.023859 0.272175 171 173 181
0.005418 0.060542 0.055395 77 116 94
0.117513 -0.177664 0.005374 131 138 130
0.314091 0.040551 0.243302 167 172 177
0.118452 0.293759 0.244736 143 154 154
-0.068313 -0.163040 0.003081 122 136 125
0.021402 0.275913 0.110916 9 15 13
-0.390800 -0.014763 0.293796 31 39 38
0.373776 -0.105437 0.012776 124 122 114
0.346295 -0.197015 0.021151 130 130 124
-0.379532 -0.045218 0.318591 132 166 165
0.320405 0.075452 0.245401 168 173 178
-0.055091 -0.132654 0.003294 76 94 92
0.311155 0.033137 0.253001 167 172 179
-0.243328 0.201401 0.210328 22 30 31
0.355180 0.259838 0.230804 168 173 178
0.320319 -0.035556 0.244480 167 169 175
0.308803 0.271669 0.251419 169 169 173
-0.252027 -0.110679 0.278847 23 33 38
-0.189817 0.200245 -0.000414 72 79 73
0.217472 0.023113 0.247622 142 145 146
0.087631 0.304815 0.248922 149 157 154
0.233398 0.079887 0.251376 155 165 170
-0.401982 -0.002009 0.304902 102 102 104
0.110128 0.261776 0.243932 145 156 156
-0.301678 -0.049165 0.013511 115 129 118
0.148026 0.030594 0.030448 112 129 132
-0.203206 -0.190191 0.007204 129 132 131
0.052551 0.280502 0.108505 19 31 35
-0.424526 -0.016407 0.323981 120 123 124
0.315263 -0.107146 0.017882 119 124 114
-0.159397 0.135034 0.003280 79 86 78
-0.535838 -0.030384 0.369180 29 32 31
-0.219820 -0.142007 0.216712 24 27 28
-0.060544 0.006875 0.012906 31 68 47
0.150156 0.127720 0.056972 107 122 135
-0.034977 0.047332 0.013778 34 66 45
0.382753 -0.110367 0.010761 127 124 119
0.135005 0.092548 0.244272 143 160 165
0.068205 0.301273 0.249979 147 155 152
-0.086204 0.178921 -0.001595 73 87 76
0.029371 -0.058095 0.004221 76 89 76
0.294008 0.094872 0.249206 167 172 177
0.001684 0.276951 0.054506 4 12 9
0.142801 -0.058074 0.161152 158 170 172
0.254239 0.134127 0.246379 162 167 174
0.014641 -0.177447 0.004477 123 135 125
0.172924 0.064528 0.070195 115 132 144
-0.547839 0.054198 0.117963 155 159 154
-0.038227 0.263373 0.007215 9 15 13
-0.245870 0.199582 0.176297 12 20 19
-0.005330 -0.155043 0.006559 122 136 127
-0.003297 0.329867 0.067951 36 42 40
-0.082087 0.185828 -0.001562 25 38 37
0.262039 -0.001399 0.258566 90 119 156
0.021499 0.267856 0.050889 7 15 12
-0.319598 -0.190956 0.003221 137 146 137
-0.047675 -0.167087 0.005151 62 70 67
-0.064686 0.263552 0.006474 9 15 13
0.033508 0.042456 0.055575 95 136 114
-0.242500 -0.079553 0.295842 18 28 31
0.317266 0.076892 0.245974 167 172 177
0.178362 -0.104607 0.014798 112 119 113
-0.147102 -0.072043 0.009884 103 117 108
0.141893 0.165534 0.251982 145 157 161
0.149455 0.049920 0.245844 147 161 165
0.087696 0.265156 0.247014 144 156 158
0.026118 0.273095 0.141752 12 18 16
0.017473 0.274766 0.151089 7 13 11
0.068843 -0.177335 0.004011 124 138 127
0.114608 0.215740 0.039459 101 121 134
-0.190702 -0.016749 0.085028 86 102 91
-0.010815 -0.188789 0.008334 133 140 134
-0.361389 0.030827 0.291660 126 161 164
-0.155998 0.217373 0.006407 61 70 63
-0.346653 -0.001762 0.255981 63 72 65
0.096289 0.186921 0.219688 124 139 154
0.263668 0.262603 0.253516 160 162 168
0.213347 0.198784 0.233272 150 157 163
-0.076865 -0.165648 -0.000607 124 136 126
-0.090460 -0.193416 0.013630 128 142 131
0.230491 0.042634 0.250494 141 148 154
-0.346260 -0.135006 0.298794 124 136 126
-0.287485 -0.091343 0.347436 84 96 88
0.119403 0.108559 0.016195 79 92 87
0.196240 -0.087558 0.247302 147 159 161
0.153489 -0.078033 0.220610 152 166 168
-0.035117 0.158916 -0.001592 83 95 87
-0.176205 0.244555 0.015121 5 11 9
0.322340 -0.055226 0.215523 147 149 155
-0.415175 -0.103756 0.281400 85 92 86
0.142141 0.249117 0.045925 99 116 130
-0.256783 0.195365 0.167373 16 22 22
0.228321 0.275122 0.248311 155 163 164
0.243523 0.194536 0.249891 158 163 170
0.149334 -0.043606 0.258578 149 161 163
-0.099347 -0.151262 -0.001231 123 139 130
-0.124178 0.152519 0.000379 75 89 80
0.192693 -0.090496 0.044987 124 132 131
-0.127230 -0.039592 0.010162 95 110 96
-0.309480 0.102923 0.012345 117 116 101
0.164519 -0.088405 0.241505 148 163 162
-0.085510 0.091224 0.026016 54 74 69
-0.000894 0.306954 0.088257 16 22 20
0.137041 0.043633 0.019623 94 107 102
0.072836 0.086628 0.007845 58 73 68
0.233495 0.202639 0.244523 156 163 167
0.356185 -0.132723 0.011664 77 76 78
-0.431338 -0.042801 0.292721 141 145 138
0.012888 0.030686 0.028487 83 116 99
-0.246929 0.193559 0.060903 15 21 19
0.218364 0.252241 0.247280 150 157 161
0.377524 0.147015 0.249599 173 175 183
0.213087 -0.015119 0.258377 154 164 167
-0.002089 0.241936 0.003879 38 49 47
0.365890 0.107669 0.245265 169 174 181
-0.172664 0.275219 0.005230 14 20 18
-0.157209 -0.162690 0.001577 121 133 123
0.113116 0.054821 0.013051 66 78 70
0.057244 0.286202 0.247035 107 123 131
-0.303002 0.237231 0.002243 142 150 137
-0.162195 0.010286 0.003602 90 106 95
-0.052463 0.261623 0.005957 9 15 15
0.109273 0.240261 0.037467 98 115 129
-0.015789 -0.158141 0.004792 61 69 66
0.102308 0.183084 0.248987 144 156 162
0.152957 -0.002588 0.047156 138 157 161
-0.022321 -0.017381 0.009426 34 68 48
-0.520188 0.022919 0.393379 187 179 176
-0.176433 -0.161806 -0.001921 43 52 45
-0.128488 0.087945 0.006598 8 22 11
0.012882 0.179042 0.003756 77 95 89
-0.004832 0.196397 0.009077 39 52 49
-0.058865 0.333979 0.008544 36 45 38
-0.083015 -0.117928 0.002658 35 48 43
0.159093 -0.038386 0.258001 147 161 163
0.176680 0.090817 0.074827 109 126 138
-0.290140 -0.114474 0.002225 124 133 126
0.309916 0.196847 0.258553 169 171 179
-0.202558 0.211764 0.229665 45 56 65
-0.082067 0.334873 0.013755 35 44 37
0.200286 0.039808 0.242720 151 162 160
-0.431802 0.014762 0.337161 176 176 172
0.040440 -0.054531 0.005122 34 37 38
-0.205173 -0.113043 0.212997 6 12 10
-0.140002 0.092319 0.010482 86 103 89
0.380558 -0.141492 0.017169 132 130 120
0.346966 -0.030888 0.098511 124 132 133
-0.436090 -0.112091 0.265833 108 133 138
0.226602 -0.019273 0.260175 158 169 165
0.027361 -0.187023 0.008139 124 136 126
-0.050276 0.359689 0.015264 38 47 40
0.012117 -0.063280 0.007890 76 93 79
0.364193 0.118937 0.253768 173 175 183
0.302191 -0.053342 0.014936 116 124 121
-0.312898 0.200285 0.001286 142 152 140
-0.060400 0.078718 0.038633 57 96 74
0.318055 0.211662 0.257980 169 171 177
0.235954 -0.199377 0.008888 137 139 130
-0.259676 -0.192914 0.004176 133 140 132
0.184533 0.286456 0.256637 148 153 158
-0.051225 -0.059570 0.007644 93 112 102
0.357724 -0.144527 0.015044 125 126 120
-0.388231 -0.117347 0.320053 96 100 95
-0.400596 -0.103755 0.305028 96 103 95
-0.254929 0.189355 0.027799 17 28 24
-0.036226 0.268898 0.009849 8 14 12
-0.012542 -0.161836 0.005379 118 130 122
-0.299467 0.111394 0.004462 127 135 124
0.317284 0.074054 0.244653 167 172 177
0.019527 0.235397 0.007025 66 79 74
0.191872 0.187216 0.242666 147 157 162
0.306311 0.060064 0.234488 165 170 175
0.161879 0.314244 0.240177 147 152 157
-0.042747 0.058432 0.020911 49 81 62
0.147263 0.118997 0.057235 74 91 105
0.146284 -0.066558 0.044754 141 156 155
0.089876 0.289145 0.107071 72 88 98
0.246477 0.038735 0.251385 154 164 169
-0.164641 -0.114740 0.003806 120 134 125
0.002677 0.283506 0.065313 6 14 11
0.000359 0.173013 0.006077 83 96 95
-0.000845 0.194568 0.008349 74 87 82
0.013926 -0.063292 0.007941 78 95 81
0.072468 0.213790 0.008548 86 97 95
0.096415 0.026033 0.007957 30 43 40
-0.394553 -0.112953 0.313073 96 100 95
0.337883 -0.083169 0.013197 108 109 105
0.183603 0.095690 0.085036 111 126 139
-0.098026 0.185936 -0.002008 18 29 29
0.194574 0.305765 0.254905 149 155 157
-0.305096 -0.113072 0.336772 79 92 87
0.039063 -0.155899 0.003131 119 131 121
-0.339628 -0.125085 0.351070 102 139 142
0.128387 0.003018 0.014791 52 65 64
0.305617 -0.172013 0.003935 69 68 75
-0.173194 -0.008929 -0.003479 44 55 53
0.274934 -0.188650 0.007372 63 62 64
-0.379244 -0.122562 0.332250 112 136 136
0.127751 0.010010 0.012509 54 68 70
-0.213510 0.246159 0.077605 14 20 18
-0.224079 0.104182 0.011178 27 33 33
-0.268906 0.197033 0.267086 163 170 164
-0.099728 0.249807 0.213061 28 35 39
-0.285965 -0.125728 0.279612 86 98 88
0.116844 0.201544 0.251413 145 155 160
0.127468 -0.043119 0.006525 105 114 107
-0.020834 -0.038795 0.003917 77 98 87
0.186893 -0.050486 0.253235 149 161 165
0.222523 0.335477 0.261883 154 160 162
0.235073 0.043991 0.251269 136 141 146
-0.215363 0.202916 0.232871 39 49 54
0.149133 -0.069604 0.032390 146 159 156
-0.127790 0.238895 0.233590 158 171 170
-0.212233 -0.030435 0.212613 44 57 54
0.176955 -0.024691 0.250588 151 161 166
-0.117606 0.002475 0.003562 89 102 89
-0.180746 -0.011681 0.073352 90 104 93
0.320597 -0.107182 0.018031 119 124 114
-0.058645 0.067708 0.035769 49 90 66
-0.225537 -0.143266 0.215948 16 22 22
0.100877 -0.152616 0.004378 129 141 131
-0.058805 0.155492 -0.003924 82 96 85
0.339933 0.045208 0.262828 171 173 181
0.125744 0.174403 0.255607 146 156 161
-0.278272 -0.106950 0.001684 122 134 126
-0.110931 0.243800 0.233089 148 166 164
-0.348001 -0.108813 -0.004666 147 147 143
-0.030188 0.327000 0.011707 31 39 36
-0.324647 -0.059460 0.010210 70 79 70
-0.513932 0.006249 0.391331 240 231 222
0.135506 0.071692 0.030431 120 139 141
0.347242 -0.039848 0.149524 142 142 144
0.214325 -0.076404 0.250851 150 162 164
-0.085942 0.202394 0.001617 69 83 74
0.215126 0.082719 0.246607 151 163 167
0.023702 -0.105173 0.009715 86 100 89
0.041109 -0.048204 0.003674 61 73 65
-0.202739 -0.053166 0.207844 25 31 29
0.094625 0.012438 0.001572 67 83 74
-0.050048 0.275037 0.225252 152 163 163
-0.090923 0.258231 0.241535 159 172 169
0.291244 -0.008649 0.240652 162 169 173
-0.431492 -0.007963 0.348661 250 255 245
0.144840 0.049951 0.245714 145 159 165
-0.032538 -0.005964 0.005595 31 63 44
-0.496373 -0.027640 0.339686 35 41 39
-0.007265 -0.117992 0.009403 113 127 118
0.048478 0.204865 0.003645 80 94 85
-0.157534 0.147242 0.001297 28 36 35
0.175167 -0.034951 0.251273 149 161 167
0.019615 -0.124020 0.005227 106 121 107
-0.219609 -0.169567 0.000845 67 74 68
0.361168 0.090014 0.243520 170 175 182
-0.327627 -0.054312 0.016927 115 127 117
0.005611 0.281556 0.103119 8 14 12
0.180276 -0.160866 0.001908 127 134 128
0.029635 -0.197977 0.010835 127 136 129
0.335604 0.167373 0.261081 171 173 181
-0.360831 -0.016989 0.283762 85 94 87
-0.373025 -0.122616 0.351178 136 169 173
-0.228509 0.206980 0.124004 11 17 15
-0.431991 -0.074433 0.265836 64 68 63
-0.292519 -0.094040 0.361473 86 95 88
-0.081486 0.063890 0.043211 58 97 75
-0.156180 -0.054351 0.013424 35 44 37
0.264748 -0.113843 0.015397 91 92 88
-0.453288 -0.008217 0.361106 255 255 249
0.140446 -0.038147 0.226634 154 168 172
-0.235880 -0.191068 0.003570 127 136 129
0.160662 0.077420 0.052642 109 129 140
-0.250568 0.172919 -0.001787 109 123 112
-0.327067 -0.119973 0.354944 110 150 152
0.373083 -0.081132 0.013035 118 118 112
0.320980 -0.194807 0.003734 130 131 125
-0.254315 -0.198051 0.004159 134 141 133
0.162303 -0.095087 0.025351 151 162 162
-0.346006 -0.001879 0.259257 60 69 62
-0.067351 -0.007942 0.024555 35 72 51
0.111534 0.004145 0.007066 77 92 89
-0.022412 0.099043 0.040451 63 100 79
0.042741 -0.172428 0.005481 64 72 69
-0.323453 -0.050875 0.023072 115 128 115
0.236026 0.199861 0.245515 158 163 168
0.119575 0.161180 0.254777 145 157 161
0.315599 -0.097545 0.016845 69 70 64
-0.032368 0.199948 0.006561 79 93 84
-0.480186 0.011905 0.367428 73 73 73
0.126653 0.221130 0.247595 146 156 159
-0.236944 0.200784 0.129685 12 18 16
0.010557 -0.179944 0.007601 118 132 121
-0.151430 0.090667 0.009357 76 92 81
0.189487 0.301160 0.252602 149 155 157
0.020292 -0.078393 0.007730 85 99 88
0.324117 0.257753 0.245418 166 168 174
-0.239248 -0.095647 0.278519 31 39 40
0.138872 0.014992 0.015175 98 110 102
0.006348 0.279720 0.167393 11 17 17
-0.173385 -0.101989 0.021608 109 123 112
0.182838 -0.082631 0.250281 131 141 144
-0.253058 -0.105687 0.284450 99 117 111
0.364273 0.112005 0.247233 173 175 183
0.094736 0.288354 0.111268 59 79 92
0.256370 -0.094285 0.012103 105 109 102
0.268699 -0.147120 0.004442 123 125 116
0.239591 0.111207 0.231941 154 164 169
0.115130 -0.144480 0.007507 114 126 118
0.276721 0.234101 0.254999 163 165 171
0.282531 0.280906 0.252693 164 167 170
0.143140 0.096061 0.048636 102 117 132
-0.186157 0.232526 0.237635 174 187 186
0.038668 0.285238 0.194143 16 22 24
0.003109 0.289275 0.080151 8 14 12
0.278305 -0.068051 0.018379 106 114 111
-0.216383 -0.096055 0.251454 19 27 24
-0.006599 0.052210 0.030175 81 120 96
0.298305 -0.182041 0.008970 128 130 121
-0.024190 0.365739 0.007858 35 42 36
0.114156 -0.024243 0.008277 89 98 89
0.274324 -0.039190 0.251286 160 167 171
0.192011 0.023182 0.250171 102 115 124
0.039407 -0.084687 0.009810 65 77 69
-0.178914 0.137889 0.001794 87 100 87
0.178789 -0.021562 0.250998 150 162 166
-0.117797 0.043703 0.020543 81 97 86
-0.112495 0.145161 0.001732 35 41 39
-0.467954 0.009384 0.364429 218 216 208
0.129416 0.216818 0.247880 143 155 159
-0.139925 0.148898 0.002617 70 86 77
0.316770 -0.057380 0.216553 143 148 153
-0.163057 0.112214 0.009095 92 101 94
-0.194687 -0.023104 0.201124 9 15 13
-0.149235 0.242559 0.180557 13 19 19
0.312216 0.019031 0.237639 164 171 175
0.100225 -0.187053 0.008189 128 135 129
-0.335243 0.244750 0.004738 149 151 142
-0.410179 -0.137421 0.263676 82 93 91
0.154362 0.012087 0.238315 170 184 190
0.247108 0.134746 0.239823 159 166 170
-0.187417 -0.020772 0.189193 30 33 34
0.047649 -0.089251 0.012356 87 99 89
-0.103025 0.266443 -0.002203 7 13 11
0.101769 -0.030122 0.002947 39 45 43
0.312020 0.018022 0.270268 167 172 177
-0.008603 -0.028660 -0.002018 79 108 88
-0.233955 0.199085 0.059466 15 18 17
0.177209 -0.090987 0.112693 156 169 168
0.275858 -0.060116 0.038549 121 127 127
-0.044831 0.060977 0.024237 103 134 120
0.013554 0.284594 0.169887 8 16 15
0.126508 0.251149 0.241703 143 155 157
0.143211 -0.046512 0.233861 156 170 172
-0.345505 0.204919 -0.003090 170 171 158
-0.100812 0.080094 0.026979 73 89 78
-0.301360 -0.111398 0.329943 80 94 85
-0.104369 -0.123181 0.001754 118 130 122
0.292618 0.257325 0.255272 163 169 171
-0.380677 -0.016704 0.288794 68 80 72
-0.266999 -0.094223 0.308112 175 190 187
-0.092945 0.292388 0.010190 11 17 15
0.235060 -0.029129 0.256954 141 149 148
-0.255441 0.191081 0.071623 14 20 20
-0.537946 -0.018269 0.375858 81 81 75
0.219793 0.089126 0.245322 151 163 167
-0.184074 0.246154 0.023345 7 13 11
-0.090210 -0.121670 0.002899 116 130 121
-0.087526 -0.020840 0.022336 22 35 32
-0.378526 0.021299 0.298828 86 93 87
-0.109945 -0.134984 0.004914 111 125 114
-0.166422 -0.113122 0.004504 120 134 125
0.121049 -0.007003 0.009897 88 101 98
-0.436115 -0.043150 0.316687 138 142 135
0.052963 0.170769 -0.001054 88 101 96
0.149798 0.293392 0.243335 144 155 155
-0.237388 -0.163477 -0.002391 126 138 130
-0.008687 -0.015256 0.004219 61 95 75
0.177968 -0.088845 0.071781 154 167 164
-0.159330 -0.096029 0.042477 111 125 114
0.016324 0.021493 0.026521 70 106 88
0.115643 -0.077406 0.011161 108 120 110
0.089797 0.227643 0.243961 144 156 160
0.173792 -0.079051 0.252770 147 161 163
0.233108 -0.067185 0.244694 152 162 165
0.079543 0.283278 0.108432 82 100 107
0.036442 0.270027 0.044641 8 14 12
-0.099357 -0.149668 -0.000489 123 139 130
0.222837 0.141629 0.237857 151 161 166
0.319138 -0.158617 0.007283 132 132 126
0.162401 0.115986 0.062925 109 124 137
-0.404363 -0.001268 0.311794 224 223 230
0.136785 0.084383 0.038587 127 141 145
0.257280 -0.054626 0.245776 154 164 167
-0.308877 -0.159831 -0.002922 135 143 132
-0.090950 0.093081 0.022297 57 72 69
-0.346312 -0.126484 0.348003 97 134 137
0.132906 0.071356 0.231031 160 167 175
0.002786 -0.063884 0.009525 88 105 91
0.185267 0.016169 0.253317 146 158 162
0.068253 0.264226 0.225009 131 137 148
-0.182261 0.110601 0.007745 93 106 93
0.205607 0.006877 0.251832 161 172 172
-0.141741 -0.016573 0.006081 90 109 97
-0.095263 0.255264 0.003870 9 15 13
-0.514015 -0.003522 0.383469 182 184 175
-0.505797 0.025117 0.377195 180 172 169
-0.399808 -0.130809 0.280320 54 65 61
0.151368 -0.071226 0.249093 161 172 172
-0.460947 -0.044814 0.336105 99 103 98
0.158610 0.253673 0.249395 147 154 158
0.068696 0.284217 0.072115 99 112 121
-0.360797 -0.044131 0.319681 130 164 163
0.266840 0.209470 0.252053 160 167 171
0.397460 -0.168361 0.010704 128 124 115
0.075786 -0.175805 0.004939 125 139 130
0.170504 0.193313 0.244839 145 157 161
0.337710 -0.047675 0.228345 148 150 156
0.287166 0.267017 0.256303 164 167 170
0.361297 0.267348 0.224559 168 173 178
-0.323458 -0.122053 0.347467 104 141 144
-0.045678 0.070986 0.037699 53 92 70
-0.023767 0.221712 0.009237 69 88 78
0.172909 0.065627 0.083948 110 127 139
0.303696 0.053471 0.230233 164 171 177
0.240097 -0.058095 0.242522 152 162 167
-0.515836 -0.011682 0.375199 131 129 121
0.149038 -0.113204 0.006571 125 137 127
-0.162517 0.279131 -0.000357 12 18 16
0.005733 -0.004386 0.011936 52 91 67
0.187378 -0.094972 0.219297 128 141 140
0.138964 0.292070 0.244589 146 154 155
0.048523 0.197594 0.000261 83 97 88
-0.115547 -0.177044 0.002814 117 131 122
0.255297 0.310341 0.251203 156 164 165
0.321843 0.009247 0.270903 168 173 180
-0.297009 0.201980 0.002571 141 151 139
-0.241006 -0.194145 0.001978 132 144 134
-0.062639 0.261692 0.005672 9 15 13
-0.451919 0.007544 0.365175 204 201 196
0.188555 -0.131033 0.005020 133 137 130
-0.116995 0.335500 0.001923 35 44 37
0.088924 0.260738 0.247202 144 156 158
-0.244389 -0.098049 0.280551 27 37 40
-0.268430 0.196886 0.076128 33 40 44
-0.225403 -0.099869 0.260433 23 29 27
0.314680 -0.148490 0.009651 128 129 123
-0.503334 0.035022 0.371952 161 156 152
0.000721 0.178112 0.005151 85 98 97
-0.229122 0.207905 0.144278 10 18 15
0.211310 0.008280 0.249352 131 140 150
0.175248 -0.081672 0.251595 147 161 163
-0.028724 0.018243 -0.003983 29 63 41
0.119565 0.205564 0.248955 146 156 161
0.289704 0.120879 0.252351 164 169 174
0.171524 -0.041564 0.254702 147 161 163
-0.214520 -0.059762 0.233097 22 28 28
0.002075 0.287089 0.214831 35 47 51
0.164331 -0.087208 0.072118 139 154 151
0.036614 -0.160079 0.005522 124 136 128
0.226593 0.245799 0.250055 153 160 164
0.397768 -0.031410 0.009365 87 86 86
0.152888 0.001827 0.090038 144 157 166
-0.345494 0.203109 -0.003932 170 171 158
0.128406 -0.030066 0.008218 104 113 106
0.207329 0.212171 0.237110 148 155 159
-0.217464 -0.072815 0.247894 23 27 22
0.030533 -0.115478 0.007337 97 111 102
-0.374474 -0.076719 0.353741 135 163 169
0.173024 0.087696 0.125124 104 119 132
0.049281 0.138519 -0.004043 82 96 87
-0.203581 0.325394 0.027625 39 45 43
0.016053 -0.120783 0.006623 97 116 104
-0.310939 -0.156143 -0.003476 134 142 131
0.251801 -0.046154 0.248446 160 167 171
0.321780 0.045963 0.249372 166 173 179
0.335415 0.141373 0.256696 171 173 179
0.083310 0.022720 0.006006 29 40 40
0.354684 0.114238 0.238042 170 175 182
0.156468 -0.148743 0.010121 132 141 132
0.041628 -0.138654 0.005721 107 123 114
-0.005960 0.289085 0.138265 23 26 25
-0.028969 0.069190 0.037383 64 103 79
0.091295 -0.042177 0.003630 88 100 92
0.196797 -0.043952 0.253274 152 164 166
-0.085521 -0.197216 0.015325 128 142 131
-0.293325 -0.070070 -0.002582 115 129 118
-0.310594 -0.116956 0.339206 74 93 83
-0.026578 0.145386 0.006721 89 103 94
0.177573 0.316843 0.247394 146 153 157
-0.361911 -0.095757 0.369546 132 168 174
-0.002239 0.265839 0.015002 6 12 12
-0.012292 -0.088590 0.004175 103 122 110
0.147022 0.222039 0.030160 102 122 137
-0.153617 0.146246 0.003162 41 56 51
0.272195 0.184188 0.248174 163 168 173
-0.242875 -0.087738 0.287606 28 41 40
-0.231046 0.205050 0.110888 12 18 16
0.097092 0.183271 0.243394 151 163 169
0.120261 0.103340 0.238906 153 169 177
0.380050 -0.122281 0.007337 128 126 118
0.060686 0.278483 0.243549 80 101 109
0.365854 0.113437 0.247949 174 176 184
0.287494 -0.024530 0.248590 161 168 172
-0.304310 -0.172626 -0.001011 43 51 50
0.008025 0.017259 0.017670 58 97 73
0.191806 -0.198635 0.005651 130 134 127
0.251070 -0.155018 0.000216 130 131 125
0.069956 -0.110323 0.008758 105 117 107
0.274967 0.365593 0.236709 160 160 164
-0.096732 -0.049163 0.015485 93 110 96
-0.425940 -0.029257 0.284850 47 53 53
-0.113622 -0.170883 -0.000879 119 134 129
-0.063445 -0.126108 -0.000540 115 131 120
0.013317 0.266747 0.052325 7 13 11
0.308702 0.123625 0.254221 168 173 180
-0.310593 0.224725 -0.000506 140 149 142
0.154866 -0.080092 0.046445 150 161 159
0.397043 -0.186795 0.014248 127 124 119
-0.220679 -0.184248 0.003908 129 141 133
-0.035148 0.006676 -0.000741 30 64 42
0.174361 0.280792 0.248166 146 156 159
0.126594 0.277348 0.246178 144 154 157
-0.323458 -0.086380 0.365179 126 166 168
0.190198 -0.035051 0.255006 154 164 169
0.287856 -0.178817 0.010146 121 126 116
0.232591 -0.193535 0.005985 132 134 125
-0.034749 0.044761 0.010382 32 66 44
0.299974 0.010751 0.233403 163 170 176
0.310928 0.226070 0.257844 170 172 178
-0.029959 0.287408 0.187497 19 30 30
0.234266 0.329205 0.244984 156 158 164
-0.338774 0.237660 0.004638 153 155 146
-0.342275 -0.093662 0.371134 111 147 155
-0.036605 -0.109306 0.004808 113 129 120
-0.350582 -0.096277 -0.003325 24 23 27
0.221805 0.209431 0.232975 151 156 161
-0.061672 0.038232 0.015331 43 80 57
0.064377 0.299883 0.251419 147 153 151
-0.453471 -0.044385 0.335435 40 39 41
0.318701 -0.001710 0.256876 166 173 179
-0.410019 -0.129406 0.272930 91 122 122
-0.069752 -0.160438 -0.000167 122 136 127
0.059241 -0.138774 0.006215 112 124 116
-0.213427 0.248453 0.080882 15 21 19
0.179085 0.153663 0.242097 147 159 161
0.108016 0.179709 0.250904 144 156 160
0.340368 -0.012208 0.248250 170 172 180
0.145273 -0.053325 0.248409 155 170 169
0.224419 0.191964 0.237063 150 160 165
0.204941 -0.022677 0.256812 73 96 129
-0.491775 -0.010081 0.363453 128 129 125
-0.274210 0.134046 -0.000758 116 126 114
-0.372218 -0.001551 0.290594 53 59 57
0.006918 0.180882 0.004427 35 50 47
0.229837 -0.037981 0.254877 150 165 182
0.179784 0.101827 0.242263 146 158 162
-0.172483 0.090026 0.001782 97 107 95
0.370384 -0.073909 0.014106 112 112 106
0.197967 -0.087419 0.052102 123 134 132
-0.494711 0.003198 0.384992 220 211 202
0.096574 0.155689 0.240468 152 163 174
-0.214321 0.204250 0.033792 12 19 13
0.086524 -0.133059 0.005311 70 76 76
-0.255512 0.189670 0.045584 16 22 20
0.373936 -0.164525 0.009550 132 128 121
-0.068299 -0.086215 0.007949 107 119 109
-0.118741 -0.150061 0.000931 119 131 121
0.075089 0.007625 0.003136 69 87 81
0.124393 0.141382 0.051495 104 120 130
0.341236 -0.024073 0.235029 166 168 174
-0.328813 -0.132200 0.309472 64 73 66
-0.218252 -0.104250 -0.000706 116 128 118
-0.167863 0.230894 0.237445 174 187 186
0.076907 -0.189382 0.010792 131 138 130
0.279737 0.055080 0.242375 162 169 173
-0.093681 -0.186274 0.012440 126 138 128
-0.535229 -0.011885 0.382225 122 119 114
0.286795 -0.086361 0.016740 98 105 99
0.109863 0.189358 0.041375 106 122 132
0.144378 0.260362 0.248756 144 154 157
0.268388 -0.128354 0.008755 109 112 111
0.233933 0.005393 0.248713 152 131 140
-0.218618 0.220350 0.148193 11 17 15
0.135858 0.082059 0.207414 82 80 91
0.345061 -0.101594 0.018085 117 117 111
0.244675 0.203867 0.250960 158 163 168
-0.019508 0.048904 0.010578 42 78 60
-0.014880 0.012537 0.004827 53 91 72
0.167913 0.126064 0.067789 109 122 133
0.161544 0.078423 0.249558 147 161 165
-0.332858 -0.074725 0.361483 126 163 166
0.072193 0.276128 0.144600 87 100 109
-0.202694 -0.094951 0.214876 20 28 27
0.270954 0.203689 0.251696 162 167 172
-0.306840 -0.196815 0.006408 139 148 139
-0.429511 -0.039598 0.286545 141 145 138
0.313314 0.221751 0.258115 169 171 177
0.153451 -0.001223 0.066566 140 157 160
-0.329670 -0.130603 0.312396 50 62 54
0.055917 -0.108318 0.008151 94 106 96
-0.245133 -0.117363 0.262708 14 20 18
-0.002223 -0.121808 0.009991 114 128 119
0.341228 -0.022702 0.235667 166 168 174
-0.130766 -0.023107 0.007795 87 102 88
0.093415 0.242165 0.037860 100 116 126
-0.292531 0.119377 0.001774 120 129 120
-0.019782 0.225320 0.011041 70 88 82
-0.390642 0.006271 0.299179 89 96 90
0.231473 -0.130832 0.010865 121 125 118
-0.255417 -0.119520 0.268005 17 20 23
0.155905 -0.152443 0.010588 132 141 132
0.188831 0.123563 0.243836 147 159 163
-0.021317 0.303051 0.017386 7 13 11
-0.526381 -0.028389 0.365990 68 65 62
-0.318386 -0.120697 -0.001552 133 142 133
0.280638 0.122954 0.251931 164 169 174
-0.177090 -0.106623 0.007196 123 136 131
-0.326275 0.265065 0.006751 138 145 137
0.169270 -0.095223 0.219719 159 170 170
0.036679 0.091194 0.032017 67 87 84
-0.027752 0.218104 0.007433 35 48 47
-0.059394 0.272311 0.191690 19 27 28
-0.204585 0.284088 0.030434 35 44 37
0.369937 0.365504 0.183349 178 178 182
-0.053459 0.032961 0.004305 30 67 44
-0.058451 -0.061162 0.006678 98 117 105
-0.296293 -0.104620 0.000000 116 132 121
0.147957 0.133655 0.250571 145 157 161
0.043103 -0.017642 0.015757 74 89 86
-0.031405 0.265201 0.254359 151 164 163
-0.045334 -0.103804 0.004891 110 129 117
0.290329 0.055271 0.236172 164 171 175
0.175682 0.106273 0.091923 103 121 130
-0.019317 0.293342 0.175142 22 30 29
-0.340964 -0.095948 0.001542 52 51 55
0.183616 -0.034117 0.253028 151 161 166
0.014335 0.263616 0.043175 9 15 13
-0.322585 0.279038 0.011164 84 91 83
-0.218544 -0.041791 0.225889 87 100 85
0.163463 0.297957 0.245886 147 154 158
0.113832 0.243324 0.135040 83 103 116
-0.054521 0.265329 0.007618 9 15 15
0.315184 0.374777 0.225685 162 164 170
0.331370 -0.188571 0.006961 130 131 122
-0.293428 -0.096663 -0.001724 111 127 116
0.172361 0.040251 0.247574 149 163 167
0.278920 -0.062622 0.212934 137 140 143
0.240993 -0.037174 0.253393 154 161 167
-0.496059 -0.014988 0.356621 109 114 104
-0.377726 -0.135339 0.292141 48 57 50
0.230378 0.037829 0.252668 140 143 144
-0.071475 0.136826 0.001337 71 90 78
-0.102756 0.341879 0.014165 33 42 35
-0.357850 -0.089977 0.369053 131 170 177
-0.116633 0.331399 0.057407 34 43 36
-0.343971 -0.036062 0.301892 79 101 100
-0.281671 -0.091329 0.326658 85 99 90
-0.165010 -0.063245 0.022250 99 116 100
0.086182 0.196542 0.014188 86 97 93
-0.241487 -0.121821 0.255229 11 17 15
-0.176954 -0.121654 0.002410 107 113 113
-0.432912 -0.044967 0.281733 139 140 134
-0.260080 -0.131369 0.256826 107 121 110
0.231731 0.264344 0.253331 155 162 166
0.162285 -0.080279 0.251840 148 162 164
-0.089069 -0.149198 0.004464 118 134 125
-0.161279 -0.090708 0.009581 117 130 125
-0.153586 -0.186958 0.008048 130 142 134
0.095538 0.197356 0.028100 128 142 146
-0.311970 -0.193690 0.007703 138 147 138
0.294869 0.216644 0.263990 165 170 175
-0.215364 0.205043 0.053992 6 12 10
-0.096622 0.027318 0.038955 77 111 89
-0.196027 -0.143969 -0.001952 122 134 126
-0.035886 0.090505 0.040470 54 91 70
0.377539 -0.083437 0.014308 116 117 111
0.213227 -0.103838 0.018449 100 109 100
-0.086170 0.284761 0.139270 21 27 25
0.152543 -0.071364 0.263411 145 162 163
0.168187 0.283759 0.247148 147 154 158
0.157375 0.043639 0.247580 147 161 167
0.035636 -0.190663 0.008909 123 135 125
0.236891 -0.077572 0.023690 117 125 124
0.190953 -0.031499 0.254476 157 167 172
0.232915 -0.017518 0.260085 161 169 166
-0.278069 0.191921 0.253386 184 192 189
0.053551 -0.170434 0.004540 124 137 132
0.345075 -0.093882 0.017262 112 116 111
-0.513669 -0.005872 0.380179 136 136 132
0.209873 0.049918 0.237794 156 169 166
-0.436518 -0.039567 0.312825 41 41 43
0.219170 -0.091983 0.021947 88 96 93
-0.437910 -0.081944 0.265466 45 55 58
-0.308848 0.266587 0.019038 139 141 130
-0.474449 -0.043054 0.335400 126 140 142
0.038553 -0.196036 0.009809 125 134 125
0.343045 -0.041128 0.024102 110 121 119
-0.247951 0.200417 0.172207 14 22 19
0.239714 0.239354 0.252981 157 164 168
0.067944 -0.000464 0.007976 38 49 47
0.219212 -0.048987 0.250526 152 162 165
0.148947 0.297047 0.241700 146 154 155
-0.080364 0.262539 0.184280 15 21 23
0.273351 0.258812 0.253156 161 166 171
0.209705 0.151419 0.237592 150 160 165
-0.288164 0.216900 0.019724 55 64 57
-0.160598 -0.172028 0.003746 128 142 131
-0.147558 0.074185 0.008426 85 100 86
0.116030 -0.048711 0.005773 104 113 106
0.156909 -0.084673 0.176796 152 164 166
-0.238197 -0.099673 -0.003611 115 127 117
-0.194446 0.267634 0.023090 27 34 28
-0.444371 -0.104285 0.264795 106 126 121
0.295162 0.111086 0.250169 165 170 175
-0.341167 0.198424 -0.003771 158 163 153
0.106797 -0.109556 0.012471 98 109 105
-0.290531 0.190863 0.002011 62 71 64
-0.094652 -0.040519 0.012953 90 107 93
-0.066506 -0.146709 0.008533 121 135 126
0.092675 0.024358 0.007060 67 78 76
0.351640 -0.123628 0.017963 126 126 120
0.352407 0.291043 0.227589 169 172 175
0.142451 -0.043788 0.179930 154 168 170
-0.059317 -0.004563 0.016448 31 68 47
0.046820 0.293265 0.251102 131 137 139
-0.240637 -0.199693 0.003821 137 146 137
0.067749 0.271692 0.025426 73 94 100
-0.357294 -0.091997 0.370337 131 170 175
-0.107921 0.084616 0.017828 73 89 78
-0.012778 0.014999 0.003831 56 95 73
0.156872 0.014689 0.246225 147 159 161
-0.186434 0.005239 -0.003917 60 74 65
0.251803 -0.077324 0.216279 135 142 146
-0.517275 0.012552 0.395265 165 157 154
0.189402 -0.090558 0.055891 125 133 134
0.161757 -0.153549 0.008048 134 141 133
0.244250 0.060794 0.247239 163 170 174
-0.487124 0.000702 0.377446 254 255 244
0.246001 -0.009512 0.260910 163 172 163
0.167242 0.190359 0.243362 144 156 160
-0.135965 0.239382 0.222528 47 59 65
0.112565 -0.186904 0.007539 45 56 54
0.332235 0.139949 0.255933 172 174 180
0.065213 0.105606 0.004304 70 80 87
-0.335415 -0.102743 -0.000345 125 132 124
-0.175174 0.327562 0.018485 38 47 40
-0.272551 -0.100662 0.312665 44 54 57
-0.436087 -0.003020 0.353026 173 174 168
0.249826 0.148746 0.247530 157 167 170
-0.448206 -0.047987 0.333922 55 54 56
0.142263 -0.013854 0.193860 151 169 176
0.010854 -0.034270 0.002597 72 88 77
0.347144 0.249716 0.240186 170 172 178
0.110041 0.149626 0.249101 146 158 164
0.055342 -0.037201 0.000412 78 92 81
-0.003587 0.055076 0.037121 80 119 97
0.288632 -0.046946 0.043974 122 128 128
0.369471 -0.081107 0.012934 116 117 111
-0.013830 -0.149707 0.006572 118 132 121
0.261174 -0.166197 0.001947 130 132 123
0.142123 0.270740 0.249103 143 153 156
-0.131964 0.209958 0.003704 49 58 51
-0.332540 -0.118998 -0.001202 134 142 131
0.246808 0.116651 0.232494 158 168 173
0.297703 -0.049056 0.018998 120 126 124
0.085520 0.294130 0.246090 150 158 157
0.114707 0.256782 0.037603 94 111 125
-0.016108 -0.169963 0.002588 45 52 56
-0.138039 0.132980 0.007404 72 86 75
-0.289450 0.073610 0.024703 120 130 118
-0.214884 -0.156793 -0.000786 128 140 130
0.120921 0.156209 0.253608 146 158 162
0.163377 0.017295 0.250952 144 158 162
-0.365228 -0.093283 0.367284 133 169 175
0.155741 -0.075200 0.247379 151 164 163
-0.214924 -0.150457 0.002163 126 138 128
-0.300035 -0.195315 0.007318 139 146 140
0.161877 0.233125 0.031370 104 124 135
-0.219411 0.204009 0.008141 71 77 75
0.063027 -0.046695 0.005060 82 96 87
0.226637 0.016156 0.244669 162 169 173
0.341743 -0.183374 0.021842 133 134 123
-0.003831 0.170247 0.006865 64 77 72
-0.171585 -0.127064 0.002266 126 138 130
-0.153959 -0.123982 0.004250 121 135 126
0.175008 -0.199407 0.009182 128 132 125
0.209647 0.292590 0.250344 153 155 161
-0.218777 0.221235 0.109977 9 15 13
0.215290 -0.079987 0.082585 122 133 131
0.153927 0.233179 0.031148 110 130 141
-0.189807 -0.041546 0.197104 17 25 22
-0.477531 -0.034219 0.338314 44 44 44
0.215162 0.285520 0.246121 149 157 158
-0.254322 0.196893 0.196852 18 26 25
-0.296055 -0.086670 -0.003774 115 127 117
0.094916 0.266469 0.245643 147 157 160
-0.377361 0.001322 0.293978 89 96 90
-0.418972 -0.004020 0.339852 172 175 174
0.113332 0.157398 0.038743 122 141 145
-0.382204 0.030616 0.299741 94 107 104
-0.221963 -0.081467 0.260279 33 25 22
0.101964 0.159109 0.246643 156 170 176
0.105367 0.020077 0.007670 64 67 66
-0.264811 0.189988 0.240761 181 192 190
0.081850 0.221203 0.015602 72 85 80
-0.085056 0.066469 0.042093 64 103 81
0.186941 -0.090646 0.243368 147 155 156
0.272710 0.343640 0.247385 162 164 170
0.292284 0.160382 0.256477 163 170 174
0.090647 -0.110602 0.003756 111 120 111
0.095350 0.098331 0.006270 48 51 52
-0.004045 0.071280 0.062307 73 112 90
0.000413 0.269109 0.045298 5 11 9
-0.156692 0.330633 0.034836 38 47 38
0.293140 -0.114036 0.016192 115 122 114
0.382188 -0.190297 0.014362 133 134 125
-0.031534 -0.121496 0.002602 118 137 125
-0.123984 0.195147 0.001471 70 79 72
-0.242144 0.200506 0.203328 15 23 24
-0.452161 -0.044393 0.335471 41 40 42
0.074833 0.280937 0.132575 83 99 107
-0.116228 0.245936 0.240540 161 176 175
0.013817 0.274014 0.137382 7 10 9
0.141533 -0.044800 0.230191 156 170 172
-0.218231 -0.107485 -0.002211 116 128 118
0.178687 -0.005427 0.258507 157 169 173
0.032004 0.276695 0.103885 13 19 19
-0.246060 0.192722 0.072679 14 20 18
0.327569 0.121178 0.247049 169 174 181
-0.111347 -0.095272 0.006805 105 120 117
0.152540 0.101531 0.247897 142 159 162
-0.080321 -0.149257 0.004709 70 81 77
0.137128 0.140300 0.053594 74 92 101
-0.069566 0.347305 0.017725 33 42 35
-0.236149 -0.185704 0.002749 130 139 132
0.291054 0.022508 0.234184 163 168 173
-0.261007 0.193090 0.095558 14 22 23
-0.155877 -0.092625 0.069549 24 35 35
-0.212260 -0.134480 0.203900 16 29 26
0.103595 0.162501 0.022056 92 105 104
0.056853 0.278381 0.189311 64 81 86
0.101822 0.139529 0.238626 127 139 153
0.228797 -0.085901 0.197224 128 136 137
0.008415 -0.129882 0.006563 108 122 111
-0.344492 -0.100767 -0.000811 132 140 129
-0.368779 -0.024422 0.294400 89 96 90
0.344625 -0.032060 0.050443 122 128 128
-0.122934 0.079179 0.011518 80 96 85
0.228608 -0.123827 0.011830 123 125 116
-0.179539 -0.177329 0.003998 129 141 133
0.318166 -0.090826 0.013432 110 114 107
0.088049 0.138611 0.000518 82 96 87
0.146352 0.221229 0.242737 145 155 160
0.106206 -0.198941 0.007255 128 132 125
0.212060 0.154061 0.236689 151 161 166
-0.322623 -0.139923 -0.004013 131 140 133
-0.119245 -0.193413 0.006113 116 128 118
0.287305 0.063645 0.243287 164 171 177
-0.220701 0.212367 0.201793 17 25 26
0.223115 0.207275 0.233116 151 156 161
0.337283 0.269033 0.240044 169 172 175
-0.143564 0.016668 -0.001674 87 103 92
-0.127202 -0.031927 0.010421 92 106 95
-0.006210 0.297934 0.045269 14 21 15
0.284223 -0.006786 0.243507 163 168 173
-0.313564 -0.111960 0.352475 116 160 165
0.235236 0.332476 0.248744 158 160 166
0.174826 -0.042476 0.253277 147 161 163
0.153268 -0.079984 0.225212 150 164 166
-0.155846 -0.105570 0.003935 116 130 119
-0.482387 0.023675 0.370633 161 157 150
-0.007003 -0.115807 0.008221 113 127 116
0.076242 -0.181956 0.008711 126 138 128
-0.283332 -0.110724 0.001977 123 135 125
-0.213189 0.210406 0.063177 9 15 15
0.209769 -0.118300 0.011609 120 127 119
0.064492 0.175093 0.003526 87 100 99
0.240403 -0.076001 0.030048 125 131 131
-0.151315 0.065174 0.009631 85 99 90
-0.316863 -0.119347 0.344519 112 149 152
-0.443827 0.017810 0.347034 169 170 166
0.144614 -0.031394 0.016932 136 151 148
-0.126684 0.072323 0.008210 50 69 59
0.156262 -0.085561 0.157603 151 164 163
-0.222447 -0.135817 0.001020 120 134 123
-0.383355 0.030093 0.300565 98 106 105
-0.323270 0.203724 -0.000746 75 81 79
-0.404152 -0.004259 0.305994 100 101 97
0.074021 -0.059744 0.009259 86 104 102
0.158184 -0.007748 0.236924 163 177 183
-0.338408 -0.193934 0.001248 147 151 144
0.026032 0.265570 0.001412 53 65 57
0.311311 0.003978 0.249362 164 171 177
-0.214299 -0.109592 0.231975 12 18 18
0.087931 -0.104527 0.002085 105 117 107
-0.194937 0.216475 0.040087 5 11 9
0.229958 -0.082109 0.158196 127 135 134
0.077543 0.152777 -0.000939 92 105 100
-0.238052 -0.182101 0.002160 98 109 105
-0.025339 0.174979 0.006191 90 103 88
0.033477 0.047388 0.057870 99 138 116
-0.275853 0.199161 0.037230 124 132 129
0.231882 0.196661 0.241689 155 162 166
0.205541 -0.037371 0.256611 146 158 162
-0.422920 -0.052313 0.284142 129 133 126
-0.490907 -0.009139 0.359504 74 74 70
0.030663 -0.158514 -0.000555 119 131 123
0.252261 -0.172140 0.004420 131 131 125
-0.445172 0.019032 0.347560 167 167 167
-0.278763 0.113103 0.001489 116 129 116
0.194701 -0.091183 0.163907 125 133 132
0.064822 -0.071193 0.014677 92 106 95
-0.273424 0.120181 0.000536 112 122 110
-0.245323 -0.121632 0.258508 12 18 16
0.151826 -0.125390 0.004295 132 139 131
0.149292 -0.064057 0.240227 158 171 170
0.149330 0.131396 0.054244 107 123 133
-0.167415 -0.027346 -0.001942 90 105 91
-0.010503 -0.020270 0.001828 61 95 75
-0.546289 0.068668 0.067366 154 155 146
0.145812 0.252061 0.246039 145 155 158
0.332551 0.156834 0.259390 171 173 181
-0.021765 -0.088153 0.008497 53 72 62
-0.162467 0.272419 -0.001273 8 14 12
0.045863 -0.132783 0.004172 38 51 50
-0.526319 0.005774 0.394034 220 211 206
0.113458 -0.160599 0.007675 115 126 124
0.108913 0.048873 0.012358 69 82 79
0.137711 -0.099188 0.014951 69 80 80
0.053418 0.274479 0.166420 59 73 77
0.046267 0.030862 0.050575 98 135 112
-0.336127 -0.128952 0.325102 58 72 74
0.110507 0.020944 0.010441 35 38 41
0.249577 0.249522 0.253608 160 165 170
0.146938 -0.014083 0.037202 105 117 109
0.186250 -0.147639 -0.000576 128 135 129
-0.187363 -0.152128 0.197563 22 33 31
0.055052 0.278799 0.228071 69 83 85
-0.296691 0.188335 -0.001564 137 147 135
-0.071502 -0.160426 -0.000216 123 137 128
0.141317 0.089306 0.045434 109 127 134
-0.340066 -0.127089 0.336881 98 131 135
-0.323115 -0.102900 0.370740 125 165 167
-0.529083 -0.031462 0.361164 37 39 30
-0.000458 -0.121820 0.010040 114 128 119
-0.089621 -0.071777 0.009593 109 123 112
0.290378 0.008918 0.236664 161 171 176
0.320039 0.009013 0.265220 167 172 179
-0.117078 0.348769 0.008098 40 48 45
-0.161214 0.225444 0.226287 44 49 54
-0.346847 -0.052929 -0.002891 126 129 128
-0.156998 0.067790 0.008465 95 99 94
0.158852 0.097212 0.246083 145 159 163
0.237976 -0.025147 0.258898 163 169 169
0.349404 -0.040461 0.022403 113 121 120
0.140320 0.034301 0.017588 96 107 103
0.044433 0.289072 0.243558 148 156 157
-0.309582 -0.119440 0.322632 65 77 69
-0.000852 0.286921 0.126382 15 18 17
0.195066 0.003671 0.254425 137 150 161
0.220537 0.096697 0.242248 153 163 168
-0.313982 0.269871 0.028131 139 141 130
-0.129468 -0.192666 0.002832 116 130 119
0.198723 0.294347 0.253029 150 156 158
0.020299 0.280789 0.230122 35 46 55
-0.538775 -0.003760 0.394725 131 130 130
0.063590 0.008491 0.015320 39 45 47
-0.256482 -0.107624 0.288959 162 181 171
-0.059874 0.110000 0.019004 80 104 90
0.154965 0.175115 0.244711 145 157 161
-0.268192 0.195864 0.056900 59 70 66
0.294489 -0.051729 0.250491 160 167 171
0.231505 0.068087 0.246927 156 163 167
0.142282 -0.042953 0.158243 152 166 170
-0.305670 0.217321 0.003925 139 151 141
0.126313 0.270209 0.072907 92 110 119
0.146028 0.167338 0.249640 145 157 161
0.012834 0.299979 0.181441 22 29 33
-0.121427 0.039499 0.016266 78 94 85
-0.029577 0.222823 0.007366 72 88 79
-0.529565 0.001819 0.393196 146 142 135
0.224938 0.207761 0.237813 152 159 163
0.031117 0.220369 0.004805 39 49 52
0.303334 0.021071 0.230587 163 168 175
0.100838 0.286105 0.089445 62 79 95
-0.002052 -0.093156 0.006782 53 61 60
0.152059 -0.077234 0.211006 157 171 173
0.098799 0.238613 0.246038 147 159 163
-0.220333 -0.132186 0.214648 26 33 39
0.147599 -0.032329 0.081696 148 163 160
0.296184 -0.142516 0.014063 120 125 115
