ply
format ascii 1.0
element vertex 1232
property float x
property float y
property float z
property uchar red
property uchar green
property uchar blue
end_header
0.117531 0.172609 0.255211 153 163 168
-0.338364 -0.145269 0.015355 141 149 138
0.335513 -0.104440 0.009341 112 116 111
0.346124 -0.045339 0.097761 126 129 130
-0.095833 0.041394 0.064382 82 116 94
0.104214 -0.106702 0.009195 100 112 102
-0.147819 0.160079 0.006522 65 79 70
0.034428 0.168827 0.002043 83 94 92
0.166910 -0.052490 0.250365 149 161 163
0.240114 0.342951 0.254532 156 159 162
0.152226 -0.066352 0.234593 160 171 171
-0.191538 -0.168153 0.228748 25 36 34
-0.530974 -0.127076 0.025047 80 87 81
-0.277472 -0.128965 0.014544 124 133 124
0.322271 -0.038621 0.257495 165 170 175
-0.294415 -0.117221 0.330570 75 87 79
0.133307 -0.070746 0.008469 118 127 118
-0.222122 0.041518 0.045566 97 113 102
-0.281074 -0.125544 0.015096 125 134 125
0.144473 0.056239 0.041032 127 144 147
0.246172 -0.164690 0.010011 127 134 126
0.175104 -0.017023 0.255065 149 161 165
-0.076844 0.068530 0.058610 57 98 76
-0.541552 -0.139165 0.017989 26 28 19
-0.187414 -0.166489 0.228129 25 36 36
-0.241888 -0.115052 0.010439 48 57 50
0.011563 0.251785 -0.003696 62 77 72
-0.177873 0.216723 0.223851 27 37 40
0.145673 -0.036101 0.053666 145 160 157
-0.256429 -0.180278 0.009060 131 141 129
-0.222355 0.103944 0.007493 41 46 51
0.155615 -0.005037 0.241474 157 169 175
0.060771 -0.197837 0.010131 128 137 128
-0.235280 -0.198850 0.007719 134 143 136
-0.263601 0.192297 0.237796 179 193 195
-0.310440 0.243565 0.010639 133 140 132
0.322073 -0.053954 0.042778 118 124 122
0.289131 0.172214 0.253766 167 169 175
0.389390 -0.103126 0.011442 122 119 114
-0.277948 -0.107142 0.317483 82 96 87
0.058625 0.098347 0.005700 52 67 64
0.218973 0.235057 0.252702 153 158 163
0.348089 -0.088990 0.008026 115 119 112
0.187459 -0.077270 0.256032 150 160 163
-0.174133 -0.054915 0.014810 50 57 51
-0.123520 -0.027809 0.009892 79 95 84
0.036250 0.041241 0.082930 97 125 110
0.165114 0.277596 0.249139 148 155 159
0.281200 0.146780 0.253546 163 168 173
0.256972 -0.173606 0.010378 124 121 118
-0.524226 -0.102405 0.026164 78 83 73
-0.006602 -0.105149 0.009446 109 123 112
-0.052807 -0.053667 0.007208 38 49 47
0.164910 -0.084265 0.246561 150 161 161
-0.352447 0.004152 0.266269 70 79 72
-0.011957 0.068461 0.034902 71 110 86
-0.376085 0.027826 0.288116 89 96 90
-0.116898 0.103045 0.006609 21 30 21
-0.180490 0.002828 0.011593 94 107 94
-0.248074 0.189806 0.142318 15 21 19
0.273141 0.037652 0.253674 162 169 175
-0.184547 0.204662 0.143606 36 43 37
0.146580 0.131083 0.254198 145 157 161
-0.027641 -0.139520 0.008569 116 132 121
-0.029619 0.070632 0.025986 61 98 75
-0.278421 -0.074905 0.017092 100 114 105
0.248205 -0.131945 0.008471 124 126 117
-0.164452 0.056785 0.009541 92 107 91
0.303318 0.187838 0.254482 167 172 177
0.296967 0.253197 0.255218 163 169 171
-0.025696 0.245908 -0.002708 68 81 76
0.338380 -0.047563 0.125403 121 129 128
-0.154475 -0.038218 0.011376 77 95 89
0.204356 0.237289 0.252242 149 154 159
-0.305999 0.231064 0.008140 142 150 137
-0.209388 -0.150412 0.008652 64 79 76
0.215080 -0.087722 0.047781 110 123 120
-0.417725 -0.025088 0.333855 101 107 105
0.322681 -0.053804 0.185513 135 141 141
0.241471 0.054563 0.251543 164 171 175
-0.324728 -0.055138 0.024381 117 129 119
0.288195 0.006290 0.254199 165 170 177
0.205041 -0.059631 0.255831 151 163 165
-0.385483 0.106466 0.100755 117 141 141
-0.168404 -0.140416 0.212555 26 38 40
0.170133 0.117887 0.055742 113 125 139
0.136628 0.281713 0.066999 91 108 120
-0.000244 0.143238 -0.001151 34 40 42
0.096929 0.028693 0.006573 24 37 34
-0.009234 -0.123282 0.008780 112 124 116
0.343532 0.200002 0.255202 170 172 180
0.345083 -0.119437 0.009992 127 127 121
-0.077893 -0.038303 0.007227 93 110 96
-0.332494 -0.120532 0.390705 123 162 169
0.090288 -0.157773 0.010405 124 138 129
-0.275270 -0.100746 0.017017 36 44 41
0.272930 0.322066 0.255770 162 165 168
-0.549760 0.068025 0.028127 100 92 91
0.231859 -0.090381 0.005667 79 86 80
0.018243 0.271439 0.169542 9 15 15
-0.205054 -0.137540 0.254255 15 23 20
0.011070 -0.017562 0.034636 60 97 74
-0.368751 -0.106836 0.018370 121 133 125
0.353332 0.067694 0.255482 174 176 182
0.137356 0.270788 0.058986 98 113 126
-0.158303 -0.144748 0.207561 103 116 113
-0.087547 0.230541 0.041634 8 14 12
-0.448111 -0.014184 0.365965 190 187 184
-0.328480 -0.051505 0.024725 118 128 116
0.196103 -0.111244 0.006474 112 119 113
-0.252564 0.187830 0.151231 15 21 21
0.051403 0.158947 0.003753 87 102 97
-0.348068 -0.134631 0.308374 52 61 54
0.222898 0.228610 0.253018 154 159 164
0.289470 0.230196 0.254935 164 170 172
-0.523442 -0.112435 0.023775 77 81 74
0.072593 0.201193 0.002418 94 106 98
-0.057117 0.247352 0.132427 33 40 34
-0.401232 -0.030230 0.278035 34 41 47
-0.533611 0.090925 0.032236 146 147 141
-0.189361 -0.036770 0.256282 29 37 36
0.159309 -0.078500 0.161189 146 156 159
0.017235 -0.094066 0.009738 50 57 49
-0.083224 -0.188876 0.008805 125 139 128
0.345987 0.231570 0.256911 169 171 177
-0.327489 0.258316 0.009638 143 148 138
-0.106026 0.207147 0.004930 62 78 67
0.106322 0.132748 0.256491 154 166 172
-0.229417 -0.119698 0.268738 13 21 18
-0.149663 0.128033 0.008246 78 93 79
0.215293 -0.013988 0.253041 154 164 167
0.253275 0.201854 0.253674 161 166 171
0.167820 0.113723 0.055535 112 124 138
-0.521145 0.085023 0.015232 135 139 134
-0.287205 -0.122432 0.299831 57 69 61
0.094769 0.024744 0.006199 68 79 77
0.316457 -0.163329 0.011732 130 131 125
0.052408 0.014094 0.006747 60 73 70
0.257113 0.174426 0.252854 162 167 172
-0.371917 0.094008 0.040780 121 134 129
0.181405 -0.098633 0.147842 126 137 137
-0.037622 0.257454 0.180451 34 46 38
-0.225434 -0.098668 0.278774 35 32 27
0.200315 -0.166309 0.009357 136 141 131
0.154734 0.032429 0.048624 126 144 153
0.093260 0.008299 0.006572 71 87 78
0.282433 0.039141 0.254290 164 171 177
-0.497740 -0.032303 0.337260 44 47 46
0.169333 -0.173521 0.009985 117 121 116
-0.032710 0.077728 0.041002 57 96 72
0.106982 -0.130837 0.010326 115 119 112
0.395863 -0.095970 0.012496 80 80 82
0.151588 -0.005570 0.219250 155 171 179
0.153724 -0.143214 0.009575 133 141 130
0.109090 0.284125 0.114022 71 91 104
-0.049877 0.081952 0.068697 60 92 73
-0.267147 0.214488 0.230169 180 191 191
-0.038075 -0.136003 0.008814 118 132 123
-0.432105 -0.041994 0.023586 126 135 126
0.146073 0.315858 0.247801 148 156 157
-0.545405 0.032340 0.183545 115 140 147
-0.361880 -0.120839 0.010949 29 29 29
0.277050 -0.168417 0.010796 129 130 121
0.236476 -0.049520 0.255285 155 165 168
-0.365803 0.000959 0.289144 46 52 50
-0.020174 -0.167884 0.008351 123 135 125
-0.435081 -0.075943 0.024155 97 104 96
0.255873 -0.148564 0.009753 123 127 120
-0.110216 -0.146741 0.008513 115 131 122
0.222265 -0.148486 0.009364 124 131 123
0.264130 -0.100407 0.007916 111 119 108
0.023416 -0.110580 0.009319 89 103 94
0.176435 0.073189 0.061201 112 129 141
-0.196668 -0.177998 0.006771 125 137 129
0.150643 -0.013191 0.181681 154 170 178
0.108972 0.285343 0.087444 70 87 103
-0.011529 0.080739 0.067671 71 110 86
0.282200 0.265632 0.255333 165 167 173
0.194893 -0.016493 0.254339 150 162 166
0.130594 0.248841 0.053059 98 115 127
-0.041390 0.249884 0.037993 8 14 12
0.277723 0.046281 0.254086 163 170 174
-0.226592 0.194904 0.086702 9 15 13
-0.129476 0.219080 0.157546 36 48 40
-0.398464 -0.062072 0.304100 139 156 159
0.205613 0.060451 0.250096 151 161 166
-0.008621 0.258966 -0.003925 58 70 60
0.145238 -0.036283 0.236687 157 171 173
-0.416713 -0.031390 0.320605 89 98 91
0.154484 0.001507 0.103353 147 166 170
0.159389 -0.078313 0.181729 158 170 172
-0.118425 -0.084385 0.007697 33 46 41
0.329016 0.200396 0.254419 170 172 178
0.316893 0.038304 0.256283 167 172 179
-0.223523 0.091831 0.014448 31 34 35
0.222271 -0.087665 0.225244 128 136 135
-0.260728 0.106218 0.006690 110 125 111
-0.025520 0.035388 0.008443 32 64 43
-0.126448 0.219041 0.026460 64 73 64
0.293832 -0.154073 0.010354 130 132 123
-0.062029 -0.114202 0.008662 116 130 119
-0.158881 -0.167954 0.008480 135 145 133
0.260135 0.272899 0.253951 160 165 170
0.098462 -0.014264 0.007895 51 64 59
0.243223 0.242688 0.254082 157 162 167
0.175384 0.137081 0.251655 146 158 164
0.002848 -0.128751 0.008904 109 125 114
-0.092763 0.003684 0.061101 55 89 67
-0.045225 -0.186996 0.008096 138 144 144
0.123467 0.130241 0.206951 148 163 180
-0.481093 -0.129121 0.020210 79 87 76
-0.234592 0.194096 0.186925 14 20 18
-0.068531 -0.001292 0.018023 36 73 52
0.185320 -0.146666 0.009161 128 135 129
-0.028872 -0.126940 0.008764 114 130 119
-0.306460 -0.105315 0.367517 112 151 158
-0.428783 -0.014789 0.349892 190 189 189
0.243497 -0.148528 0.009584 124 129 119
-0.309811 -0.113890 0.371297 125 166 170
0.123566 -0.004299 0.008196 89 102 99
-0.318291 -0.127269 0.020771 132 139 131
0.094054 0.239340 0.245069 145 157 161
-0.298117 -0.056888 0.024268 117 131 120
-0.443558 -0.031289 0.336335 89 98 91
0.150985 -0.061794 0.118790 154 172 170
0.202832 0.137516 0.251548 150 160 165
-0.425356 -0.034840 0.321183 72 81 74
-0.520771 -0.036684 0.391943 82 83 74
-0.417680 0.082031 0.233824 141 155 157
-0.542148 0.085013 0.031458 148 149 140
-0.269329 -0.069366 0.302420 97 112 107
-0.371835 -0.013530 0.280195 84 96 88
0.188782 -0.034981 0.254846 153 163 168
0.030076 0.252032 -0.003752 22 33 29
0.120250 0.128333 0.011849 93 106 103
0.286609 0.037298 0.254502 163 170 176
-0.025283 -0.008209 0.006297 30 64 44
-0.389205 -0.048971 0.022400 124 136 128
-0.448431 -0.034227 0.327985 58 64 62
-0.283695 -0.175775 0.011870 71 75 70
-0.478316 -0.025256 0.397407 190 190 186
0.331744 -0.071443 0.006591 74 71 68
0.100423 0.026471 0.007006 69 80 78
0.189527 0.192001 0.252107 148 158 163
0.129090 -0.173522 0.009970 112 115 114
0.331925 0.183766 0.255111 169 174 181
-0.116878 -0.113895 0.007336 87 101 92
0.280018 -0.133825 0.008819 70 66 69
-0.212447 0.198748 0.114088 12 18 16
0.150016 -0.059939 0.104984 162 179 180
-0.057839 0.134628 0.001511 78 97 87
0.163341 0.303976 0.248984 148 153 158
-0.066077 0.008680 0.013314 35 72 51
0.342725 0.010438 0.256851 167 174 180
0.191624 -0.077445 0.256480 151 161 164
0.230776 0.045783 0.251162 135 149 155
0.022854 0.266745 0.069245 8 14 12
-0.543725 -0.027319 0.028760 93 87 89
0.109466 -0.123570 0.010356 118 126 123
0.018749 0.268022 0.139347 10 13 12
0.333210 0.214253 0.255061 169 171 177
0.314164 -0.020652 0.257721 165 170 177
-0.259279 -0.097088 0.304880 144 159 156
0.313789 0.263368 0.256114 166 169 172
-0.419517 -0.084985 0.265697 87 94 86
-0.176609 -0.145580 0.227395 25 33 34
0.081044 0.207863 0.003103 93 104 100
-0.241165 -0.120374 0.273972 13 19 17
-0.146150 0.214738 0.025604 32 38 36
-0.005351 0.268932 0.183306 13 19 19
0.303440 0.154321 0.254293 168 173 178
0.110340 0.120842 0.009261 88 99 95
-0.011947 0.145526 -0.001424 26 34 31
-0.230205 0.192953 0.055088 14 20 18
0.123052 0.219698 0.047793 104 124 135
-0.222262 -0.181672 0.007647 130 139 130
0.088215 0.155292 0.006835 92 106 97
0.316561 -0.055322 0.233926 142 147 152
-0.506462 -0.072876 0.025351 81 82 76
-0.194937 -0.102402 0.005364 114 128 119
0.146297 0.187538 0.251848 145 157 161
0.053545 -0.157701 0.010054 122 136 127
0.191803 -0.033563 0.255333 158 168 171
0.164028 0.113816 0.252117 144 158 162
0.282156 -0.113233 0.007426 115 122 114
0.114949 0.240075 0.048417 99 114 129
0.185879 -0.058523 0.256627 150 162 166
-0.365066 -0.046173 0.020221 118 131 126
-0.224948 0.201782 0.236738 46 55 65
0.397173 -0.187507 0.017281 93 90 85
-0.510150 -0.115190 0.021170 80 84 77
0.148648 0.216969 0.250620 145 155 158
-0.405097 -0.015010 0.327246 186 187 181
0.109088 0.121756 0.253282 158 170 176
0.007399 0.251506 -0.003338 63 76 73
-0.253284 -0.065359 0.067758 103 115 107
-0.422192 -0.086266 0.022109 100 108 105
0.055462 -0.018375 0.007791 48 66 60
-0.410164 -0.112905 0.245931 61 70 63
0.214070 -0.088940 0.097586 117 128 126
-0.298784 0.069836 0.084303 94 93 78
-0.021373 -0.043752 0.006785 82 103 92
-0.046305 0.246555 -0.000348 70 82 74
-0.139962 0.009722 0.009964 86 102 91
0.330229 -0.163539 0.012573 130 131 122
0.089938 -0.180604 0.010337 119 128 119
0.127712 0.125412 0.256522 143 157 163
-0.213793 -0.154927 0.258202 92 99 91
0.142496 0.062723 0.254084 145 159 165
0.015208 0.266936 0.137734 7 10 9
0.294542 0.369164 0.261780 162 162 164
0.213063 0.228855 0.252526 153 158 163
-0.293269 -0.120775 0.017136 123 132 123
0.354578 -0.147499 0.012751 129 129 123
0.159050 0.029041 0.051691 124 140 150
0.064906 0.204056 0.001408 80 91 87
-0.547522 0.044938 0.046545 88 88 84
0.044715 0.274149 0.095004 15 21 21
0.142646 0.124388 0.047402 101 119 126
-0.324506 -0.089267 0.020840 125 134 125
0.302291 -0.173869 0.011469 69 68 75
0.258820 -0.074825 0.157286 123 131 132
0.354367 -0.058072 0.007075 89 96 88
0.149421 0.000755 0.213650 154 170 178
-0.438179 -0.023336 0.348822 138 141 140
-0.188755 -0.162068 0.232470 19 32 29
0.122668 0.287068 0.078966 80 100 113
0.296821 0.187907 0.254268 164 169 174
0.113033 -0.123559 0.010338 121 130 121
0.015083 0.046867 0.046039 78 119 97
-0.187565 -0.117007 0.005135 121 133 125
-0.057863 -0.148646 0.009128 122 136 127
-0.517593 -0.046656 0.030037 80 84 77
0.110434 -0.080412 0.008832 109 121 111
0.313105 -0.056057 0.068215 119 127 126
-0.508647 -0.017772 0.431288 207 200 194
-0.363298 -0.116603 0.014863 44 44 46
-0.386608 -0.022407 0.284510 63 76 75
-0.063244 0.073218 0.049506 58 97 75
0.358876 -0.041897 0.021159 91 97 97
0.166937 0.121873 0.251428 146 158 162
0.156218 0.151768 0.252365 145 157 161
-0.436473 0.008196 0.357248 173 173 169
-0.233641 0.211379 0.234742 180 191 189
-0.073377 -0.073203 0.008377 103 118 104
0.233633 -0.024844 0.254991 119 127 128
0.113114 0.042695 0.007770 72 85 82
-0.112171 0.008221 0.009098 87 102 88
0.193385 0.338666 0.250906 154 154 158
-0.325041 -0.139040 0.349373 57 70 65
0.200124 -0.053361 0.256078 152 164 166
-0.079130 0.242409 0.184889 37 44 38
0.156267 -0.069070 0.071943 122 136 138
0.186244 -0.031815 0.255041 152 162 167
-0.251192 0.225667 0.229432 180 191 189
-0.027645 0.248315 -0.002746 68 81 76
-0.227351 -0.084077 0.279694 75 19 21
0.202090 0.210395 0.252190 149 156 160
-0.209173 -0.105254 0.002585 121 130 123
-0.043324 0.262759 0.221953 29 39 46
-0.355247 -0.110612 0.388898 135 169 175
-0.309511 -0.103898 0.020959 115 129 118
-0.358928 0.026461 0.273909 53 74 80
-0.147840 0.246600 0.223839 172 185 184
-0.262127 0.097003 0.007887 105 121 110
-0.061122 0.287373 0.218351 155 166 164
-0.220049 -0.073031 0.272288 18 21 22
-0.065555 0.248574 0.215245 20 28 27
0.233318 0.079782 0.251539 155 165 170
-0.435219 0.018032 0.349279 154 154 148
-0.207754 -0.142660 0.252226 7 15 12
0.266991 0.061087 0.253031 163 168 173
-0.281823 -0.179162 0.011599 128 138 126
-0.546634 0.041404 0.090184 88 92 87
0.056399 -0.028571 0.008685 71 90 80
0.159494 0.187837 0.251715 145 157 161
0.243222 -0.086700 0.006028 90 96 94
0.275516 0.317409 0.256014 163 166 169
-0.307729 0.094762 0.136352 41 47 60
-0.141964 0.180388 0.006716 62 74 66
0.168688 -0.088838 0.246293 149 162 161
0.170369 0.137026 0.056073 107 123 133
0.166921 0.169982 0.251780 146 156 159
0.274691 0.331501 0.255357 164 163 170
0.259110 -0.047647 0.255070 160 167 173
-0.016612 -0.166134 0.008389 38 52 43
0.164924 -0.094038 0.196486 159 172 171
0.306394 0.259325 0.255701 167 169 175
-0.092853 -0.152114 0.008697 121 137 128
0.339212 0.258096 0.257787 169 168 175
0.270302 -0.006069 0.254798 151 170 199
-0.544772 -0.004088 0.167706 92 117 122
0.150523 0.028146 0.252989 150 162 166
0.367038 -0.039505 0.069453 115 121 121
-0.253840 -0.119465 0.282418 19 25 27
0.045917 0.105872 0.003499 69 88 88
0.161627 -0.049104 0.249979 148 162 164
-0.133099 0.218670 0.160983 32 44 36
-0.067747 0.056566 0.028822 50 89 65
-0.536665 0.080849 0.023324 139 140 131
0.193136 0.124186 0.063958 106 123 135
-0.201288 0.105428 0.009107 103 115 107
0.101319 0.169455 0.253858 142 156 162
-0.391174 0.017232 0.307992 93 97 92
0.063845 0.294919 0.070469 64 78 84
0.023948 -0.128961 0.009729 106 120 109
0.151159 -0.049667 0.019243 140 155 154
-0.063863 -0.116057 0.008733 118 132 121
0.213856 -0.076927 0.255594 151 163 165
-0.066461 0.239886 0.052392 9 15 13
0.250317 -0.072831 0.253956 148 158 161
-0.470090 -0.032136 0.363285 99 102 101
0.123542 -0.059297 0.008446 106 119 114
0.187266 -0.058600 0.256809 151 163 167
0.230632 0.036745 0.251519 157 163 161
0.300214 0.179912 0.254317 167 172 179
-0.290706 0.244910 0.008926 109 119 107
-0.346298 -0.145120 0.369863 86 116 119
-0.421126 -0.064082 0.022267 125 134 127
-0.493849 -0.133092 0.015487 43 48 38
-0.246846 -0.101285 0.294733 27 40 49
-0.361092 -0.083454 0.014205 28 34 34
0.153741 0.308802 0.248361 147 154 158
0.258685 -0.082655 0.005355 89 96 90
-0.445287 -0.111283 0.222040 94 108 112
-0.242946 -0.176692 0.008540 123 137 128
0.158723 0.042430 0.252642 148 162 166
0.003736 0.185835 -0.000160 84 99 94
-0.176958 0.208819 0.173596 39 46 40
-0.003798 0.259058 0.092502 6 14 11
0.009378 0.268741 0.167132 8 14 12
0.089783 0.100614 0.005950 46 49 50
-0.143697 0.023421 0.010918 22 35 30
-0.260114 -0.119545 0.286104 97 112 107
0.149491 -0.071661 0.165169 141 155 159
0.331582 -0.048985 0.252069 158 157 164
0.391428 -0.034963 0.108787 136 139 138
0.126323 0.023959 0.008395 81 89 88
-0.480181 -0.031797 0.328569 32 35 38
-0.165931 -0.155464 0.007787 124 136 128
0.180642 0.150533 0.059168 100 115 128
-0.230228 0.108786 0.006354 102 114 104
0.209529 -0.036246 0.254387 137 155 178
-0.339309 -0.168053 0.008679 139 147 136
-0.202934 0.020346 0.012587 82 101 89
0.217075 -0.059277 0.255231 152 162 165
-0.073005 -0.126992 0.008734 115 131 122
0.167462 -0.099772 0.223139 157 170 169
0.154848 0.225662 0.250208 144 154 157
0.122260 -0.089680 0.008495 116 125 118
0.252970 0.149265 0.252267 161 168 172
0.246933 0.253795 0.253512 158 163 168
-0.124094 0.194832 0.005846 70 79 72
-0.017042 0.167439 -0.000340 91 103 93
-0.408709 -0.098944 0.263191 89 93 86
-0.339105 -0.190594 0.009159 149 154 142
-0.324285 0.094550 0.052349 135 147 137
0.035999 0.132429 0.002929 79 95 86
-0.281741 -0.106697 0.207868 36 42 40
-0.033898 -0.119739 0.008996 113 132 122
0.265884 -0.121096 0.008973 125 126 117
-0.439135 -0.106103 0.021338 91 98 92
-0.487359 -0.036839 0.368523 59 59 63
0.023096 -0.013328 0.052660 72 111 89
0.325451 0.054809 0.255500 169 174 181
0.175702 0.116268 0.251492 146 158 162
-0.542188 0.009060 0.176863 104 128 138
-0.142624 0.213722 0.062806 7 14 8
-0.215437 0.207869 0.234359 106 113 121
-0.152703 -0.030368 0.011161 30 42 34
0.243828 -0.077372 0.253419 144 154 157
0.173627 -0.100967 0.081114 130 138 139
-0.210889 -0.071775 0.262942 26 32 32
0.305581 -0.065377 0.005477 86 90 85
-0.212698 -0.089826 0.268964 8 16 13
-0.093502 0.234391 0.155145 36 45 38
-0.014831 -0.055910 0.008454 47 62 57
-0.338025 -0.138253 0.317528 52 61 52
-0.028117 0.264555 0.209695 24 35 33
-0.074304 -0.176730 0.008722 120 136 125
-0.005078 -0.178389 0.008386 123 137 128
-0.276276 -0.083858 0.016072 33 42 33
0.092545 0.283653 0.240796 149 156 160
-0.152543 -0.139200 0.204757 36 47 47
-0.211121 -0.150418 0.008669 127 141 130
-0.074554 -0.187069 0.008442 123 137 126
0.044247 -0.018629 0.008314 51 71 66
0.363067 -0.042823 0.135809 137 140 139
-0.228876 0.193574 0.078526 12 18 16
-0.513364 -0.032473 0.368131 72 71 71
0.135385 0.231819 0.050690 102 119 131
0.161561 -0.078346 0.067469 137 152 151
0.303736 -0.092717 0.007579 79 83 78
-0.018414 -0.092041 0.008988 111 127 118
-0.491530 -0.054355 0.025763 82 86 81
-0.094873 -0.167966 0.008597 121 133 123
-0.134708 -0.181868 0.008432 112 124 116
-0.127226 -0.044929 0.008932 96 111 97
-0.026761 0.285205 0.221548 153 165 167
-0.225856 -0.154318 0.260456 57 65 66
-0.150742 -0.061165 0.011236 38 56 50
0.070754 0.272399 0.233285 152 162 169
-0.247097 -0.126509 0.251932 27 35 34
0.282435 -0.051861 0.254036 162 167 172
0.242036 0.275383 0.253213 156 162 164
0.146538 -0.055711 0.187727 142 159 162
0.019935 0.026610 0.042042 78 117 95
0.156803 -0.017752 0.246485 164 176 182
-0.495041 -0.105518 0.024822 78 85 77
-0.072382 0.106788 0.004192 81 106 89
-0.337191 -0.141576 0.364670 95 125 128
-0.168067 0.238719 0.225302 174 187 186
-0.157356 0.121442 0.008176 76 88 78
-0.150141 -0.190589 0.008861 129 141 133
0.217807 0.001143 0.253171 111 122 133
0.194537 -0.003810 0.252570 147 157 162
0.316870 0.099657 0.253651 168 173 180
0.276250 0.270014 0.255111 161 166 171
-0.406875 -0.009250 0.333257 245 245 245
-0.312772 -0.114121 0.374598 126 165 170
-0.425330 -0.115474 0.016725 106 113 105
0.238743 0.160887 0.252131 157 164 170
0.325122 0.127079 0.255029 170 172 178
-0.025669 0.077883 0.044907 57 96 72
0.035736 -0.112462 0.009533 92 106 97
0.326033 0.010408 0.256641 167 172 179
-0.318274 0.066289 0.055509 131 144 131
-0.409811 -0.014579 0.334374 228 228 230
-0.233775 0.065284 0.074678 88 102 93
0.026830 0.027658 0.057262 88 127 103
-0.025617 -0.053905 0.008121 39 50 48
0.249615 0.084898 0.252417 161 168 174
-0.094909 0.264266 0.224264 159 172 171
-0.285403 -0.107596 0.327933 87 99 91
-0.196696 -0.176330 0.007059 124 136 126
-0.104049 0.202974 0.004186 64 78 67
0.227114 0.033410 0.251158 141 144 147
0.069500 0.284131 0.078728 102 114 120
-0.075401 0.140433 0.002814 69 88 76
0.047295 -0.123592 0.010117 99 108 101
0.080169 0.272533 0.024424 97 113 121
-0.445475 -0.076036 0.024335 89 96 90
-0.093402 0.256952 0.225315 154 167 166
-0.000773 0.260802 0.099702 7 13 11
0.302894 0.127211 0.254433 165 170 175
0.008085 0.263085 0.060829 7 13 11
0.164833 -0.091823 0.234617 160 173 172
-0.104563 0.018930 0.007739 76 91 77
0.248332 -0.066722 0.254472 153 163 168
-0.092099 0.016947 0.053208 53 92 70
-0.506407 -0.035623 0.383293 75 75 69
-0.360478 -0.127860 0.291334 51 63 55
0.184958 0.265234 0.251361 147 154 158
0.047950 -0.018614 0.008315 44 64 59
0.048102 0.273543 0.073378 15 21 21
-0.020242 -0.055802 0.008104 36 49 46
-0.045318 -0.188783 0.008353 138 144 142
-0.338417 -0.138778 0.376336 97 134 137
0.041361 0.271955 0.065586 11 19 16
0.115263 0.154375 0.255995 144 156 160
0.021978 -0.132532 0.009547 111 123 115
-0.130354 0.224045 0.196529 31 39 38
0.029642 0.214815 -0.001465 26 32 32
-0.402485 -0.026792 0.028979 84 96 88
0.004761 0.269325 0.174720 9 15 15
0.233992 -0.153780 0.009100 128 129 123
0.051220 0.283316 0.129050 20 26 26
-0.310911 -0.117375 0.370126 126 165 170
-0.304739 -0.125721 0.279388 39 45 43
-0.006130 -0.048946 0.070474 82 116 96
-0.091712 0.224204 0.004094 61 72 68
-0.318250 -0.100696 0.022268 84 88 83
0.012112 -0.009945 0.030337 57 96 74
-0.263301 -0.140578 0.011483 125 137 129
0.185529 -0.086936 0.253033 157 167 170
-0.476884 -0.029145 0.389761 76 76 72
-0.102900 -0.125025 0.008064 118 130 122
0.342623 0.127014 0.255443 169 174 181
0.330020 0.276579 0.256097 171 173 179
0.261551 0.018124 0.254119 147 166 184
0.089136 -0.014354 0.008019 79 92 89
-0.211934 -0.051606 0.256783 90 109 97
0.236213 0.155097 0.251970 156 163 169
-0.196957 -0.164247 0.007633 126 136 124
0.222735 0.308869 0.254525 153 158 163
0.027902 -0.148793 0.009927 116 128 118
0.282659 0.172260 0.253581 163 168 173
-0.000223 0.064242 0.043651 74 115 91
0.000387 0.266987 0.152038 11 17 15
0.007074 0.072838 0.075323 91 128 105
-0.059407 -0.086475 0.008803 107 121 110
-0.155427 0.121547 0.008008 76 90 79
0.056425 0.199048 0.001845 83 97 88
-0.123575 -0.041087 0.009024 97 112 98
0.141678 0.214671 0.250786 144 154 159
-0.166843 -0.061831 0.018277 99 116 100
-0.145500 0.215151 0.162622 36 45 38
-0.124138 0.221157 0.157759 34 43 36
0.019217 0.277679 0.213270 20 27 31
-0.013375 -0.171365 0.008246 81 88 94
-0.320831 -0.109535 0.384442 128 165 168
0.312121 -0.177437 0.011694 120 125 115
0.172459 0.056698 0.249809 145 159 163
-0.016479 0.061948 0.022605 75 112 89
0.227545 0.162555 0.252320 156 163 169
-0.272442 -0.081975 0.313159 33 47 51
-0.482648 -0.080436 0.026099 82 89 81
-0.456130 -0.111089 0.019856 86 93 87
0.343863 0.015567 0.256915 167 174 180
-0.360225 0.056874 0.246355 125 161 167
-0.327245 -0.089178 0.386713 126 163 166
-0.059740 0.242045 0.092810 9 15 13
-0.171491 0.211697 0.195339 33 40 34
-0.061909 0.250201 0.213324 19 27 26
0.282534 -0.090594 0.006687 103 110 102
-0.095404 -0.199039 0.008215 127 136 127
0.106312 0.093490 0.007477 86 100 89
-0.396867 -0.015787 0.312434 76 85 78
-0.426614 -0.027791 0.288028 32 38 38
-0.409732 -0.022196 0.326232 95 106 104
0.198220 0.194404 0.251778 149 156 160
0.353219 -0.179602 0.013396 132 130 122
0.034673 0.010739 0.068668 95 134 112
0.148601 -0.019576 0.191337 154 170 178
0.067796 -0.004154 0.007201 24 37 34
0.131531 0.129597 0.256033 147 161 165
-0.138101 -0.097226 0.006926 114 127 122
-0.073562 0.236879 0.070324 5 11 9
0.104388 0.181788 0.253320 144 156 162
0.110342 0.199427 0.043442 93 109 119
-0.259774 -0.124876 0.262885 19 25 23
-0.129205 0.230118 0.221074 19 30 30
0.182638 0.248201 0.251333 147 154 158
0.143937 0.269486 0.064299 96 113 125
0.117995 0.124920 0.257047 143 157 163
0.207384 0.180032 0.252382 150 157 163
-0.414365 -0.002636 0.342750 230 233 232
0.005686 -0.108797 0.009399 101 115 104
-0.486619 -0.036567 0.370560 51 51 55
0.053638 0.282483 0.102802 30 42 46
-0.375036 -0.017926 0.276353 81 100 100
0.359612 -0.117748 0.010581 125 126 120
0.398397 -0.138943 0.014575 113 109 112
-0.087897 -0.078915 0.008420 79 93 84
-0.124792 0.062683 0.006425 74 89 86
0.366499 -0.172812 0.014354 62 59 73
0.337344 0.038797 0.255781 172 174 182
0.246315 0.338312 0.254751 158 161 164
-0.337359 -0.064180 0.018041 126 133 127
0.156080 -0.012619 0.246286 168 182 188
0.173902 0.233346 0.251353 146 156 159
-0.344133 -0.137339 0.387653 112 151 158
0.379962 -0.197546 0.015808 131 133 124
0.319086 0.048859 0.256399 171 173 181
-0.065371 -0.166301 0.008988 123 137 128
0.246796 0.308951 0.254936 156 162 164
0.342349 0.163771 0.255500 171 173 179
0.143528 0.079837 0.047632 112 128 138
-0.032013 -0.037658 0.005971 80 97 83
-0.266739 -0.061594 0.016707 99 115 106
0.232060 0.245151 0.253434 157 164 168
0.307548 -0.173885 0.011536 58 54 59
0.088254 0.229514 0.244188 145 157 161
-0.034292 -0.173098 0.008161 48 63 62
0.312858 -0.013767 0.257293 165 170 177
-0.209932 -0.157507 0.253239 22 33 31
-0.411353 -0.113980 0.241017 54 65 61
0.141072 0.023477 0.009686 114 125 121
0.260887 0.257710 0.254186 157 164 168
0.206129 -0.093164 0.253288 140 150 153
-0.243479 0.209594 0.234219 181 192 192
0.263565 -0.073623 0.075456 124 130 130
-0.277923 -0.106043 0.318218 83 97 88
-0.321869 -0.120563 0.379711 123 162 167
0.340184 0.044220 0.255613 169 174 181
0.310290 -0.150589 0.010763 126 127 121
-0.416363 -0.099219 0.260193 86 93 85
0.024053 -0.127168 0.009802 105 118 105
0.010166 -0.023126 0.038811 61 98 77
0.135834 0.232287 0.249359 143 155 157
-0.436271 -0.005465 0.359416 170 174 169
-0.465464 -0.056624 0.037211 83 91 90
0.271478 0.324127 0.255934 160 163 166
-0.520559 -0.072704 0.024738 77 81 74
-0.344996 0.010760 0.278123 33 43 48
0.079097 -0.044079 0.008645 87 99 91
-0.041538 0.248277 0.103593 15 22 16
-0.213944 -0.093041 0.269376 16 23 17
-0.297923 -0.093505 0.351743 90 102 94
-0.132312 0.089876 0.006952 83 96 81
0.317114 0.282231 0.256792 167 170 173
0.040166 -0.097970 0.010471 65 76 76
-0.357688 -0.003884 0.271739 78 87 80
0.149467 0.051866 0.010928 109 122 121
-0.017468 -0.039665 0.006277 78 102 90
0.307337 -0.032120 0.257402 165 170 175
-0.081867 -0.051973 0.007568 102 114 104
0.328139 0.299469 0.254895 184 183 183
-0.120772 0.098703 0.006617 67 82 64
-0.220966 0.025930 0.057703 103 112 103
0.346629 -0.143755 0.012201 131 132 123
-0.066239 -0.136106 0.009066 114 137 129
-0.282825 0.125921 0.006050 123 132 123
-0.284799 -0.049724 0.020341 104 118 109
-0.540499 0.002127 0.169510 95 118 125
0.113312 0.280629 0.054766 91 109 118
0.189776 0.216573 0.251919 149 156 160
0.180693 0.013370 0.252095 149 161 165
0.052806 -0.050300 0.009530 76 92 83
0.288244 -0.065896 0.193587 129 135 137
0.331798 -0.147292 0.011920 125 126 122
-0.298036 0.077985 0.064747 145 143 131
-0.143689 0.019385 0.010885 80 102 86
0.082617 -0.106860 0.009571 105 117 107
0.146700 0.112796 0.049084 104 125 133
0.243375 0.040094 0.252022 138 145 153
-0.245991 0.222784 0.230538 180 191 189
-0.161199 0.223492 0.226120 37 43 45
0.220449 0.291909 0.253748 154 159 164
-0.180541 0.006649 0.012005 93 108 94
0.047056 0.259688 -0.004045 62 74 64
-0.346946 0.236419 0.002743 182 171 162
0.018548 0.264476 0.085404 10 13 12
-0.080119 -0.130526 0.008406 121 136 131
0.289208 -0.132048 0.009008 128 129 125
0.338194 0.144200 0.255500 170 172 178
0.141899 0.295586 0.248067 146 154 155
-0.089785 0.264211 0.224431 158 171 170
-0.242267 -0.150575 0.009167 135 144 135
0.223728 0.068907 0.251313 153 163 168
-0.134738 -0.199068 0.008447 123 137 126
0.288048 0.232076 0.255151 166 169 172
-0.540329 0.058383 0.018476 120 120 114
-0.139967 0.089372 0.007848 85 102 88
-0.130176 0.158135 0.006274 12 26 17
0.266339 0.026914 0.253979 159 169 172
-0.378334 0.029157 0.291372 90 96 94
0.273769 0.141060 0.253293 163 168 173
-0.234803 -0.088585 0.286270 79 27 36
-0.398789 -0.014679 0.315959 88 92 87
-0.083696 -0.052051 0.007766 105 117 109
0.348531 0.132613 0.255742 169 174 179
0.311401 0.259256 0.255882 169 169 173
-0.263212 -0.121959 0.281301 89 103 94
0.345924 0.195880 0.255335 168 173 180
0.141675 0.073050 0.044582 119 135 143
-0.141588 -0.187208 0.009109 93 108 103
0.299482 0.069756 0.254155 167 172 177
-0.130936 -0.080574 0.007422 108 122 113
0.278181 0.088187 0.253519 162 169 173
0.226462 -0.007782 0.254182 159 167 168
0.160934 0.116508 0.054229 109 124 137
0.353693 -0.087257 0.008543 113 117 110
0.028634 -0.013692 0.062737 79 118 94
-0.444846 0.024532 0.351244 152 143 138
0.197279 -0.150224 0.009090 127 134 128
-0.090622 -0.126973 0.008585 117 131 122
0.280844 0.060976 0.253447 164 169 176
0.038212 -0.050306 0.009407 29 41 33
-0.260341 -0.168371 0.010031 129 141 131
0.170470 -0.178743 0.009844 121 126 116
-0.108328 -0.135921 0.008240 113 128 114
0.208812 0.294053 0.253560 153 156 159
0.112136 -0.168270 0.010030 69 72 71
-0.352796 -0.132613 0.299773 48 60 50
-0.349167 -0.172536 -0.001395 168 163 171
-0.234425 -0.098550 0.285246 34 34 36
0.262904 -0.078875 0.005444 84 85 81
-0.227941 0.196106 0.212191 15 23 22
0.285951 0.156141 0.254147 164 169 174
0.142546 0.258476 0.248432 145 155 158
-0.310099 0.161628 0.005132 133 143 131
-0.266897 0.153483 0.004395 121 129 118
-0.364246 -0.077714 0.019134 71 79 78
-0.391818 -0.024325 0.285039 71 79 76
0.118905 0.213760 0.046226 103 123 136
-0.299668 -0.124857 0.325662 61 73 65
0.028502 -0.030913 0.009390 72 91 79
0.158913 0.324034 0.248918 148 154 156
-0.217437 -0.168681 0.256718 29 40 38
-0.157834 0.215445 0.182190 39 48 41
-0.204991 -0.049995 0.253519 7 15 14
-0.309136 0.147691 0.006119 135 143 132
-0.359806 -0.063655 0.011051 18 21 22
0.191462 0.124504 0.063365 103 120 132
-0.118067 -0.033403 0.009285 88 103 89
0.176324 0.058564 0.061846 118 135 147
0.270876 0.309037 0.255341 163 165 171
-0.318580 0.333545 0.004248 129 134 124
-0.167104 0.208015 0.101189 12 18 16
-0.055784 0.057103 0.019162 49 88 64
-0.156940 0.059133 0.009077 86 95 88
-0.277134 -0.081282 0.317787 79 91 83
0.119816 0.291264 0.245098 144 155 155
-0.295748 -0.169419 0.014159 136 143 135
-0.258658 -0.128171 0.011907 121 133 123
0.189096 -0.048634 0.256155 149 161 163
0.135969 0.195856 0.251299 145 155 160
-0.006465 -0.042533 0.034357 78 100 82
0.137246 0.122629 0.255262 149 163 167
-0.014431 0.034766 0.009978 63 96 79
0.034638 0.270531 0.109084 12 18 18
0.296072 -0.061532 0.232926 142 148 150
0.148538 0.048844 0.253568 147 161 165
0.048656 -0.199452 0.009710 49 57 54
-0.362301 -0.093273 0.383587 134 166 173
0.030054 0.048498 0.080145 99 136 115
0.184984 -0.101423 0.227475 106 118 120
-0.280137 -0.123226 0.284259 87 99 89
0.284563 -0.064563 0.113692 122 128 128
-0.502032 -0.036638 0.387446 80 77 72
0.144562 -0.189376 0.010681 51 57 57
-0.309199 -0.081993 0.021266 113 127 118
-0.081818 0.052938 0.044732 55 96 72
0.301711 0.205856 0.254704 167 172 177
-0.199991 -0.113458 0.005420 118 132 123
0.230336 0.043842 0.251442 134 146 150
-0.356035 -0.115494 0.388063 134 170 176
0.307522 -0.047831 0.256127 163 170 174
-0.449439 -0.107734 0.020711 87 94 88
-0.193903 -0.060952 0.235984 19 25 23
0.163186 0.003973 0.045702 141 158 161
0.211167 -0.198060 0.010781 126 130 125
-0.048703 0.009986 0.005672 28 65 44
0.147358 0.232005 0.249929 145 155 158
0.262285 -0.038046 0.255472 157 167 170
0.027938 0.009404 0.054058 86 125 103
0.117768 0.130348 0.024303 125 144 148
0.087879 0.225427 0.244091 144 156 160
-0.194147 -0.160817 0.237465 19 30 28
-0.433586 -0.001292 0.357678 241 241 235
0.302535 0.049263 0.255449 167 172 177
-0.192193 -0.049676 0.249682 9 15 13
-0.128761 0.028492 0.008821 87 102 88
0.245368 0.311055 0.255032 157 163 165
-0.118720 0.116142 0.006412 74 90 79
0.278607 0.019861 0.254374 162 169 173
0.024795 0.234335 -0.002454 66 79 76
0.262245 -0.121132 0.009074 123 128 118
0.218012 0.185909 0.252741 150 157 161
-0.183872 -0.050160 0.237191 68 80 72
-0.028186 0.187850 -0.000195 93 106 101
-0.309045 -0.128818 0.334897 59 71 63
0.261937 0.154948 0.252656 161 168 172
-0.368227 -0.089252 0.020462 117 129 121
-0.261940 0.186410 0.235037 36 48 54
-0.481423 -0.060616 0.027638 82 89 81
0.167993 -0.091739 0.032044 150 165 162
-0.307200 -0.110701 0.367417 104 148 155
0.165346 0.294436 0.249821 148 154 156
0.221157 0.060507 0.250267 151 161 166
0.335146 0.161431 0.255868 169 174 181
-0.027856 0.018105 0.005885 29 63 41
-0.199744 -0.130269 0.254527 80 86 86
0.216882 -0.150135 0.008813 128 132 125
-0.013009 0.253760 -0.003449 66 78 68
0.163855 -0.082417 0.031801 151 166 163
0.172966 -0.068883 0.251231 149 161 163
0.323454 -0.006918 0.257210 166 173 179
-0.201470 0.191243 0.002859 82 94 84
0.297672 0.344743 0.256250 162 164 170
-0.531610 0.089899 0.026136 143 144 138
0.081823 0.265832 0.023664 101 115 121
-0.089042 0.148388 0.004343 77 93 82
-0.454069 -0.053505 0.028900 85 93 90
-0.198432 0.202408 0.152600 40 49 42
-0.411928 -0.083978 0.273722 96 103 95
-0.274690 -0.096117 0.318490 81 97 88
0.176500 -0.145033 0.009731 128 132 125
-0.271293 -0.097001 0.314157 36 48 52
-0.539140 0.031607 0.132530 87 93 95
-0.342181 -0.139191 0.380200 99 136 139
0.108783 0.101652 0.008442 56 64 63
-0.005582 0.156467 -0.000782 87 101 92
-0.093991 0.085096 0.004231 74 86 78
0.029014 -0.105247 0.009986 83 97 86
0.135128 0.203565 0.048154 68 87 105
-0.200330 0.145868 0.007127 100 112 104
0.030788 0.033945 0.069282 93 134 112
0.190356 0.130879 0.063419 112 127 140
-0.306087 -0.135284 0.017763 117 131 120
0.148488 -0.050637 0.239242 155 170 169
0.129914 0.042262 0.008943 81 91 94
0.016559 0.057478 0.065844 88 127 105
-0.307328 0.148184 0.005263 133 143 131
0.145475 0.023219 0.236933 159 169 176
-0.174393 0.098724 0.010004 94 109 93
0.130815 0.147614 0.254939 147 159 163
-0.356593 0.101869 0.001153 15 20 25
0.178095 0.289305 0.250915 149 154 159
-0.406077 -0.091902 0.271284 101 108 102
-0.459961 0.018919 0.373485 156 147 138
-0.319872 -0.108011 0.384064 126 166 168
-0.093024 0.145887 0.004766 82 96 87
-0.295581 -0.122714 0.320652 62 74 66
-0.348630 -0.004035 0.244670 125 132 126
0.216050 0.283762 0.253013 150 156 158
0.021093 -0.118057 0.009773 95 114 102
0.246468 -0.080389 0.242232 132 139 143
0.218016 0.250062 0.252339 153 158 163
-0.006227 0.185938 -0.000499 78 91 90
0.199931 0.033889 0.249887 121 128 132
-0.014347 0.226421 -0.001890 72 85 84
-0.494880 0.005246 0.419029 166 162 155
0.231014 -0.038286 0.255514 148 163 180
-0.102724 0.235367 0.198928 19 25 25
-0.045273 0.155626 0.000092 86 100 91
-0.112292 0.238982 0.223485 29 39 42
-0.157961 0.211779 0.004093 60 67 61
-0.362448 0.021559 0.282106 95 104 97
-0.117339 0.248120 0.225180 152 167 166
-0.167815 0.211236 0.019769 64 72 69
-0.301428 -0.121103 0.339358 73 85 77
-0.400109 -0.110064 0.253931 62 71 62
-0.410005 -0.087827 0.021379 124 131 125
-0.376710 0.005110 0.298625 90 97 91
-0.503156 -0.010240 0.428675 160 152 149
-0.239428 0.224860 0.230664 180 191 189
0.162484 -0.085386 0.178663 149 161 163
0.338416 -0.001585 0.256948 169 174 181
-0.044436 0.180681 0.000002 81 93 83
-0.437036 -0.012095 0.357835 254 255 247
0.204887 -0.095207 0.208064 126 137 137
-0.307119 -0.089005 0.020185 33 45 37
-0.334003 -0.162130 0.012800 125 132 126
0.313819 -0.036927 0.257259 162 167 172
0.158408 0.078463 0.054627 110 127 139
-0.058707 0.245245 0.001465 61 69 66
-0.316772 -0.132967 0.357134 64 102 100
0.274692 -0.073237 0.005775 82 85 84
0.209843 0.141393 0.251641 151 161 166
-0.497683 -0.027838 0.407946 126 127 121
0.238712 0.234608 0.253635 156 163 169
0.107676 0.130807 0.256571 152 164 170
-0.048571 0.069717 0.027586 45 86 64
0.342971 -0.047758 0.217731 148 151 154
-0.348130 0.096263 0.003864 139 148 141
0.070064 0.120468 0.005202 86 101 96
0.322859 0.017173 0.256790 168 173 180
0.363263 0.174729 0.254475 172 174 182
0.236857 -0.083253 0.134511 126 134 135
-0.140398 0.217940 0.176328 39 48 41
0.186593 0.176905 0.062967 125 136 147
-0.316744 0.173193 0.004501 140 148 135
-0.056489 -0.106910 0.008867 110 124 113
0.028526 0.289313 0.225549 117 125 126
-0.099609 0.099243 0.005865 69 84 70
0.161466 -0.077741 0.055505 150 163 160
0.005836 0.224154 -0.001706 47 57 62
-0.549716 -0.011309 0.141796 64 64 66
-0.290137 -0.115331 0.017043 121 133 125
-0.467425 0.003757 0.398080 108 103 99
0.052520 0.282156 0.109398 16 28 30
0.057160 0.288518 0.107268 58 72 76
-0.237251 -0.090888 0.288046 36 42 42
0.015358 0.042571 0.042277 80 119 95
0.143941 0.054633 0.027120 125 144 146
-0.069534 0.051748 0.025941 49 88 64
0.057736 0.280189 0.040798 52 63 61
0.192772 -0.096134 0.097867 125 133 132
0.318433 -0.053838 0.081758 121 129 130
-0.237887 -0.129251 0.009525 117 126 117
0.041904 0.285853 0.217070 24 31 35
-0.294645 0.200297 0.005383 140 150 138
0.261328 0.249536 0.253827 162 167 172
0.025983 -0.044154 0.008331 72 91 79
0.278637 -0.057922 0.253148 161 166 171
0.346800 0.208056 0.255387 171 173 181
-0.252239 0.187634 0.110572 14 20 18
-0.101515 -0.025357 0.008847 89 103 92
0.108646 0.167759 0.009073 87 101 105
-0.334832 -0.111024 0.395420 104 125 131
-0.509923 0.070434 0.027985 95 99 94
0.264155 -0.073309 0.064543 119 125 125
0.196696 0.314978 0.252199 149 154 159
-0.423830 -0.113586 0.216253 89 119 122
0.383668 -0.104928 0.011209 126 123 118
0.062712 0.026369 0.006767 46 59 54
-0.326275 -0.133126 0.369540 104 141 144
-0.161838 -0.025047 0.012423 91 108 94
0.204796 -0.101733 0.005813 78 84 84
0.073520 -0.044218 0.008965 83 94 90
-0.196791 -0.159184 0.241254 18 29 27
-0.238335 0.193162 0.131373 15 18 17
0.208817 -0.168114 0.009515 70 70 66
0.117812 0.054702 0.008890 72 86 77
-0.496438 -0.010093 0.422299 159 159 155
-0.458385 0.024230 0.365626 152 141 132
0.166392 -0.097655 0.180575 160 173 172
0.031974 0.009497 0.062713 91 130 108
-0.123382 -0.007810 0.009108 12 27 13
0.071983 0.269318 0.234373 152 164 168
-0.305937 -0.120394 0.356155 77 96 96
-0.500863 -0.021340 0.417659 164 162 154
0.212889 0.068967 0.251031 151 161 166
-0.141599 -0.176832 0.009134 114 127 126
0.045764 0.281734 0.013935 11 17 15
-0.272073 -0.170494 0.011548 69 78 71
-0.212218 -0.115513 0.262159 7 13 13
-0.145745 0.108417 0.008331 76 92 81
0.077288 0.258454 0.237122 143 157 161
0.216124 0.129998 0.251584 152 162 167
0.189181 0.017324 0.251311 145 157 161
0.053085 -0.094072 0.010009 87 101 103
-0.073985 0.246500 0.212360 17 25 24
-0.469535 -0.011757 0.401405 163 160 155
-0.186135 0.203370 0.074439 6 12 10
0.174945 0.188962 0.054088 106 123 135
0.262067 -0.023318 0.255669 162 175 200
-0.176326 0.205895 0.100900 11 17 15
-0.324308 -0.136372 0.329921 50 62 54
-0.162955 0.100997 0.009925 70 79 72
0.268560 0.129654 0.253038 162 169 175
-0.325049 0.282645 0.009413 131 136 126
-0.092526 0.175367 0.004424 72 86 75
-0.330164 -0.133550 0.373433 103 140 143
-0.541080 -0.053995 0.029378 81 82 73
0.179086 0.210553 0.251543 148 155 159
0.224265 -0.103736 0.006380 112 116 109
-0.003958 -0.054314 0.009453 59 77 75
-0.037973 -0.045975 0.007400 79 99 84
0.281936 -0.180765 0.010964 126 128 117
0.058742 0.125023 0.004735 81 92 88
0.319786 0.141863 0.255722 167 172 177
0.054205 0.013932 0.007149 58 71 68
-0.259276 0.113615 0.004963 119 131 121
-0.441568 0.002895 0.363036 253 254 248
-0.267221 0.089148 0.010701 108 123 109
0.033377 0.239671 -0.003180 67 80 77
0.225594 -0.087304 0.247060 133 140 144
0.075683 -0.040310 0.008925 83 97 88
-0.205812 -0.155531 0.007948 132 144 136
-0.077681 0.052499 0.037205 53 92 70
-0.094715 0.163668 0.005027 74 88 79
0.201263 0.273625 0.251929 149 156 160
-0.037325 0.282530 0.221885 154 165 165
-0.320073 -0.125612 0.021193 131 138 130
-0.367396 0.060039 0.249722 123 158 161
-0.230755 0.180884 0.004408 88 100 92
-0.283319 -0.124439 0.280036 88 100 90
0.186346 0.250448 0.251251 147 154 158
-0.227805 0.225052 0.230655 179 190 188
-0.308811 0.208586 0.006708 146 156 142
-0.151026 0.001444 0.010477 85 100 86
-0.072345 0.185977 0.002253 66 79 78
0.188820 -0.077357 0.256244 151 161 164
-0.000384 -0.123292 0.008858 113 127 118
0.358253 -0.044424 0.152071 138 141 142
-0.083355 0.240598 0.167407 33 42 35
-0.120611 -0.137668 0.008013 115 129 120
0.103521 0.199516 0.251156 144 156 160
0.288252 0.142569 0.254150 165 170 175
-0.386302 0.092354 0.051639 123 136 131
0.194448 0.004773 0.252388 143 155 159
-0.242283 0.192504 0.015338 83 97 88
0.343091 0.037035 0.255880 174 173 182
-0.214239 0.198451 0.114496 11 17 15
-0.317322 -0.083288 0.372823 124 161 164
0.077196 -0.065457 0.009224 94 109 104
-0.402792 -0.077398 0.295443 144 174 177
-0.014168 -0.115938 0.008616 109 123 112
0.130201 0.079616 0.255711 146 158 164
0.364303 -0.199082 0.015006 128 125 120
0.229500 -0.103895 0.006923 114 119 109
0.203159 0.162349 0.252138 148 158 163
0.162824 0.037523 0.252081 150 162 168
0.235804 -0.070149 0.254854 152 162 165
0.331912 0.153610 0.255800 167 172 179
0.200570 -0.199735 0.010599 133 134 128
-0.308154 -0.118902 0.364734 114 158 161
0.085090 0.216077 0.229777 145 158 167
-0.280913 -0.057019 0.019606 113 127 118
0.145699 0.087957 0.254374 148 162 166
0.336620 -0.090996 0.008310 124 125 119
0.309933 0.155835 0.255015 170 172 178
0.278046 -0.066987 0.230322 134 139 144
-0.190196 -0.065526 0.068828 104 113 106
-0.189818 0.009006 0.011054 95 111 100
0.103245 0.280207 0.148729 98 113 128
-0.348633 0.007251 0.257782 61 72 68
0.085409 0.263651 0.241249 145 157 159
0.205572 -0.092898 0.177158 124 132 131
-0.144434 0.213847 0.052126 7 13 11
0.159512 0.117096 0.252745 147 159 163
0.333578 -0.147292 0.011925 93 94 90
0.192598 -0.029964 0.254721 154 164 167
0.285480 -0.063772 0.248480 147 154 158
0.250333 -0.171771 0.010070 130 132 123
-0.010211 0.082307 0.072527 81 115 91
0.310412 -0.017316 0.257655 165 170 175
0.331399 -0.011909 0.257228 167 172 179
0.041058 0.275870 0.029397 9 15 13
-0.496739 -0.013085 0.114818 96 115 115
-0.292575 0.242488 0.008969 134 144 132
0.300386 -0.100394 0.008111 67 71 66
0.196891 0.292524 0.252584 150 155 160
0.186261 0.286994 0.251225 147 154 158
0.040397 -0.145291 0.010226 116 128 118
0.179035 0.058684 0.249599 147 159 163
0.101244 -0.043846 0.008232 38 51 48
0.032007 0.035802 0.073703 96 137 115
-0.043706 0.248281 0.106707 21 30 23
-0.255822 0.122442 0.004791 51 65 56
0.318777 -0.196750 0.012391 130 130 124
0.157642 0.056682 0.252522 149 163 169
0.311286 -0.128442 0.009258 130 131 122
0.142892 0.030027 0.243468 157 170 179
-0.145049 -0.173293 0.008892 87 100 95
0.086567 0.060372 0.005308 40 53 50
0.212636 -0.141289 0.009336 121 129 116
-0.366092 -0.100598 0.379254 131 170 175
0.040454 -0.119957 0.010122 96 105 96
-0.189138 0.169592 0.004986 91 100 91
-0.317162 0.345762 0.004907 135 137 128
0.363737 0.164120 0.255435 175 174 181
0.022129 0.270177 0.001739 49 63 54
-0.027841 0.197041 -0.000090 83 97 88
0.100449 -0.032185 0.008340 39 45 43
0.200694 0.212362 0.252263 149 156 162
-0.047055 -0.045855 0.006987 89 109 92
-0.127856 -0.185448 0.008946 114 128 119
-0.150389 0.211296 0.086710 7 13 11
0.147857 -0.042327 0.035403 143 158 155
-0.248655 -0.117647 0.281586 19 27 28
-0.201515 -0.121140 0.006708 123 137 128
0.084224 0.270309 0.034744 95 111 119
0.183525 -0.196388 0.011068 124 131 123
-0.240481 -0.124076 0.264808 9 15 13
0.289274 0.146819 0.253642 165 170 175
-0.209664 -0.108300 0.262801 17 25 22
0.127883 -0.168275 0.010068 128 135 129
0.307265 -0.057783 0.149842 121 132 130
0.297410 -0.047658 0.255624 161 168 172
0.281527 -0.068392 0.019382 88 96 93
0.288850 0.302818 0.255251 163 165 171
0.320056 -0.145264 0.011043 127 132 122
0.233938 0.256117 0.253020 156 161 166
0.271501 -0.070002 0.183157 130 138 139
0.077219 -0.106906 0.009684 108 120 112
0.248426 0.213618 0.254186 159 166 170
0.048728 -0.175274 0.009938 43 55 57
-0.262405 0.189218 0.139822 13 21 22
-0.150980 -0.008305 0.010012 92 107 91
0.062020 0.194112 0.002433 42 56 47
0.125496 0.243088 0.248755 143 155 157
-0.153684 0.157469 0.007074 67 81 70
0.206367 0.037076 0.250552 121 129 130
-0.308237 -0.065977 0.023358 24 37 34
0.219613 -0.078275 0.255158 152 162 165
0.099644 -0.116063 0.009663 114 121 113
0.039634 0.157396 0.002309 86 97 93
0.151272 0.246631 0.056682 92 109 121
0.053578 -0.018444 0.007947 49 69 62
0.183576 0.091081 0.250237 145 159 163
-0.428174 0.026134 0.336896 158 139 137
-0.515619 0.002037 0.443431 161 157 150
0.129837 0.090284 0.256150 144 158 164
0.084607 0.037315 0.005554 60 73 70
0.350929 0.103465 0.254143 170 175 182
-0.239347 -0.181773 0.008080 46 59 56
0.076457 0.128952 0.005910 93 106 101
-0.119112 0.060805 0.006047 74 95 82
0.163845 -0.091478 0.181567 147 160 159
0.237959 0.034949 0.251706 155 163 164
-0.089296 0.241276 0.207917 16 22 24
0.313087 -0.063602 0.005971 88 92 87
0.295844 0.097628 0.253534 167 172 177
0.020358 0.261773 -0.003989 53 67 58
0.158504 0.187265 0.049276 106 123 135
0.293061 0.075529 0.253528 166 173 179
-0.100930 0.141189 0.005095 68 77 68
-0.393400 -0.011031 0.312420 89 95 93
-0.152177 0.211810 0.062103 6 12 10
0.306103 0.022731 0.255864 166 173 177
-0.238789 -0.085360 0.289011 24 35 35
-0.124973 0.035032 0.007958 44 51 45
-0.317981 0.232866 0.008792 142 150 139
-0.544156 0.027157 0.095793 82 82 78
0.124647 0.271815 0.053923 92 109 121
-0.437673 -0.020537 0.351757 207 204 201
0.178714 -0.101685 0.224105 124 130 130
-0.263410 0.164250 0.005228 120 129 120
-0.168056 -0.124279 0.005195 119 128 121
-0.287534 -0.100610 0.334245 87 101 92
0.231413 -0.070171 0.254847 154 161 165
-0.433915 -0.008622 0.357177 231 229 219
-0.199776 -0.121013 0.006288 122 136 127
-0.339703 -0.091676 0.393942 133 170 173
-0.244407 -0.101626 0.292186 29 41 45
0.148251 -0.053496 0.224101 152 167 166
-0.212586 -0.095316 0.267662 6 14 11
0.051146 -0.000558 0.008011 67 85 79
-0.063188 0.244907 0.138620 37 44 38
0.346778 0.154010 0.255531 172 174 182
0.032534 0.274396 0.160451 14 22 21
-0.277780 0.105503 0.007821 115 128 115
0.139487 0.111665 0.047123 92 105 116
-0.181672 0.209089 0.015552 66 78 70
-0.049597 0.278117 0.221671 152 163 163
0.179802 -0.175137 0.009422 52 51 53
-0.370888 -0.059565 0.020592 120 134 125
0.077555 0.270918 0.198781 97 110 119
0.193538 -0.099023 0.229431 127 135 134
-0.274497 -0.124212 0.275917 87 101 90
0.221842 -0.118814 0.007246 126 128 119
-0.193367 0.240460 0.225256 175 188 187
0.141598 -0.110233 0.008890 125 136 132
-0.455928 -0.011726 0.373926 252 255 249
0.198621 -0.061563 0.256464 151 163 167
0.056133 -0.010263 0.007368 67 85 79
-0.168576 0.209022 0.140772 36 43 37
0.311334 0.230509 0.254989 169 171 177
-0.418934 -0.011825 0.345119 251 255 248
0.088634 0.062441 0.005411 32 42 45
0.040613 -0.015118 0.009399 69 87 83
0.337746 -0.049914 0.168713 140 140 142
0.157981 -0.075341 0.117415 156 170 172
0.294232 0.122016 0.253537 165 170 175
0.292048 0.019612 0.255031 164 171 177
-0.141761 -0.041641 0.010326 98 108 96
-0.104369 -0.101408 0.008665 115 127 119
-0.415234 -0.102652 0.257634 83 90 82
-0.531173 -0.114679 0.025200 77 84 76
0.166800 -0.075867 0.249033 147 161 163
0.153495 0.002409 0.113698 148 165 170
-0.421473 -0.084250 0.264014 86 93 85
0.311289 0.154042 0.254822 170 172 178
-0.415192 -0.113997 0.237164 57 65 62
0.286837 0.272260 0.255220 165 168 171
-0.427688 -0.081198 0.023398 97 104 98
0.122202 -0.106618 0.009035 122 134 126
0.125898 0.122595 0.010331 104 114 117
