ply
format ascii 1.0
element vertex 1213
property float x
property float y
property float z
property uchar red
property uchar green
property uchar blue
end_header
0.364935 -0.007271 0.018236 135 139 132
-0.093527 0.515940 0.002574 137 141 134
0.259934 0.347926 0.009516 109 112 111
-0.246365 0.456006 0.000726 142 146 139
0.055431 0.307450 0.002039 36 47 45
-0.473473 -0.026362 0.458611 139 139 133
0.054116 -0.139469 0.033971 42 93 125
0.255270 0.263682 0.008340 130 139 132
0.376318 0.004528 0.018922 136 137 133
0.243979 -0.207009 0.012379 129 132 131
-0.056476 0.400280 -0.000046 133 141 130
0.111686 -0.136457 0.048173 66 122 154
-0.134342 -0.038210 0.001228 107 120 115
-0.049518 -0.212458 0.007122 121 133 125
0.266810 -0.184551 0.012210 138 139 135
0.067545 0.270801 0.001619 59 71 63
0.008766 -0.262639 0.008607 111 122 120
0.328450 0.449950 0.016146 145 145 139
-0.203427 -0.126222 0.211004 26 37 35
0.044005 0.428301 0.000465 120 127 121
0.320120 -0.244867 0.016222 141 138 133
0.155867 0.399962 0.004491 76 82 80
-0.039334 0.333298 -0.000571 70 78 77
0.182067 0.284690 0.004924 74 85 83
0.218646 0.150008 0.006285 101 107 105
0.038213 -0.214723 0.033545 44 92 125
0.386579 -0.254382 0.022856 145 145 141
-0.316114 0.018555 0.019881 116 130 119
-0.106057 -0.109195 0.004033 69 84 79
-0.093902 0.076718 -0.000423 76 88 80
-0.359361 0.096645 0.353101 150 180 185
-0.485530 -0.032069 0.440536 76 77 71
-0.103621 -0.186178 0.004648 52 65 60
-0.468073 -0.071392 -0.000171 82 90 87
-0.438664 -0.019626 0.455506 84 86 92
0.342942 0.296669 0.015582 68 68 70
0.061704 -0.064015 0.004969 106 119 114
0.288468 0.226837 0.010220 131 138 130
0.056374 -0.274198 0.009290 118 124 124
-0.319838 0.487699 -0.002116 148 149 140
-0.083882 0.096441 -0.001166 98 114 103
-0.138320 0.224079 0.029257 140 133 104
-0.362705 0.019830 0.427900 118 120 111
-0.024323 -0.111457 0.005889 113 128 125
-0.464478 -0.026875 0.455565 135 136 132
0.234954 0.438099 0.008849 139 140 134
-0.384990 -0.016698 0.412647 109 117 114
0.124278 -0.152963 0.038548 77 130 163
0.314435 0.424344 0.013936 137 137 131
-0.301958 0.355149 -0.003917 113 120 112
-0.075166 0.224154 -0.003095 39 43 36
-0.482047 -0.031738 0.446280 78 82 77
-0.067868 0.191497 -0.003118 90 100 88
-0.484704 -0.010435 0.481682 117 117 117
0.293337 -0.140460 0.013139 133 137 132
0.347391 0.096065 0.014436 136 140 135
-0.459587 -0.055794 -0.001270 83 91 88
0.377611 0.039402 0.018494 134 141 135
0.132738 0.026898 0.006436 95 108 103
-0.300681 -0.096325 0.390478 56 69 66
-0.136096 0.196058 0.011248 121 117 90
-0.357664 -0.001301 0.418315 83 90 84
0.141644 -0.064475 0.006977 110 123 118
0.209624 -0.150265 0.009274 109 117 114
0.111260 -0.001416 0.005910 103 115 107
0.031427 -0.249670 0.009023 100 118 116
0.166090 0.268165 0.003672 127 135 132
0.214052 -0.226913 0.010340 105 108 107
0.203079 0.289094 0.006088 133 140 134
-0.175329 -0.112357 0.001930 116 129 124
-0.186619 0.380776 0.002116 138 145 137
0.249976 -0.180997 0.011941 58 57 57
-0.319398 -0.213426 0.004895 136 143 137
-0.354875 -0.090482 0.414124 133 167 173
-0.416026 0.001047 0.440705 119 125 125
0.045819 -0.079623 0.005971 104 117 112
-0.019887 0.293516 -0.000792 117 131 122
-0.321921 -0.071883 0.414875 88 96 93
-0.291267 0.236216 0.018639 78 91 90
0.378514 -0.096090 0.018556 137 138 132
-0.119206 0.230467 0.051687 145 138 109
-0.407464 0.031817 -0.002245 132 143 141
-0.431961 -0.003848 0.453103 117 123 123
0.391305 0.113133 0.019856 141 141 137
-0.223028 0.188653 0.044163 131 119 88
-0.034364 -0.054508 0.004374 103 126 118
-0.279240 -0.099406 0.380826 49 62 57
-0.343819 -0.175891 -0.001958 146 153 147
0.167845 0.067170 0.005427 111 125 116
0.388847 -0.031839 0.020640 143 143 137
0.315537 -0.001381 0.013072 131 138 130
-0.255032 -0.104493 0.005773 113 126 121
0.019563 -0.226278 0.008381 103 116 115
-0.225692 -0.087059 0.003656 105 120 117
0.277336 0.150869 0.009710 48 55 59
0.027264 0.052893 0.002552 99 113 104
-0.073977 0.279370 -0.002737 50 58 57
0.087810 -0.259713 0.009576 111 119 120
-0.320286 0.461155 -0.000346 144 145 139
-0.388811 -0.049061 -0.003332 124 135 131
0.311212 0.247038 0.012598 91 91 93
0.116402 0.389624 0.003378 109 118 109
-0.095881 0.504833 0.002210 138 138 132
-0.222315 0.531748 0.001461 141 148 142
0.072396 0.144306 0.002123 103 115 105
-0.318984 0.090945 0.352412 135 169 175
-0.275083 -0.159972 0.004546 132 140 137
-0.495629 -0.008321 0.487665 118 118 120
0.168243 0.418094 0.005493 133 137 130
-0.437500 -0.016558 0.457065 93 95 103
-0.145481 0.027975 0.000483 93 109 100
-0.120677 0.204121 0.028293 139 133 107
0.229213 0.156451 0.007017 131 138 132
-0.056889 0.472008 0.001989 120 127 121
0.190747 0.489475 0.006237 67 71 66
-0.174796 0.114527 -0.003889 65 69 64
-0.224363 0.366135 0.000113 140 148 137
-0.234909 -0.296645 0.004886 143 147 142
0.060076 0.411222 0.001898 108 114 114
0.315557 -0.052921 0.013903 126 130 123
-0.050040 0.400352 -0.000011 132 141 132
-0.311721 0.463664 0.000114 142 146 139
-0.360007 -0.012167 0.408408 73 77 72
-0.360251 -0.082986 0.414904 137 171 179
0.327222 0.425989 0.015472 103 100 97
-0.187866 0.460859 0.002661 136 143 137
0.199285 0.447258 0.006998 140 140 134
0.065200 -0.220605 0.021635 32 80 113
-0.025793 0.057195 0.001598 108 122 113
-0.024198 -0.031082 0.004169 116 130 121
-0.023318 0.027830 0.002346 105 121 110
0.132478 -0.029536 0.006877 112 123 119
0.320095 -0.090743 0.013192 114 117 116
0.300407 -0.069675 0.012290 136 137 133
-0.043521 0.145239 -0.001396 40 52 44
0.250005 0.094295 0.007961 126 132 132
0.149199 -0.277983 0.011452 122 128 126
0.099667 -0.121974 0.069622 65 116 148
0.335732 -0.282606 0.017713 143 143 137
-0.279558 -0.172267 0.004656 132 138 136
0.233150 0.369131 0.008358 138 142 135
0.159567 0.185323 0.003282 117 126 119
-0.481514 0.003676 0.483078 152 149 144
-0.275783 -0.094681 0.398097 59 73 77
0.226540 0.051423 0.008397 124 132 129
-0.445538 -0.055383 -0.002293 91 99 98
0.365717 -0.080754 0.017475 146 143 138
-0.159246 0.112353 -0.003677 102 112 96
0.233262 0.070799 0.007611 54 61 55
0.147478 0.006429 0.006855 61 68 60
-0.238439 -0.170202 0.003393 123 137 128
0.302985 -0.283765 0.015228 142 139 134
0.017578 0.298058 0.000505 121 130 123
-0.328888 0.050362 0.393338 69 82 93
0.022071 0.124500 0.001004 103 116 113
-0.122568 0.179493 0.020089 125 121 94
-0.171782 0.242581 0.049948 135 125 95
0.046786 0.268266 0.001390 109 121 113
-0.088970 0.134041 -0.001999 95 108 93
0.184278 0.265549 0.004264 109 124 119
-0.184862 -0.076596 0.000771 107 122 117
0.177094 -0.209725 0.009345 81 95 101
-0.036312 -0.013065 0.003400 109 128 116
-0.013834 -0.044799 0.004443 107 122 119
0.119685 0.082639 0.003578 105 116 112
0.109353 -0.138360 0.042625 69 122 155
0.387835 0.104579 0.019533 140 147 141
-0.248547 -0.175475 0.003532 127 135 132
-0.466987 -0.032571 0.443689 82 82 78
-0.200614 -0.296501 0.002865 140 144 139
0.244160 0.122591 0.007993 64 72 71
-0.251601 -0.185669 0.002616 130 138 135
0.230688 0.261949 0.006851 132 141 134
-0.124815 -0.272989 0.004331 138 142 137
0.140744 0.239379 0.002902 121 129 126
-0.299670 -0.292525 0.011111 143 147 142
0.303377 -0.114776 0.012634 138 138 132
-0.306714 0.005575 0.387031 42 48 50
0.035952 -0.212345 0.037965 41 92 124
-0.257003 -0.216338 0.002344 134 143 136
0.262803 0.053140 0.009694 126 133 125
-0.026013 -0.291353 0.007785 120 126 124
0.329564 -0.087187 0.013879 137 138 134
0.254259 0.070596 0.008325 83 89 87
-0.267247 -0.180582 0.003083 130 138 135
0.238367 0.003528 0.010039 121 129 126
-0.322693 0.499010 -0.002242 146 147 141
0.355652 0.157065 0.015959 140 141 135
0.397029 0.173404 0.019730 140 141 135
-0.109784 0.155766 0.037905 130 125 96
-0.132124 0.096636 -0.002256 107 117 105
0.105701 -0.040995 0.005839 114 126 118
0.217298 -0.106712 0.009929 98 104 104
-0.192515 0.127666 -0.004080 107 115 100
0.084879 0.523503 0.004233 135 137 128
-0.244001 0.516921 0.001546 147 151 146
-0.440219 -0.027708 0.441025 71 74 77
-0.019215 -0.151559 0.006811 115 128 125
-0.482367 -0.089338 -0.002665 82 88 86
-0.163505 0.160805 0.004991 83 75 51
-0.408378 -0.037010 -0.004700 129 140 136
0.024785 -0.193574 0.021606 106 132 150
-0.296970 -0.079480 0.399667 132 143 139
-0.230521 -0.100329 0.004416 116 129 124
-0.329284 -0.034911 0.403948 80 87 81
-0.491254 -0.047998 -0.001928 82 89 83
-0.022948 -0.296126 0.007865 123 126 125
0.238316 -0.223744 0.011206 127 131 124
-0.397091 0.003171 -0.001382 130 143 140
-0.352462 -0.031037 0.394952 98 104 102
-0.350461 0.018625 0.417459 89 96 90
0.340644 0.490344 0.017868 144 144 138
0.319926 0.112419 0.011791 125 132 126
-0.252805 -0.007072 0.020293 97 112 107
0.101582 0.013164 0.004749 105 114 107
-0.408613 0.023840 -0.002678 130 141 139
0.009462 0.007460 0.002754 95 109 100
-0.010013 0.331038 -0.000412 133 145 137
-0.299995 -0.001420 0.393174 35 41 43
-0.138017 0.178085 0.006824 108 104 79
0.083049 0.371550 0.002320 127 134 126
0.397312 -0.264367 0.023984 149 144 140
0.327827 0.476878 0.016991 144 145 136
0.383949 -0.245945 0.021621 137 138 134
-0.000637 -0.070065 0.005368 98 113 108
0.026298 -0.204106 0.007576 40 56 64
-0.113896 -0.180830 0.004059 123 134 130
0.079160 0.535833 0.003270 136 138 129
-0.206153 -0.070516 0.404670 73 99 101
0.204191 0.243458 0.005121 130 138 135
0.032984 -0.251328 0.009092 113 126 123
-0.325896 0.028420 0.020152 44 55 51
0.262097 0.225003 0.008915 129 136 130
-0.061796 0.542630 0.002415 133 137 132
0.141515 -0.273067 0.011054 118 126 123
-0.069454 0.394926 -0.000239 121 129 128
-0.135660 0.487463 0.001894 142 149 141
0.368250 -0.187917 0.019056 145 142 137
0.097117 -0.251483 0.009258 104 121 133
-0.312544 0.074532 0.349648 135 169 175
-0.065084 -0.163837 0.006215 60 70 73
0.036139 -0.115045 0.005935 116 131 126
0.155629 -0.177960 0.068532 104 146 176
-0.466017 -0.032343 0.443365 83 83 79
0.190360 0.547939 0.005084 134 139 129
0.218525 0.165607 0.006675 131 135 128
0.111359 -0.019479 0.006175 104 116 108
-0.171261 0.156597 0.008336 83 75 51
-0.204720 -0.105952 0.278690 12 20 17
-0.151626 0.121821 0.023797 113 113 91
0.189200 0.255508 0.004852 127 141 132
0.167682 -0.104365 0.008036 112 120 117
0.146233 0.061091 0.004585 96 102 100
0.095967 0.463905 0.004805 129 133 128
0.241618 -0.283355 0.013544 133 133 129
-0.411600 -0.021683 -0.003888 131 142 140
0.102219 -0.214818 0.017780 50 94 130
-0.327453 -0.202586 0.001708 46 51 58
0.322382 0.028839 0.013755 100 100 100
0.109794 0.002652 0.005787 103 115 107
0.024323 -0.168157 0.056445 54 102 135
0.183915 0.243761 0.004295 116 124 121
0.357576 0.501146 0.018763 136 139 138
0.204548 -0.275100 0.012762 133 134 128
0.036601 0.078512 0.002103 100 114 105
-0.049192 -0.158488 0.006062 121 134 129
0.201584 0.123360 0.005891 125 134 127
0.293111 0.019366 0.011633 131 135 128
-0.126742 0.016113 -0.000166 100 116 107
-0.329393 -0.127700 0.003739 42 47 52
0.230316 -0.115977 0.010107 125 132 126
-0.321961 -0.043013 0.012205 119 128 119
0.130913 0.243988 0.003016 125 131 129
0.060407 0.258199 0.002159 116 128 120
-0.106283 -0.253665 0.005179 128 137 130
0.268632 0.144391 0.009121 127 136 129
-0.232416 -0.095115 0.005477 57 72 69
0.045879 -0.223073 0.033886 38 89 121
-0.099820 -0.268359 0.005335 72 71 75
0.185066 -0.202785 0.008880 85 98 95
0.227337 0.410956 0.008839 139 139 135
-0.030159 -0.042658 0.003744 113 129 120
0.117608 0.164609 0.002809 81 92 90
-0.187173 -0.048143 0.001346 104 120 111
-0.302669 -0.186156 0.004761 134 141 135
0.266776 -0.205322 0.012411 138 139 133
-0.154903 0.034709 -0.000932 92 108 99
0.318022 0.112474 0.011657 126 133 127
-0.119948 0.544870 0.001924 134 141 133
0.124096 0.192099 0.002957 63 76 73
0.302154 -0.234582 0.014711 143 143 139
0.081868 0.512095 0.004105 122 123 119
0.109164 0.137403 0.003076 104 117 112
-0.333392 0.018963 0.014136 129 143 132
0.349592 0.421631 0.017934 138 138 140
0.298394 0.254845 0.011480 134 141 135
0.244735 -0.090155 0.010840 84 90 90
-0.119856 -0.052495 0.003341 102 121 111
-0.355018 -0.018397 0.395591 28 36 35
-0.316728 -0.037815 0.013759 115 127 119
-0.493166 -0.031245 0.457432 91 91 85
-0.338585 -0.114221 0.377284 83 113 118
-0.136135 -0.016214 0.000235 102 116 107
-0.035893 -0.002967 0.003110 114 127 122
-0.273208 -0.250386 0.007118 138 145 139
-0.431913 -0.021376 -0.004892 128 139 135
0.387485 -0.103724 0.019235 144 144 140
-0.093667 0.348005 -0.000733 124 136 128
-0.460181 -0.121132 -0.000790 79 85 83
-0.006653 0.313076 0.000029 64 74 77
0.359501 0.539399 0.017738 149 145 138
0.108259 0.394899 0.003247 134 141 135
0.275924 -0.210654 0.013344 129 132 133
-0.049450 0.203381 -0.003261 93 103 91
0.005530 0.263725 0.000162 114 128 119
-0.329492 -0.241151 0.001823 69 72 75
-0.188003 -0.188918 0.001633 125 137 129
-0.171995 0.397745 0.000902 134 143 134
-0.370861 -0.017258 0.372269 79 86 80
0.020795 -0.184463 0.061096 48 101 132
-0.268190 -0.124438 0.005249 104 115 113
0.111187 0.434168 0.004565 129 136 128
-0.069171 0.219721 -0.003462 94 102 91
-0.055425 0.082857 0.000648 105 121 110
0.334908 0.160080 0.014286 138 138 132
-0.073966 0.186952 -0.003343 67 71 66
0.057193 0.151282 0.001435 41 50 43
-0.201727 -0.119807 0.002206 55 66 66
0.151591 0.474584 0.006441 133 134 128
0.163403 0.201804 0.002928 124 132 129
-0.206892 -0.189010 0.002062 126 137 133
0.359400 -0.230477 0.019054 146 143 140
0.066311 -0.293481 0.009738 108 119 119
0.355554 -0.263597 0.019796 150 142 139
0.356542 0.231105 0.015896 135 139 134
-0.326774 -0.069456 0.415290 85 93 90
-0.283769 -0.243535 0.005510 127 131 124
0.188580 0.112449 0.005555 77 83 81
-0.302476 0.005178 0.366694 74 83 76
0.372543 0.144927 0.017881 60 62 70
0.053037 0.237215 0.001020 65 76 72
0.036966 0.501522 0.002276 125 132 124
0.387348 -0.114580 0.018525 144 144 140
-0.229239 -0.136683 0.004080 119 127 126
-0.130825 -0.073423 0.003012 113 126 121
0.110679 -0.160233 0.019855 70 121 155
-0.419888 -0.019086 0.388616 33 39 39
0.035753 0.396456 -0.000138 126 135 126
0.125087 0.180684 0.002778 116 125 118
-0.013957 -0.083290 0.005194 106 120 111
-0.085928 -0.163648 0.005441 61 68 72
-0.166754 -0.084572 0.002229 98 109 109
-0.143525 -0.018462 0.000834 96 115 105
-0.310149 -0.201526 0.004608 94 97 100
0.370533 0.500602 0.019634 145 145 145
-0.276129 0.543561 0.000082 149 151 142
-0.057098 0.217438 -0.003376 95 105 91
-0.329295 -0.012681 0.013926 53 66 61
-0.240265 -0.100931 0.359292 49 63 54
0.337529 -0.264882 0.017925 147 144 139
-0.161822 -0.226589 0.002592 128 136 133
0.036421 -0.058584 0.005660 99 114 109
0.361567 -0.265366 0.020606 150 145 143
0.073259 -0.290308 0.009612 98 116 112
-0.449488 -0.021722 0.394599 147 158 158
0.268017 -0.265700 0.013855 147 144 141
0.141512 -0.163774 0.053042 88 140 176
-0.339657 -0.181509 -0.000284 143 149 147
-0.105047 -0.036508 0.002180 100 115 114
0.390964 0.024298 0.020284 138 139 133
0.220460 0.331413 0.006881 129 133 128
-0.322751 0.226418 0.015122 130 165 168
-0.341656 -0.018920 0.394344 143 158 155
0.165344 0.480252 0.006630 137 138 132
-0.228219 -0.082618 0.430590 117 165 173
-0.196932 -0.098770 0.243460 22 35 32
-0.149827 -0.254890 0.003257 135 143 140
-0.197400 -0.293370 0.003032 98 101 100
-0.363827 -0.005767 0.420469 88 96 95
0.305009 0.080118 0.011357 126 130 123
0.194579 -0.209616 0.008758 74 85 83
-0.106102 -0.112858 0.003979 81 96 91
-0.374250 -0.022781 0.390627 34 40 40
0.128770 -0.284148 0.010064 116 125 116
0.148784 -0.294021 0.011904 115 122 116
0.268857 -0.040338 0.010917 131 137 135
-0.329200 -0.044503 0.010986 44 50 50
0.177117 -0.130056 0.007921 96 107 105
0.111063 0.180592 0.002705 114 123 114
-0.447734 -0.030631 0.434852 61 57 60
0.388511 -0.209138 0.021786 70 66 67
0.053642 0.215854 0.001080 52 63 59
0.111451 0.019115 0.005241 100 109 100
-0.396384 -0.019633 0.396814 56 64 63
-0.094382 0.291935 -0.003450 122 134 124
0.116807 -0.001505 0.006191 37 50 47
0.064288 0.063526 0.002776 96 110 101
0.195541 0.431385 0.006316 71 77 75
-0.103942 -0.208508 0.004712 116 127 123
0.132943 0.511892 0.005378 110 113 116
-0.392185 0.023421 0.436498 152 152 148
-0.085246 0.348031 -0.000609 121 133 125
0.145818 0.250994 0.003602 120 126 124
-0.220518 -0.056194 0.426891 125 160 163
-0.194511 -0.205983 0.001188 119 134 131
0.307812 -0.241238 0.014616 146 143 138
-0.226279 0.166377 0.006047 121 127 110
-0.050179 -0.038803 0.003647 116 130 121
0.042475 0.108861 0.001868 96 115 105
0.063908 -0.241727 0.010436 99 121 133
0.168385 0.530399 0.004724 136 138 129
-0.491765 -0.044158 -0.001910 83 90 84
0.373242 -0.172238 0.019116 143 133 131
0.005829 0.076662 0.001091 104 115 111
-0.191955 0.446684 0.003125 141 145 140
0.137333 -0.225599 0.053809 89 142 175
-0.056734 0.306642 -0.002433 116 131 117
0.157808 0.289827 0.004199 126 138 130
0.329458 -0.107688 0.013769 139 140 134
-0.401571 -0.010213 -0.002815 137 145 144
-0.076435 0.484505 0.003273 136 140 133
0.160346 0.137426 0.003827 117 126 119
0.298116 -0.040590 0.011881 134 138 131
-0.164938 0.099031 -0.003201 105 118 105
-0.243292 0.428924 0.000615 142 147 137
0.148066 0.078158 0.004401 49 52 51
-0.291128 0.347806 -0.004198 137 141 134
-0.027287 -0.137087 0.006306 111 126 123
-0.304065 -0.098910 0.390225 58 71 66
-0.400830 0.045125 0.000234 131 144 139
-0.446688 -0.013525 0.464255 70 66 69
-0.211706 -0.079035 0.002202 110 123 118
0.258365 -0.138447 0.012265 133 134 128
-0.377364 -0.053305 -0.002123 121 132 128
0.357543 -0.018826 0.017230 140 141 135
0.366089 -0.141621 0.017575 143 143 139
0.304421 -0.285352 0.015094 142 138 131
-0.439665 -0.025919 0.446585 50 55 62
0.322058 0.114398 0.012223 134 138 131
-0.265489 -0.182212 0.002649 135 143 140
-0.168293 -0.251493 0.002777 128 136 133
0.165200 -0.017790 0.007504 114 125 121
-0.356375 -0.084679 0.415621 134 168 176
0.068528 0.544576 0.003029 129 133 126
-0.014285 0.435698 0.000227 132 140 137
0.213872 -0.182146 0.009448 107 115 112
0.267355 -0.240929 0.013289 139 139 135
0.397794 0.087133 0.020112 137 138 134
-0.120358 0.478619 0.002720 138 145 137
-0.278165 -0.101314 0.370915 47 58 54
0.030798 -0.007128 0.004257 34 49 48
-0.119997 -0.071626 0.003389 108 123 118
0.243926 0.164926 0.008281 97 105 102
0.218858 -0.216849 0.010685 49 55 55
-0.461086 -0.019810 -0.004174 107 115 112
0.070244 0.091305 0.002713 103 117 108
-0.280668 -0.084697 0.007401 54 62 61
0.366925 -0.103068 0.017023 145 145 141
0.160297 0.494991 0.005766 116 117 113
0.367340 -0.275254 0.021748 147 142 138
-0.421539 0.002781 0.446135 114 117 118
-0.089554 0.104835 -0.000723 100 115 101
0.353752 0.121973 0.014982 139 139 135
-0.202864 0.223246 0.040145 124 117 86
0.132025 -0.269694 0.010310 114 122 119
0.218124 -0.114048 0.009748 111 119 116
-0.208236 -0.076718 0.000946 110 124 115
-0.173268 0.001387 0.000689 67 78 74
-0.192098 -0.087939 0.298547 24 35 33
-0.197597 0.399932 0.000984 110 122 114
0.315572 0.343655 0.012858 124 123 123
-0.161267 -0.096054 0.003097 115 129 120
0.335349 -0.083672 0.014685 139 139 135
0.228255 0.077059 0.007794 127 134 126
-0.275609 0.480789 0.000285 146 148 139
0.257667 -0.052161 0.011267 131 138 130
-0.444553 -0.027118 0.448258 44 55 53
0.080647 0.148836 0.002165 102 118 109
0.027745 -0.278859 0.008678 32 38 38
0.369442 0.237566 0.017172 137 138 134
0.224243 -0.168399 0.010666 50 50 50
-0.180381 0.125131 0.017217 111 115 94
-0.210112 -0.081857 0.410339 118 164 170
0.300888 -0.156759 0.013783 140 141 137
0.070551 0.343482 0.001542 125 132 126
0.319851 0.211502 0.012678 139 140 134
0.282696 -0.202054 0.013106 56 59 58
-0.184796 -0.175198 0.002400 125 137 129
-0.031368 -0.109608 0.005823 115 130 125
0.056703 -0.193830 0.015197 31 79 110
0.317361 0.183607 0.012717 132 139 131
0.001544 -0.270768 0.008871 121 127 127
-0.249234 0.413443 -0.000280 140 147 139
0.198443 0.026340 0.008536 113 126 121
0.338606 -0.166320 0.016546 143 144 138
0.032709 -0.232998 0.008435 107 117 120
-0.043561 -0.191871 0.006771 118 131 126
0.250938 0.060166 0.007981 124 131 123
-0.252835 -0.197537 0.001833 131 140 133
0.101644 0.509193 0.004564 91 93 84
-0.320288 -0.203092 0.004025 91 99 100
0.365945 0.524557 0.018298 150 146 139
-0.334844 -0.197215 0.000588 140 149 142
-0.039234 0.271637 -0.001542 80 95 94
0.370716 -0.268718 0.021165 148 145 142
-0.008807 0.053155 0.001502 103 114 110
-0.288628 -0.133569 0.005542 131 135 130
0.248285 -0.191455 0.012048 128 129 123
-0.230309 0.169079 0.039568 127 123 96
-0.205188 -0.124712 0.259243 32 43 39
-0.316578 -0.096411 0.405928 77 88 84
-0.432988 0.017141 0.453697 155 152 147
0.159771 0.246431 0.003457 126 138 130
0.084854 0.427056 0.002793 120 128 125
-0.307913 -0.155269 0.006720 133 139 137
0.266013 0.208754 0.008608 133 140 134
-0.177609 0.247812 0.055834 132 124 100
-0.057342 0.366516 -0.000602 134 141 133
0.273479 -0.056120 0.011684 125 134 125
0.137034 -0.198475 0.035448 94 140 174
-0.388939 -0.016088 0.416020 119 126 120
-0.245016 -0.097522 0.426460 101 149 157
-0.202900 0.349814 0.001656 134 138 133
-0.143645 0.055283 -0.000378 101 117 108
-0.257344 0.459056 0.000153 141 146 136
-0.215374 0.345126 0.000842 135 145 133
0.135670 0.517652 0.005395 136 138 127
0.024385 0.036332 0.002350 102 115 114
0.121517 -0.152285 0.036062 77 130 163
-0.288301 0.234129 0.007339 124 137 134
0.140914 0.222152 0.003825 117 126 119
0.340824 0.269970 0.015029 99 104 109
0.321019 0.073429 0.012197 143 140 135
-0.336996 -0.145198 0.002130 136 143 135
0.334213 0.490678 0.017360 146 146 140
0.363274 -0.017022 0.017736 139 140 136
-0.055246 -0.079439 0.004632 121 134 129
-0.487699 -0.036055 -0.002857 82 89 83
0.067618 -0.207443 0.015021 30 75 104
0.332300 0.083908 0.012736 137 137 131
0.147715 0.455473 0.006008 136 137 131
-0.231523 -0.078194 0.434359 116 164 172
-0.114737 -0.261753 0.004831 133 141 138
-0.127612 0.122467 0.058121 118 119 90
-0.056416 -0.005021 0.003003 62 73 69
0.289185 0.217522 0.010016 133 140 132
0.282701 -0.088592 0.012086 78 68 78
-0.239486 0.247083 -0.004551 132 142 130
0.207280 0.049450 0.007888 119 128 121
-0.292287 -0.260360 0.008746 75 79 74
0.137886 -0.148793 0.066970 80 131 165
-0.316792 0.236131 0.003718 127 155 159
0.193283 -0.057333 0.008960 116 125 118
-0.141992 0.195806 0.007755 114 108 82
0.344198 -0.063136 0.015835 128 128 130
0.179933 -0.146728 0.009371 104 112 113
-0.056927 0.094137 -0.000482 105 121 110
-0.238191 -0.221330 0.001949 134 143 136
-0.305136 -0.201419 0.004101 96 99 102
-0.362180 -0.104608 0.405808 121 155 163
-0.271578 0.330692 -0.004824 134 141 133
0.301707 0.473273 0.014201 142 144 135
-0.081826 -0.282902 0.005442 103 103 105
0.162647 -0.228354 0.009456 95 107 111
-0.123189 -0.010543 0.001106 99 115 106
-0.338953 -0.080454 0.417886 93 101 98
-0.122464 0.098779 -0.002081 104 117 104
-0.190844 0.380582 0.002284 140 145 135
-0.051957 -0.185007 0.007001 120 133 128
-0.200216 -0.116339 0.253108 18 25 29
0.116075 -0.279220 0.009509 118 125 119
0.291055 -0.016813 0.011428 134 138 131
0.004685 0.089861 0.000343 103 117 106
0.386156 -0.047075 0.019727 145 146 142
0.136523 0.399945 0.004135 129 136 130
0.107973 0.449987 0.005194 129 136 128
-0.143601 0.025948 0.000462 102 113 109
0.238855 0.126966 0.007984 127 134 128
-0.050241 -0.090766 0.004830 113 131 125
0.105355 -0.065854 0.005130 113 127 118
0.396824 0.234420 0.018844 143 140 135
-0.195650 0.010497 0.002703 95 111 102
-0.264575 -0.040925 0.012332 89 95 95
0.223667 -0.281611 0.012918 129 129 133
0.263836 -0.201910 0.012502 140 141 135
-0.379880 0.053344 -0.003856 123 136 131
-0.018582 -0.174529 0.006867 109 124 121
-0.091988 -0.208582 0.005014 121 134 129
-0.113331 -0.287474 0.004535 127 136 129
-0.100633 0.285237 -0.004611 122 134 124
0.356858 -0.161241 0.017458 148 144 137
-0.272314 -0.026312 0.014474 107 121 112
0.340902 -0.281075 0.018117 146 143 138
0.299510 -0.285300 0.014818 141 139 131
0.114676 0.176067 0.002661 107 118 114
-0.024489 -0.075877 0.005522 112 128 119
0.223152 0.390735 0.007403 71 74 73
0.119489 0.485561 0.006044 135 136 130
-0.194406 -0.053201 -0.000734 109 121 113
-0.289680 -0.041228 0.012886 111 125 116
-0.038339 -0.270466 0.007546 129 136 130
-0.455259 -0.031463 0.435981 50 56 54
-0.444127 -0.024178 0.412071 38 46 45
-0.132877 0.247194 0.057546 142 136 110
-0.301318 -0.076215 0.403576 40 51 49
0.314723 -0.109530 0.013652 125 125 125
0.133169 -0.274538 0.010236 116 124 121
0.350257 0.371598 0.017570 141 141 137
-0.410447 -0.003924 0.433648 123 131 130
0.136994 0.265637 0.003288 118 126 123
-0.189450 0.209978 0.021409 117 105 74
-0.104500 0.316038 -0.002410 48 59 59
0.246838 -0.132953 0.011996 130 131 127
-0.339180 0.041422 0.401009 93 100 94
-0.217680 -0.171879 0.003111 128 139 135
-0.181258 0.298772 -0.000587 132 142 130
0.198052 0.375429 0.006290 133 137 130
0.000708 -0.202227 0.006882 108 123 122
-0.342454 0.028269 0.408423 91 95 88
-0.403662 -0.046854 -0.004236 128 139 135
0.361218 0.456096 0.019267 145 145 141
0.258848 -0.189831 0.012504 138 139 133
0.095971 0.013208 0.004579 104 113 106
-0.319203 -0.059643 0.010771 118 130 122
0.056449 -0.178022 0.014061 37 81 113
0.153850 0.130956 0.003357 117 124 118
-0.327337 -0.022676 0.395915 87 93 93
0.329445 0.004421 0.013809 135 136 132
-0.085075 0.233951 -0.003748 75 80 68
-0.230545 -0.283891 0.004147 122 128 126
-0.052383 -0.149610 0.006100 122 136 127
0.228510 -0.040096 0.009869 127 134 128
-0.450033 -0.018729 0.461836 123 126 125
-0.354662 -0.111250 0.395597 104 138 144
0.385052 -0.195238 0.020824 144 144 138
-0.212868 -0.271008 0.003373 138 145 139
-0.324421 0.380530 -0.003595 138 142 135
-0.228140 0.502802 0.001772 80 80 74
0.165104 -0.295702 0.012245 122 126 119
0.079836 0.215651 0.001857 114 126 116
0.176193 0.307150 0.004687 122 126 121
0.012967 0.034408 0.001888 66 79 76
0.111310 0.115709 0.002341 110 119 112
-0.118526 -0.111064 0.004050 116 129 124
0.100002 -0.257947 0.008615 113 125 127
0.280069 -0.016634 0.010856 121 127 127
0.053183 -0.169904 0.016469 37 88 120
-0.192504 -0.073263 0.329554 37 50 49
0.351233 0.173813 0.014358 139 140 134
-0.322582 -0.107618 0.394040 61 72 68
-0.398845 -0.017092 0.406369 78 91 86
-0.045348 -0.237594 0.006948 119 130 126
-0.333983 -0.138195 0.002672 135 142 136
0.171643 -0.295768 0.012598 121 125 120
0.347171 0.083310 0.014159 137 138 132
0.020695 0.007480 0.002841 29 40 36
-0.490413 -0.014592 0.481673 140 140 136
0.066828 -0.119138 0.065959 65 107 133
-0.415938 -0.050698 -0.004380 132 140 137
0.147137 0.004230 0.007280 71 80 71
-0.012173 -0.247786 0.008129 118 129 125
0.347516 -0.074580 0.015875 137 138 129
0.177459 -0.037769 0.008364 113 122 115
0.238975 0.045099 0.008701 120 129 122
0.049358 -0.007223 0.004701 59 69 74
-0.282412 -0.091821 0.395080 60 73 70
-0.490965 -0.018924 0.478354 140 140 136
-0.286115 -0.087235 0.396581 62 80 78
0.244998 0.312744 0.008686 138 141 140
-0.301205 -0.252094 0.007903 140 147 141
-0.212986 -0.094462 0.003578 114 127 122
0.167964 -0.117253 0.007889 98 112 114
-0.096553 -0.175796 0.004877 118 133 128
0.349333 0.187225 0.014908 109 113 108
-0.433208 -0.021478 0.427645 94 101 95
0.182896 0.198726 0.004499 111 119 116
-0.073175 -0.207046 0.005726 118 133 128
0.008280 -0.042785 0.004463 93 108 103
-0.424547 -0.054552 -0.004429 127 135 132
-0.034036 -0.288023 0.006851 115 124 134
0.251779 0.122296 0.008666 128 137 130
-0.009916 0.032016 0.002344 59 70 70
-0.337469 -0.113954 0.382337 93 123 128
-0.364808 -0.006223 0.421119 92 100 101
0.332300 0.433254 0.016611 145 145 139
0.000418 -0.050822 0.005167 84 104 97
-0.269733 -0.163447 0.004386 99 107 106
0.306170 -0.204057 0.014351 141 141 135
0.238891 -0.006432 0.009829 128 134 132
-0.041199 0.004988 0.003247 115 130 125
0.058454 0.038050 0.003574 93 112 100
-0.143413 -0.098174 0.004041 113 126 121
0.046743 0.202022 0.000608 108 120 110
-0.138654 0.243015 0.053339 140 133 104
0.256094 -0.063541 0.010775 127 134 128
-0.191263 0.235965 0.045614 132 122 92
0.137504 -0.204011 0.037653 93 141 174
-0.244812 -0.103396 0.405162 83 125 126
-0.132044 0.121194 -0.003416 90 103 88
0.227814 0.238146 0.006347 134 138 133
0.222991 -0.164871 0.010692 110 114 107
-0.225338 -0.149087 0.003668 123 134 130
-0.246647 -0.221329 0.001993 133 142 135
-0.299812 0.401720 0.000071 138 145 137
0.328080 0.279880 0.014612 140 141 135
0.099209 -0.254775 0.056067 85 128 151
-0.083635 0.109374 -0.001003 95 108 93
-0.095068 -0.189701 0.004908 122 135 130
-0.376941 -0.101541 -0.004459 119 130 128
0.155913 -0.199695 0.069455 106 146 175
0.314135 -0.214551 0.015539 61 60 60
0.287527 -0.212473 0.013847 134 135 126
-0.067086 -0.287814 0.006031 64 67 68
-0.266723 -0.102334 0.364710 124 136 126
-0.031430 0.320418 -0.000134 125 135 123
-0.026098 0.186431 -0.001665 91 104 89
-0.299183 -0.105779 0.359987 118 133 128
0.145272 -0.295593 0.011889 120 127 121
0.112967 -0.079464 0.006025 112 123 119
0.150624 0.300100 0.003581 77 85 82
0.211494 0.382736 0.007284 134 138 131
-0.299073 0.005409 0.018228 74 85 81
0.207149 0.152411 0.005827 94 100 102
0.146997 0.035396 0.006026 69 81 73
0.186153 -0.287816 0.012265 88 79 82
0.300569 0.163588 0.011544 136 140 135
0.315990 0.010970 0.012510 133 137 130
-0.055236 -0.182979 0.005758 121 134 129
-0.264299 0.218414 -0.000889 129 136 128
-0.319590 -0.073952 0.413795 90 98 95
0.220358 -0.171824 0.010265 105 104 108
-0.110837 -0.061835 0.002703 107 123 114
-0.014354 -0.193663 0.007022 115 130 129
0.107990 0.191947 0.002945 69 80 78
-0.010881 0.359492 -0.000726 131 140 131
-0.482209 -0.049679 -0.002504 83 90 84
-0.244407 0.002600 0.385766 41 51 56
-0.214061 -0.095508 0.327307 87 103 94
-0.372316 -0.090855 -0.002953 114 125 121
0.216086 0.422725 0.007373 131 135 130
0.258982 0.215903 0.008314 132 139 131
-0.273450 -0.124432 0.005204 107 118 116
0.344470 -0.278009 0.019050 144 136 135
0.294727 -0.162043 0.013593 138 142 137
-0.416912 0.002695 0.442387 113 121 120
0.375521 0.239392 0.018144 140 140 142
0.033209 0.000968 0.004098 96 110 101
-0.257631 0.158685 0.095482 59 73 64
0.252782 0.113891 0.007956 135 138 137
-0.381647 -0.045674 -0.001974 120 133 128
-0.143893 0.168126 0.004337 104 98 72
-0.112185 0.403979 0.000905 135 144 137
0.182225 -0.043677 0.008565 70 76 76
-0.183527 -0.046712 0.002749 99 119 112
0.288101 0.529565 0.011248 82 82 78
0.396269 -0.250971 0.021986 142 146 141
-0.187295 0.248633 0.057851 129 122 101
-0.312764 -0.135630 0.006384 128 137 130
0.168577 0.292628 0.003925 127 136 129
0.211496 0.272069 0.005953 86 89 92
0.116835 0.317860 0.002666 117 126 117
-0.256558 -0.254958 0.005016 138 147 138
-0.354823 0.011388 0.421257 86 93 87
-0.003607 -0.155097 0.006769 113 126 123
-0.244960 -0.091549 0.005848 111 124 119
-0.230233 0.423521 0.000890 66 67 63
0.032050 -0.198820 0.037140 40 96 128
0.183156 0.523699 0.006041 140 141 135
-0.385210 0.010077 -0.003352 107 118 116
-0.397446 0.047499 -0.000399 131 144 141
-0.160053 -0.026298 0.000525 102 118 109
-0.075171 0.138402 -0.001630 82 94 86
0.210659 0.471850 0.007570 123 127 122
-0.237974 -0.136716 0.004166 118 132 123
-0.348199 -0.001324 0.412089 82 90 87
0.046388 0.512434 0.003002 133 137 130
0.373992 0.058514 0.017640 93 93 93
0.032137 0.194654 0.001026 114 126 116
-0.095464 -0.010884 0.002265 100 116 105
0.195621 0.075463 0.006232 121 130 121
0.369360 0.063005 0.016965 138 139 133
0.002761 0.021779 0.002459 94 110 101
-0.304417 -0.079433 0.404438 80 91 87
-0.338589 -0.126956 0.001123 133 140 134
-0.219666 0.216124 0.050804 128 120 94
0.180230 -0.292685 0.013085 119 123 118
0.188104 0.547930 0.005047 134 139 129
-0.358644 -0.114385 0.382949 95 125 130
-0.135638 0.515408 0.002296 140 147 141
0.244862 -0.016461 0.010034 71 74 75
-0.056114 -0.207212 0.006441 132 144 136
-0.021149 0.116272 -0.000730 114 126 118
0.333258 0.454754 0.017056 143 143 137
-0.109174 -0.218574 0.004256 126 134 131
0.307773 -0.109357 0.013050 135 136 130
-0.340921 0.094018 0.361304 134 167 171
-0.260390 0.215496 -0.003685 126 136 124
0.020543 -0.160518 0.007192 101 123 124
-0.305974 -0.213343 0.004429 142 146 141
-0.189307 -0.033966 -0.000229 107 119 111
-0.161371 0.402741 0.001495 144 145 139
0.311526 0.006904 0.012490 119 119 115
0.258617 0.472976 0.010459 136 137 133
0.110612 0.130896 0.002803 105 116 112
-0.249964 0.372370 -0.001735 141 148 140
-0.147855 0.177663 0.003485 105 99 73
0.060126 -0.246663 0.010358 51 53 63
0.109813 -0.175260 0.017016 59 110 142
-0.112255 0.152456 -0.003361 92 103 82
-0.265229 -0.087477 0.433963 126 170 177
-0.215771 -0.178719 0.002543 124 135 131
-0.392325 -0.022598 0.392354 48 54 54
0.096095 0.376376 0.003100 132 133 127
-0.439514 -0.023592 0.451260 60 58 65
-0.069911 -0.023062 0.003286 109 123 114
-0.336588 -0.002454 0.403039 84 96 88
-0.248544 -0.028973 0.016576 14 21 27
-0.133682 0.315620 -0.002362 95 105 108
0.073796 -0.071719 0.005263 111 124 119
0.217599 -0.203079 0.010130 101 104 105
-0.003027 0.089896 0.000162 104 118 107
0.369481 -0.108585 0.016910 147 147 143
-0.276463 -0.226843 0.004701 140 146 144
-0.210247 0.394433 0.001001 118 129 125
0.342003 0.264998 0.015208 59 66 70
-0.311637 0.500543 -0.000569 146 147 141
-0.249456 0.204336 0.003305 124 136 126
-0.021958 0.240328 -0.001418 113 122 113
-0.325171 -0.001110 0.399007 81 90 83
-0.166794 -0.236535 0.002253 90 98 95
0.124477 0.217898 0.002791 118 130 122
0.059428 -0.256416 0.009777 41 46 51
0.011355 -0.274024 0.008901 118 124 124
-0.148967 -0.042216 0.001393 79 90 88
0.216912 -0.270333 0.013111 124 128 123
-0.172009 0.048913 -0.000513 59 73 64
-0.068050 -0.207081 0.005870 123 133 138
-0.020487 0.133575 -0.000075 103 117 106
-0.017548 -0.153340 0.006818 115 128 125
0.251300 0.076952 0.008339 125 137 129
-0.315050 0.030470 0.388598 89 96 90
0.094345 -0.127388 0.053039 60 116 148
-0.156601 0.319234 -0.000804 135 148 135
0.252983 0.115939 0.008235 127 136 129
0.234577 -0.073101 0.010624 126 130 125
0.180979 0.373425 0.005163 125 131 129
0.334506 0.377496 0.016398 139 141 132
-0.180491 -0.121614 0.002256 75 83 82
0.013343 0.108930 0.001301 102 117 103
-0.285534 -0.241891 0.005528 65 66 62
-0.095315 -0.002759 0.001921 102 114 106
-0.341669 -0.098560 0.412173 89 100 98
-0.067494 0.131737 -0.001506 95 108 93
0.369424 -0.289604 0.021403 137 138 134
0.213277 0.092693 0.006317 79 79 79
0.331525 0.114067 0.013000 135 139 132
-0.377966 -0.011975 0.422972 136 142 140
-0.226664 0.295330 -0.003598 128 141 128
-0.274905 -0.273431 0.009892 144 148 143
-0.117203 0.036871 -0.000674 53 64 60
0.389806 0.074616 0.019464 145 145 139
-0.128126 0.125704 -0.003559 93 103 89
-0.125491 -0.088487 0.003037 111 124 119
-0.340863 -0.113035 0.388646 95 127 134
-0.112796 -0.073529 0.003469 111 125 116
0.397593 -0.087328 0.020497 146 143 140
0.051744 -0.290195 0.009251 105 113 110
-0.220737 -0.075562 0.003012 110 122 114
-0.027530 0.369333 -0.000313 131 140 131
-0.237097 -0.066721 0.004682 105 120 115
-0.111977 -0.161659 0.004525 126 137 135
-0.237863 -0.185710 0.002775 128 136 133
-0.233221 0.169908 0.023062 93 96 80
-0.044529 -0.172689 0.006494 116 131 128
-0.096183 0.055311 0.000198 97 113 104
0.139837 0.128666 0.003279 112 121 114
0.005726 -0.204002 0.007162 114 126 128
-0.408942 -0.101438 -0.004990 120 128 125
0.246210 -0.159892 0.012046 125 126 120
-0.303099 0.004385 0.370297 71 80 73
-0.486496 -0.007961 0.483793 119 118 118
0.281040 -0.032643 0.011397 129 135 133
0.099571 -0.292050 0.010145 109 121 113
-0.265515 0.500769 0.000120 143 145 136
0.175593 -0.037795 0.008415 117 126 119
0.016355 -0.195751 0.008585 108 123 122
-0.074446 -0.054610 0.004289 29 43 45
-0.051600 0.505593 0.002268 128 135 127
0.103499 -0.230128 0.027553 68 116 149
-0.148940 0.520688 0.002505 142 146 139
0.145875 0.169141 0.003297 114 120 118
-0.329502 -0.006046 0.399665 31 42 40
0.010058 -0.160492 0.007072 122 135 132
0.072688 0.073959 0.003219 107 120 117
0.342224 -0.266534 0.018027 148 143 139
-0.086491 -0.191446 0.004976 118 131 128
-0.100223 -0.292414 0.005532 44 47 50
-0.052699 0.548367 0.002698 119 122 123
-0.093992 0.484476 0.002950 135 142 134
-0.317413 0.219252 0.022810 125 164 169
0.264674 -0.044133 0.010599 129 135 133
0.264927 -0.030448 0.010628 129 136 130
0.013020 0.512192 0.002587 120 127 121
-0.148281 0.322567 -0.001783 133 142 133
0.218619 0.425557 0.007266 131 137 135
-0.348557 -0.112917 0.391017 95 129 135
0.248192 0.440512 0.009493 137 138 134
0.356496 -0.220324 0.018715 144 140 133
-0.071437 -0.205401 0.005995 48 58 65
-0.229658 0.479947 0.002180 79 86 80
0.274596 -0.237686 0.013694 145 145 141
0.101147 0.008985 0.005033 105 117 109
0.301721 0.059086 0.010973 130 134 127
-0.223295 0.209129 0.051012 132 122 94
-0.026512 0.398021 0.000035 132 141 134
0.050728 -0.111308 0.005838 112 129 130
-0.148437 0.367091 0.000313 134 143 136
-0.100584 -0.211944 0.004882 108 121 116
-0.070022 -0.154848 0.005670 119 130 126
-0.084130 -0.238867 0.005180 126 134 131
-0.324780 -0.047138 0.407844 78 86 83
-0.487452 -0.037982 -0.002887 82 89 83
0.273114 -0.273916 0.014462 146 143 140
0.365546 -0.284785 0.021196 146 141 139
0.215872 0.173208 0.005299 128 136 133
0.349315 -0.139448 0.016184 138 142 135
-0.019068 -0.075876 0.005563 106 121 116
0.143513 0.383689 0.004747 126 133 125
-0.139775 -0.240039 0.003014 139 147 144
0.019710 0.465523 0.001380 124 132 121
-0.217152 0.502996 0.001781 141 146 136
0.391460 0.124079 0.019855 139 140 136
-0.133666 0.323279 -0.002502 128 142 133
-0.055822 0.264805 -0.002561 103 116 103
0.180426 -0.043629 0.008417 67 73 71
0.266265 0.239513 0.008619 134 138 133
-0.044427 -0.212532 0.007457 117 126 119
-0.067604 -0.248991 0.006198 113 118 123
0.286814 0.201224 0.009822 132 139 131
-0.023495 0.063989 0.000596 106 122 113
0.319665 -0.113084 0.013225 137 138 132
-0.087783 -0.168949 0.005526 115 130 127
-0.106007 0.380443 0.000728 139 146 140
-0.047344 0.038546 0.001102 106 125 113
0.296861 0.099904 0.010389 127 134 128
0.256215 0.270929 0.008454 76 82 84
-0.416311 -0.017609 0.404627 71 79 76
0.299520 -0.116578 0.012484 135 136 130
0.259757 -0.285020 0.013630 143 138 136
0.215584 -0.078788 0.010453 79 85 83
0.301588 0.082360 0.011095 128 132 127
-0.387411 -0.012266 0.423233 134 137 136
0.286771 -0.262646 0.014871 136 139 140
-0.201453 -0.265958 0.001888 137 146 139
0.223987 -0.182402 0.010522 116 120 115
-0.266311 -0.055846 0.434486 127 171 178
0.027039 0.048793 0.002379 99 113 104
0.146236 -0.072167 0.007169 111 120 113
0.173288 -0.295780 0.012652 121 125 120
0.043324 0.091653 0.001626 101 113 103
-0.218502 -0.102773 0.278022 11 22 18
-0.036230 0.363913 -0.000194 131 139 138
-0.474973 -0.049718 -0.002327 83 92 85
-0.311600 -0.151752 0.006764 130 138 135
0.039703 0.040238 0.003069 96 110 101
0.274974 0.515029 0.011150 142 144 135
-0.447852 -0.124396 -0.001969 79 82 81
0.018303 -0.192302 0.008559 106 121 120
0.276133 0.029932 0.010693 54 54 56
-0.234845 -0.173718 0.003478 123 135 127
-0.211572 -0.090618 0.401566 67 91 91
0.377830 -0.062278 0.019113 143 143 139
-0.062173 0.341260 -0.001417 126 135 126
-0.139833 -0.012308 0.000360 22 37 34
-0.196372 -0.095466 0.288836 90 99 92
-0.100661 0.136542 -0.002698 89 102 87
0.240862 -0.078940 0.011105 127 130 129
0.066684 0.095583 0.002731 101 117 106
-0.069615 0.289309 -0.002780 119 131 121
-0.008000 0.486816 0.002025 134 138 131
0.251861 0.504891 0.009259 134 135 126
0.028712 -0.241326 0.008547 102 109 113
-0.191387 0.211039 0.023364 119 107 76
-0.474490 -0.028734 0.420777 36 39 38
-0.434988 0.023513 0.451037 155 152 149
-0.237036 -0.079125 0.435886 121 169 177
0.351133 -0.261855 0.019157 148 141 135
-0.292074 -0.101329 0.367941 24 31 35
0.394972 0.248212 0.019634 140 140 136
-0.072932 0.002952 0.002931 104 120 111
0.176322 0.012510 0.007193 116 125 118
-0.151092 0.023945 0.000273 98 114 105
-0.054762 -0.217408 0.006539 125 133 130
0.305788 0.390943 0.012105 131 132 126
0.375250 0.084202 0.017081 137 136 136
-0.323752 -0.177556 0.004942 132 138 136
-0.206242 -0.271001 0.003220 141 145 140
0.049302 0.122300 0.001409 103 117 108
-0.311087 0.452533 0.000290 144 148 141
-0.246659 -0.254831 0.004123 140 147 139
-0.377214 0.115183 0.326219 146 176 181
0.339308 -0.240146 0.017445 146 143 138
0.169619 0.082229 0.005123 120 127 121
0.073430 -0.075604 0.005507 113 126 121
0.372284 -0.230814 0.020705 146 143 140
-0.083037 -0.032995 0.003447 104 120 111
-0.390566 -0.029813 -0.002923 124 137 134
-0.117850 -0.238584 0.003935 128 137 130
0.105587 -0.228295 0.026617 72 120 153
0.217964 -0.126998 0.010137 89 89 93
0.178578 -0.292675 0.013047 120 124 119
-0.277951 0.024357 0.020851 67 80 75
-0.236171 -0.069829 0.438126 122 167 176
0.270225 -0.281894 0.013995 143 143 137
-0.066461 0.248173 -0.003206 98 106 95
0.190888 0.386485 0.005456 131 131 133
-0.412466 0.024076 -0.003270 125 136 134
0.389351 -0.229331 0.021562 144 144 140
0.034606 -0.058569 0.005600 98 113 108
0.226350 -0.225237 0.010302 110 113 112
-0.294504 -0.208244 0.004224 62 73 71
0.264186 -0.220656 0.012507 138 139 135
-0.252644 -0.101098 0.359467 48 59 55
0.301950 -0.246129 0.014197 145 145 139
-0.168467 -0.238132 0.001917 134 141 135
0.135603 0.491822 0.005654 129 136 128
-0.343876 -0.089141 -0.002280 123 135 125
0.047159 -0.087031 0.005587 52 64 66
-0.024072 0.238022 -0.001588 109 118 111
-0.129408 0.367434 0.000228 133 145 137
-0.193488 0.534739 0.001942 140 147 141
-0.179501 -0.282242 0.002713 65 64 66
-0.245552 0.431784 0.000379 112 116 111
0.204122 -0.247024 0.010905 102 101 108
0.038160 0.484244 0.002691 132 139 131
-0.249464 0.242353 -0.004814 127 137 123
0.170160 -0.037676 0.008043 114 122 119
0.095854 0.142053 0.002521 105 117 109
0.087070 -0.192746 0.010388 30 70 101
-0.320184 0.532927 -0.001840 154 155 146
0.256766 0.157959 0.008793 134 138 133
0.302169 0.198359 0.010973 136 140 135
-0.341698 -0.057092 0.412596 97 104 98
0.307227 -0.112980 0.012814 138 138 132
0.132025 0.397380 0.003929 126 135 128
-0.159863 -0.256469 0.003041 130 141 137
0.161699 0.265678 0.003667 117 130 127
0.160899 0.407847 0.004742 129 136 130
0.251240 0.448386 0.009957 134 134 130
0.207172 0.324225 0.006042 133 140 132
-0.183975 0.123997 0.027262 113 116 95
-0.254837 -0.100092 0.428680 108 154 160
-0.297588 0.016620 0.370560 44 55 53
-0.074733 0.005032 0.002746 86 99 94
-0.212690 -0.091019 0.402310 67 95 101
-0.417683 -0.013393 0.370057 91 93 82
-0.250548 -0.104405 0.385884 47 62 57
-0.304487 0.066184 0.335685 86 94 95
-0.493186 0.013864 0.484084 157 154 151
0.097130 0.389603 0.003032 81 84 85
0.038761 0.111140 0.001624 54 67 62
-0.307329 0.424770 0.001124 138 145 137
-0.223990 -0.283845 0.003676 132 138 140
-0.315471 -0.093121 0.407261 79 90 86
-0.059602 0.133951 -0.001377 96 109 94
-0.295504 0.007269 0.018567 116 129 124
-0.159577 -0.288795 0.003557 134 138 133
0.090204 -0.092395 0.005077 100 124 134
-0.333331 -0.212878 0.002304 147 154 146
-0.285814 -0.211667 0.004387 133 141 138
-0.300111 0.002711 0.356062 82 86 79
0.167152 -0.124515 0.007642 95 113 120
0.150638 -0.031654 0.007463 100 113 108
0.306528 0.065348 0.011170 131 132 126
0.017192 -0.236319 0.008500 112 123 123
-0.017097 0.540074 0.002966 133 140 132
-0.271386 -0.228421 0.004203 138 144 142
-0.113588 -0.149188 0.004359 122 135 130
0.122783 -0.263098 0.009847 114 122 121
0.049594 -0.189417 0.018395 35 88 119
0.277771 -0.084909 0.012294 124 124 124
0.155792 0.376381 0.004240 98 102 97
0.146359 -0.180656 0.052630 92 143 177
-0.023167 0.494835 0.002206 133 137 130
-0.382656 0.009294 0.437920 136 139 138
-0.234811 -0.087976 0.430655 109 159 167
0.387808 -0.165685 0.021036 144 144 138
-0.077804 0.409610 0.001205 135 142 136
-0.248614 0.225982 -0.001443 123 136 123
-0.021976 0.057224 0.001586 108 122 113
-0.269549 -0.074586 0.434368 126 170 177
-0.010184 -0.146228 0.006940 118 131 130
-0.310625 0.360161 -0.003889 140 149 142
-0.128665 0.005739 0.000414 101 116 111
-0.283211 0.503440 -0.000066 144 148 141
-0.471895 -0.004841 0.478151 128 124 125
0.250334 -0.210443 0.012447 80 79 88
0.280207 0.312226 0.010066 60 63 66
-0.071234 -0.258788 0.006045 131 142 138
0.152246 -0.068212 0.006811 115 126 124
-0.196643 0.172857 0.018642 96 84 53
0.010172 -0.212776 0.008382 104 119 118
0.324251 0.028817 0.013830 97 97 97
-0.221169 -0.224640 0.001594 133 141 138
-0.453249 -0.028874 0.442528 58 61 64
-0.307580 -0.102267 0.388854 57 69 61
-0.326122 -0.066252 0.414456 85 92 86
0.024708 -0.042957 0.005086 93 107 98
0.033185 0.246536 0.001075 115 127 119
-0.314133 -0.108172 0.370547 43 54 52
-0.045577 -0.200388 0.006438 117 128 124
0.375899 0.131514 0.018087 132 140 137
0.391015 -0.229352 0.021660 148 145 142
0.012605 -0.254518 0.008798 117 125 124
-0.268319 -0.250249 0.006260 136 143 137
0.373507 -0.170531 0.019314 98 82 87
-0.260377 -0.142241 0.004621 121 132 128
-0.227910 0.494446 0.001654 102 103 99
0.240350 0.081253 0.008121 123 127 120
-0.161728 -0.236592 0.002521 128 139 135
0.273776 0.153207 0.009495 133 139 137
0.204672 0.533652 0.005084 143 145 136
0.323583 -0.058802 0.014253 138 140 131
-0.035541 -0.083166 0.004656 120 135 132
0.373904 0.302132 0.018982 67 66 73
0.220071 -0.073038 0.010320 117 128 124
0.168796 0.255722 0.004165 127 135 132
0.199319 -0.276681 0.012649 127 127 123
0.221303 0.356845 0.007207 132 132 134
-0.270464 -0.079371 0.433476 125 171 177
0.308024 -0.264488 0.015890 141 141 137
-0.139856 0.059354 -0.000073 73 84 80
-0.200949 -0.077857 0.364041 36 51 46
-0.307230 0.500461 -0.000387 145 146 140
-0.154952 -0.239928 0.002542 139 145 143
-0.048349 -0.183066 0.006122 118 131 126
-0.357351 -0.114544 0.383300 93 125 132
0.094177 -0.123483 0.063212 63 114 146
0.373898 0.183734 0.017326 101 101 103
-0.336458 0.028597 0.010541 120 134 125
-0.240195 -0.100228 0.416885 88 129 135
-0.090056 -0.198267 0.004710 122 133 129
-0.069613 -0.260436 0.006130 64 72 71
-0.437670 -0.026272 0.432658 74 87 84
-0.207786 -0.090464 0.002771 110 123 118
-0.248123 -0.093586 0.431144 118 166 174
-0.266235 -0.068040 0.436857 127 171 178
0.173688 -0.007982 0.007981 64 72 73
-0.327054 -0.075494 0.416403 88 96 93
0.134634 -0.177763 0.034157 92 140 173
0.198537 -0.238685 0.010734 106 109 108
-0.495503 -0.120781 -0.002159 77 86 79
0.168756 0.399947 0.004761 137 138 132
0.191226 -0.130198 0.008478 94 95 89
-0.210249 0.194051 0.031981 123 111 80
-0.063028 0.085116 0.000295 104 120 109
-0.193751 -0.161123 0.002302 73 76 79
-0.253654 -0.093140 0.432613 121 170 175
-0.162256 -0.180511 0.002739 122 135 130
-0.206332 0.511581 0.001923 86 92 90
0.129407 0.340937 0.002626 124 133 126
-0.171098 0.313736 -0.000406 57 65 62
0.351882 0.201311 0.014616 135 139 134
0.033582 0.120249 0.000888 100 114 105
-0.029664 0.011401 0.002545 112 128 119
-0.019715 0.298339 -0.000582 118 132 123
0.040802 0.270822 0.001108 51 62 62
-0.340423 0.008932 0.408077 85 92 86
0.068673 -0.185782 0.010203 27 72 101
-0.447864 -0.065085 -0.001824 85 93 90
0.341290 0.030535 0.014809 63 58 66
0.192308 0.545007 0.005134 86 90 83
-0.322737 -0.061330 0.010158 118 129 125
-0.342499 -0.080350 0.417644 97 105 102
0.383508 -0.217489 0.021223 141 141 137
0.322328 0.407364 0.015160 142 143 139
0.339050 -0.030336 0.016220 136 140 135
-0.088577 -0.208616 0.005161 118 129 125
0.109436 0.230067 0.001998 89 95 95
-0.284856 -0.201271 0.003364 65 71 71
0.239063 0.230897 0.006693 72 79 73
0.332435 -0.118985 0.014562 139 140 134
0.120210 0.439265 0.005167 130 134 127
0.177310 -0.279739 0.011949 124 125 119
-0.052800 0.461058 0.001911 130 139 132
-0.118621 0.094628 -0.002358 104 116 106
0.219598 -0.201355 0.010098 44 47 48
-0.409311 0.050355 -0.002268 129 140 136
-0.166107 -0.143503 0.003013 125 138 137
0.283114 -0.198709 0.013523 72 68 69
-0.167782 0.196640 0.005939 80 73 44
0.080941 0.013196 0.004425 100 112 104
-0.456831 -0.033172 0.427938 59 58 58
0.122570 -0.168458 0.024627 90 136 170
0.378193 -0.181090 0.019566 143 140 137
0.204796 0.045216 0.007995 120 129 122
-0.220543 -0.093294 0.406509 99 143 148
-0.348947 -0.039981 0.400273 98 105 99
0.395747 0.001917 0.020586 144 144 140
0.364409 0.503528 0.019406 94 97 98
0.253221 0.133202 0.008967 134 141 133
0.199640 0.187147 0.004764 121 130 123
-0.120696 0.205746 0.029362 140 134 108
-0.185774 -0.027787 -0.000983 106 120 111
-0.205687 -0.290233 0.003478 139 146 140
-0.272749 -0.233476 0.004567 138 145 139
-0.372014 0.009739 0.433487 140 143 142
-0.244942 -0.077491 0.437492 123 171 179
-0.446930 -0.107321 -0.004107 82 88 86
-0.346969 -0.010812 0.402127 95 103 100
0.092122 0.527724 0.002916 140 141 132
0.312472 -0.040941 0.012961 124 124 126
0.119967 -0.272870 0.010109 116 124 121
