ply
format ascii 1.0
element vertex 1213
property float x
property float y
property float z
property uchar red
property uchar green
property uchar blue
end_header
-0.450320 -0.010537 0.397637 62 70 69
0.242422 0.215289 0.009024 134 137 136
0.021529 0.183319 0.000499 57 64 58
-0.134540 -0.179584 -0.001167 45 58 53
0.019469 -0.205105 0.050236 109 130 147
0.349789 0.240298 0.016289 137 141 136
-0.034737 -0.019164 0.003795 113 131 125
-0.498776 -0.021306 0.419805 88 89 83
0.329252 0.163491 0.004168 139 140 134
0.091727 0.296230 0.004491 122 129 123
0.107136 0.159745 0.003227 111 123 115
-0.135922 0.332686 0.008852 72 85 80
0.325944 0.185102 0.006401 137 138 132
0.117021 0.029295 0.010118 31 39 40
-0.412528 -0.003614 0.387692 82 96 87
-0.045041 0.230340 0.002659 38 47 38
-0.374322 -0.008535 0.367833 37 43 43
0.170419 0.354800 0.005520 131 138 132
0.293318 0.393562 0.018567 140 142 133
-0.438300 0.045976 0.405562 139 140 136
-0.412989 0.030100 0.406684 121 127 125
-0.148390 -0.190523 0.001033 128 136 133
-0.384519 -0.061164 0.375015 142 174 181
0.229630 0.339080 0.000046 133 140 134
0.240630 -0.227628 0.022365 138 139 133
0.303703 0.377350 0.005826 141 145 140
-0.141692 0.016655 -0.001622 80 94 85
0.154056 -0.143176 0.053466 85 105 118
-0.365910 -0.055653 0.378161 99 112 107
-0.498668 -0.002111 0.437572 151 151 147
0.181482 -0.209818 0.017779 37 47 50
0.362287 0.099180 0.012777 139 140 134
0.114400 0.236586 0.010535 89 95 95
-0.245534 0.495142 0.000512 144 148 141
0.194167 -0.099963 0.011935 117 126 119
-0.444572 -0.024521 0.396823 147 159 161
-0.136294 0.199650 0.024150 137 133 108
0.336042 0.269258 0.005066 137 138 134
-0.199013 0.183314 0.012384 101 89 58
-0.157132 0.407551 0.005525 135 144 135
-0.219845 -0.258257 0.004792 139 146 140
-0.134454 -0.133167 -0.001625 119 134 131
0.045723 -0.292762 0.004728 117 124 118
-0.152304 0.252485 0.046041 138 131 102
0.307376 0.309882 0.003222 137 138 132
0.096412 -0.257714 0.017107 110 122 126
0.037495 -0.145789 0.037583 52 103 135
0.086822 -0.246487 0.027552 51 98 125
-0.114978 0.189456 0.030000 139 135 108
-0.165517 0.388959 0.002126 120 116 117
0.061724 -0.225291 0.020085 35 86 118
0.380207 -0.165658 0.007011 81 68 76
0.334214 -0.014990 0.007304 134 138 131
0.380892 0.168550 0.008132 132 139 131
-0.272347 0.306198 -0.002214 128 137 128
-0.312105 -0.135211 -0.001492 127 136 129
0.141142 0.129343 -0.002142 112 121 114
0.107331 -0.042983 0.005961 115 127 119
0.155171 0.208828 0.006608 120 133 128
-0.128451 0.150508 0.015862 118 112 86
0.346373 -0.147107 0.011283 87 90 89
0.395697 -0.039247 0.014480 146 146 140
-0.124853 0.035148 0.003098 42 55 50
0.276831 0.497912 0.004837 142 144 135
-0.466463 -0.008720 0.401290 82 82 78
-0.087579 -0.051807 0.012332 92 115 109
0.377724 -0.219269 0.021701 138 138 138
-0.303989 0.047137 0.362837 125 160 163
-0.016130 0.420170 0.012483 94 98 93
0.092258 0.424681 0.009133 69 75 75
0.167574 0.482533 -0.002417 134 139 127
0.203080 -0.271234 0.008619 128 129 125
0.149841 0.488672 -0.000111 137 137 131
-0.237344 -0.083044 0.260169 26 37 35
-0.272217 -0.211793 0.004928 132 141 134
-0.338854 0.045762 0.386491 89 96 90
-0.141663 -0.070114 0.004331 110 124 115
0.210501 -0.042984 0.006969 120 124 119
0.178288 0.092523 0.006151 106 110 105
-0.053912 -0.047561 0.001012 108 124 115
-0.060593 -0.251552 0.001841 124 135 133
0.112931 -0.122994 0.056063 65 121 151
0.182896 0.073712 0.009675 122 128 126
0.182516 -0.117089 0.013530 49 55 55
-0.036540 0.182190 0.001475 93 106 91
-0.095225 0.109821 -0.002044 93 108 92
-0.198528 -0.059803 0.293165 28 40 46
0.356425 -0.167587 0.007579 71 71 73
0.341372 0.079569 0.017340 135 135 135
0.044772 -0.236269 0.034309 105 123 132
0.069628 0.110464 0.003393 50 61 59
0.098341 0.222045 0.003266 117 126 117
0.142857 -0.173252 0.050151 93 141 176
-0.181827 0.238764 0.031010 129 119 87
0.008532 0.032541 0.006041 75 88 85
-0.282575 -0.103611 0.372776 45 58 55
-0.058845 -0.024742 0.002654 114 128 119
0.375107 0.299092 0.009137 137 138 134
0.300080 -0.256035 0.014304 140 137 134
0.029600 -0.216513 0.034206 102 134 145
0.284167 -0.265390 0.011660 113 112 112
-0.189819 -0.062525 0.266789 25 36 32
0.297217 -0.250566 0.011243 143 140 135
-0.002846 -0.101464 0.009510 105 123 119
0.229554 0.025132 0.011687 114 128 119
0.324003 -0.248404 0.017498 69 69 71
0.065819 -0.259523 0.018622 111 124 123
-0.284204 -0.105421 -0.003306 118 130 122
-0.207964 -0.059466 0.382411 72 98 100
0.225834 -0.084323 0.015789 123 127 122
0.053706 -0.151026 0.031236 35 91 123
-0.019010 -0.160782 0.001255 110 123 120
0.276126 0.331105 -0.002217 140 144 139
-0.026781 0.414425 0.009477 137 138 132
-0.363759 -0.041605 0.373733 93 101 98
0.046366 0.054790 0.003233 94 108 99
0.268122 -0.091738 0.015862 92 95 96
0.002544 0.410971 0.014300 127 136 129
0.166011 0.018080 0.013045 112 124 116
-0.046950 0.284772 -0.002958 116 130 119
-0.498889 -0.005738 0.432567 145 145 141
0.146912 0.003906 0.008057 71 80 71
-0.175310 -0.114085 0.001571 116 129 124
-0.353967 -0.104060 0.352686 80 105 110
-0.302735 -0.253308 -0.004315 142 149 141
-0.283313 0.418100 0.003194 138 145 137
-0.352795 -0.050235 0.378884 95 103 100
-0.177289 -0.098060 0.003453 115 129 120
0.246927 -0.182800 0.004809 120 124 119
-0.084826 0.367285 -0.002139 133 142 135
-0.340968 -0.066307 0.385013 92 100 97
-0.289312 0.400708 -0.001780 138 147 138
-0.154566 -0.298064 0.001536 138 146 143
0.076745 -0.255327 0.031951 101 114 113
0.399641 -0.119585 0.016928 146 146 140
-0.210332 0.311406 0.002144 81 90 83
0.322221 -0.176750 0.008868 140 141 132
-0.310348 0.053289 0.367710 129 165 171
0.076462 0.099362 0.003954 104 118 109
0.355819 0.458262 0.023048 141 140 140
0.174654 0.352856 0.004747 121 127 125
0.185267 -0.257122 0.012427 104 110 108
0.011184 -0.198278 0.042121 108 123 122
0.005148 -0.264214 -0.002005 116 124 123
0.277930 -0.283089 0.010950 141 141 135
0.073124 0.294480 0.003097 123 132 125
0.368469 0.003945 0.010566 144 145 141
-0.190505 -0.156447 -0.002071 121 133 125
0.294347 0.543129 -0.003361 82 82 78
-0.030919 -0.140573 0.005878 112 127 124
-0.206965 0.531700 -0.004440 144 148 141
-0.227155 -0.105807 -0.001708 115 129 120
-0.381404 0.005179 0.381721 40 47 51
0.006997 0.168283 -0.001436 100 116 107
0.077487 0.313333 -0.002336 67 75 74
0.229981 0.373909 -0.001384 136 140 133
-0.338785 0.013422 0.376955 81 93 85
0.077931 0.546346 0.001324 132 134 125
0.225055 -0.122197 0.012478 120 124 117
0.279424 -0.143459 0.010895 135 136 130
-0.197753 -0.142630 -0.000279 121 132 128
-0.310630 -0.076197 0.385768 79 90 86
0.320639 0.095104 0.007374 130 135 125
-0.037009 0.430088 0.009829 110 110 110
-0.461012 0.046458 0.422734 87 90 89
0.051116 -0.127786 0.036457 50 103 132
0.045140 -0.152524 0.030272 39 95 127
-0.360017 0.020695 0.388507 86 90 85
0.239536 0.004817 0.006954 121 129 126
0.110613 -0.232885 0.024694 78 126 161
-0.411228 -0.073492 0.349684 153 157 152
0.229853 0.433504 0.017528 138 139 133
-0.379281 0.009274 0.387004 48 47 54
-0.197548 0.125745 0.019837 111 120 100
-0.345010 0.012903 0.377623 86 98 90
0.374237 0.311325 0.005977 132 139 133
-0.185540 -0.143507 -0.003617 122 133 129
0.362484 0.092127 0.013914 139 140 134
-0.063194 0.137853 -0.004548 95 108 93
0.288389 0.140819 0.007789 133 137 132
0.151116 0.252861 0.008222 130 133 132
-0.041803 0.258789 -0.000548 35 51 42
0.378802 -0.011920 0.010123 123 123 123
0.135199 -0.194153 0.031354 94 140 174
-0.077021 0.262513 0.007813 109 119 107
-0.307623 -0.277766 -0.003715 147 151 144
0.228552 0.363088 -0.000949 135 139 132
-0.271400 -0.197935 0.003680 132 139 133
-0.016464 0.385992 0.002079 123 132 125
-0.298359 -0.237354 -0.001166 140 147 139
0.151434 0.150142 -0.003173 44 55 51
0.281270 0.039980 0.011383 123 131 128
-0.159864 -0.259014 -0.001416 133 141 138
0.285436 0.309886 -0.000771 90 91 87
-0.167512 0.374283 0.000749 62 68 66
-0.375722 -0.086713 0.367809 120 154 162
-0.430255 0.033036 0.408617 129 129 129
-0.104480 -0.005277 -0.001845 100 106 104
0.018186 -0.249383 0.007513 113 128 125
0.066325 -0.251387 0.027943 48 54 54
0.379354 -0.208506 0.026763 143 135 134
-0.218150 -0.054728 0.412990 121 162 168
-0.396952 -0.069734 0.361810 147 159 161
-0.096131 0.055754 -0.000759 97 113 104
0.299134 0.450205 0.012013 142 143 139
-0.087688 -0.054129 0.013454 98 116 110
0.362653 -0.248666 0.018581 72 64 63
0.351784 -0.056637 0.013843 143 143 137
-0.213206 -0.075935 0.268644 20 31 29
-0.244246 -0.069832 0.417284 123 171 179
-0.224332 0.203451 0.027591 132 122 92
-0.344953 -0.028023 0.380642 88 96 93
0.016601 -0.264614 0.000372 113 121 120
-0.242415 0.257727 0.019190 119 132 119
0.247257 0.043636 0.012025 119 127 124
0.153127 -0.280736 0.008157 120 127 121
0.050744 -0.131481 0.036932 48 99 131
-0.027335 -0.093604 0.007993 109 127 121
0.128159 0.064996 0.018257 36 47 43
0.005127 -0.209529 0.009107 97 115 113
-0.257973 -0.093157 0.408204 99 140 144
0.266238 -0.210945 0.006653 132 133 129
-0.161474 0.417290 0.003303 135 142 134
0.345407 -0.256342 0.015573 142 139 134
-0.107940 0.020613 -0.000935 26 42 33
-0.265856 -0.042424 0.419439 130 169 176
0.083491 -0.036180 0.008386 69 82 77
0.103852 -0.240219 0.028794 65 116 148
0.116839 -0.183041 0.020506 71 119 152
0.258448 0.445171 0.013919 139 140 134
0.067957 -0.248404 0.029382 99 117 124
0.171629 0.103131 0.006468 120 130 118
0.184524 0.492550 -0.003846 131 138 130
0.308142 -0.105485 0.018433 136 136 130
0.065336 0.218313 0.004913 112 121 112
-0.267252 -0.226829 -0.004124 135 141 139
0.280709 -0.112342 0.016593 136 135 135
-0.134258 0.019211 0.002006 98 114 105
0.103683 -0.005000 0.004771 102 113 109
-0.249457 -0.087201 0.315238 43 56 51
0.351689 0.429406 0.021624 144 144 140
0.066619 -0.036775 0.009790 103 114 110
0.130800 0.323518 -0.001450 128 137 130
0.334956 -0.234375 0.022164 143 143 137
-0.145268 -0.070089 0.004230 111 124 119
-0.206999 -0.246335 0.001914 134 143 136
0.112459 -0.180741 0.018130 61 112 144
0.041664 -0.283000 0.003629 114 121 115
0.128339 -0.262815 0.008002 110 116 116
-0.087893 -0.080574 0.007758 110 124 115
0.060218 -0.255616 0.014749 95 106 106
0.326042 0.023577 0.011763 135 139 132
0.389783 0.131932 0.013432 140 140 140
0.399765 -0.264652 0.015605 149 144 140
0.114643 -0.208254 0.018631 74 122 155
0.333855 -0.199375 0.008629 147 142 138
-0.167036 0.327246 0.005350 122 128 128
-0.238928 -0.086061 0.256508 38 51 50
0.197116 0.425944 0.006368 124 131 123
-0.327427 -0.011006 0.389110 42 45 48
-0.208973 -0.062048 0.384488 80 104 106
-0.072567 -0.135189 -0.000638 40 58 56
0.023136 0.427733 0.010607 140 144 139
0.243901 -0.042947 0.012441 103 103 103
-0.051567 0.135044 -0.003287 96 109 96
0.205522 0.245856 0.008863 132 139 133
-0.132331 0.065480 0.004848 100 114 105
0.217915 0.113595 -0.000460 77 88 88
0.097565 0.212619 0.003267 118 127 120
-0.204616 -0.084270 0.212064 13 21 20
0.177392 0.451029 0.008603 137 139 130
0.261724 0.096850 0.003040 127 134 128
-0.137931 -0.010851 -0.003275 94 109 106
-0.012084 0.402700 0.007787 132 139 131
-0.466508 0.004626 0.414123 80 79 83
-0.124673 0.080110 0.005276 105 117 107
0.217293 -0.227023 0.010885 103 103 105
0.213585 0.419960 0.007406 136 140 133
-0.230546 -0.087953 0.335340 53 67 58
-0.088778 0.048455 0.001589 95 111 102
0.029268 -0.192598 0.046432 43 96 129
-0.280854 0.412257 0.003860 141 145 138
-0.288383 0.493738 0.010661 147 147 141
-0.094453 0.048493 0.001430 98 114 105
-0.471472 -0.024184 0.409384 40 40 42
-0.273876 0.391620 -0.000012 129 136 130
-0.186313 0.500815 0.001687 137 142 132
-0.074378 0.005247 -0.002628 81 94 89
0.176489 0.021294 0.010453 116 128 120
0.031777 0.256437 0.000650 113 127 118
0.109634 -0.042301 0.004143 114 126 118
0.071096 -0.188191 0.005648 27 72 101
-0.397928 -0.063368 0.365846 142 161 163
0.108107 -0.223273 0.018056 70 121 155
-0.260504 -0.088395 0.409238 114 158 165
-0.209045 0.109361 0.053784 108 116 103
0.093681 -0.230080 0.018852 35 86 118
0.029846 0.430956 0.010109 129 133 126
0.347799 0.362281 0.002392 139 140 131
-0.003376 -0.247357 0.005577 72 79 83
-0.450578 0.006743 0.415605 127 133 135
-0.349826 -0.014043 0.377067 100 106 106
-0.395947 0.020822 0.405103 120 126 124
-0.288948 -0.068974 0.403048 123 160 161
0.284026 -0.228067 0.015789 117 114 111
0.167973 -0.068605 0.002544 115 122 116
-0.415884 0.008880 0.411060 120 123 124
0.331368 -0.136869 0.013374 138 139 133
0.233034 -0.189024 0.001478 112 119 113
0.273897 -0.065421 0.021672 89 95 93
0.144145 0.297613 0.003458 124 133 126
-0.240129 -0.254584 0.002559 139 146 140
-0.316702 -0.042566 0.383579 75 84 77
-0.060432 -0.248146 0.001225 122 135 132
0.122797 -0.267657 0.007783 119 125 123
0.382450 0.014676 0.009377 139 139 133
-0.159431 -0.103031 0.001694 115 129 120
0.314677 0.072820 0.013367 137 137 131
-0.047348 0.219075 0.001757 90 100 86
0.006844 -0.085101 0.010809 102 115 110
-0.335078 -0.243585 -0.003004 145 152 146
-0.159398 -0.106861 0.002120 113 128 123
0.250486 -0.143801 0.012041 107 110 109
0.107111 -0.299965 0.009909 115 121 119
0.208014 -0.121507 0.010061 110 119 112
0.205631 0.351863 -0.000268 127 137 125
0.399108 -0.253660 0.018495 143 147 142
0.331761 -0.259971 0.017873 140 140 134
0.079765 -0.288909 0.010893 93 108 107
-0.168292 -0.255742 -0.001259 132 140 137
-0.061908 0.194979 -0.001087 59 68 61
0.051226 0.379785 0.004609 126 133 125
-0.209845 0.161865 0.021924 107 97 65
0.258315 0.370612 0.003482 138 139 133
-0.322724 -0.254866 -0.004560 144 144 140
-0.000797 0.022381 0.001021 97 113 102
-0.016191 0.199070 0.004450 97 106 97
-0.234373 -0.088575 0.362519 55 70 69
0.161773 -0.250884 0.014599 98 105 99
0.320458 -0.173576 0.010291 136 134 126
-0.002123 -0.155583 0.008615 114 127 124
0.067052 0.527717 0.005555 133 135 126
-0.491341 -0.036560 0.421763 52 84 106
0.122156 0.136240 -0.002834 107 120 115
0.356403 -0.213453 0.018227 148 141 135
-0.143058 -0.262173 -0.002363 137 145 142
-0.238018 -0.084752 0.412739 102 150 158
-0.433476 -0.005018 0.402938 104 110 108
0.052266 -0.163205 0.024417 37 88 120
-0.039817 -0.096760 0.006135 115 129 120
-0.044714 -0.231802 0.002702 121 129 128
-0.028650 0.520286 -0.000887 136 141 131
-0.067497 -0.061100 0.006424 117 131 122
-0.370948 -0.071827 0.379302 131 165 173
-0.249804 0.371048 -0.000011 141 148 140
-0.039468 0.001026 0.003116 111 126 121
-0.275611 -0.211770 0.004833 131 140 133
0.034018 -0.083024 0.010416 107 121 112
-0.166724 0.523240 -0.003814 143 150 142
0.074049 -0.019900 0.006842 103 115 107
-0.058435 0.422441 0.005601 130 135 125
-0.256568 0.251668 0.013721 128 138 126
0.078794 0.012684 0.005607 100 112 104
0.287954 -0.276510 0.009911 83 82 84
0.215142 -0.292820 0.013291 123 127 120
0.392941 -0.049897 0.011643 143 146 145
-0.265117 0.440798 0.002189 142 149 143
0.174198 -0.105183 0.016607 113 121 118
-0.228139 0.216024 0.036636 127 123 96
-0.144786 -0.252853 0.000819 133 141 138
-0.205952 -0.107067 0.201410 29 37 34
0.300893 -0.260944 0.014251 141 141 137
-0.305571 -0.072286 0.388850 76 87 85
0.032347 -0.212650 0.039400 47 95 126
-0.407048 -0.079735 0.348011 147 151 146
-0.460889 0.022290 0.424729 77 83 85
0.356319 -0.000298 0.006005 139 140 134
0.384693 0.288463 0.006694 136 136 136
-0.353554 0.011356 0.384361 82 88 86
-0.210064 -0.089577 0.217148 12 20 19
0.292341 0.263768 0.008872 134 141 133
0.040689 -0.270292 0.005101 118 124 124
-0.025290 -0.018495 0.002194 113 128 123
-0.304325 -0.000445 0.368263 67 78 74
-0.269900 -0.062039 0.001887 107 120 115
-0.187147 0.049120 -0.001166 102 116 105
-0.195109 -0.260298 -0.003112 143 143 145
-0.326215 0.373438 -0.004590 138 142 135
-0.316923 -0.281298 -0.001236 63 62 62
0.174524 0.130899 -0.000378 121 130 123
0.362725 0.248661 0.018378 137 138 134
-0.215965 -0.275974 0.004389 140 147 141
-0.026237 -0.080705 0.002997 111 125 116
-0.363280 0.004950 0.377765 67 79 71
-0.182474 0.116056 0.001450 82 91 82
0.105980 -0.000884 0.004552 103 115 107
-0.314976 0.042603 0.373626 90 97 91
0.289643 -0.186712 0.006526 138 139 135
-0.301317 -0.072655 0.392121 30 40 43
-0.006932 -0.212750 0.008335 71 76 81
-0.150854 -0.024347 -0.004443 101 117 108
-0.002119 0.440974 0.010466 130 139 132
-0.281561 -0.040195 0.005072 109 123 112
0.132059 -0.026758 0.009871 110 121 117
0.034516 0.268493 0.000830 114 126 118
0.087219 0.293229 0.005161 55 63 60
-0.099638 0.363540 -0.004344 132 138 136
-0.319849 -0.014485 0.387727 39 47 48
0.040195 -0.296127 0.006300 117 123 121
-0.307231 -0.100386 0.365785 48 59 55
0.078292 0.379638 0.008695 117 129 121
0.364237 0.113839 0.009730 133 133 127
0.132703 -0.156311 0.044479 78 129 163
0.390488 -0.283558 0.012032 147 143 146
0.234020 -0.022873 0.006029 128 132 127
0.114426 0.394080 0.004406 132 139 133
0.125088 0.336779 0.001235 116 130 121
0.011550 0.333732 -0.003721 120 134 125
-0.325748 -0.060488 0.384886 90 98 95
0.335704 0.228514 0.015881 88 88 90
-0.435288 0.008431 0.411350 128 131 132
0.047957 0.206928 0.007900 108 120 112
0.063484 0.008623 0.005447 101 113 105
-0.328442 -0.013826 0.388869 67 72 77
0.244610 0.192653 0.011796 71 71 71
0.005266 -0.233288 0.010189 116 127 125
0.126212 0.314763 -0.003462 72 72 74
-0.248317 -0.073353 0.018259 109 121 113
0.320060 0.354933 0.004727 62 62 66
-0.263422 0.507328 0.002317 153 148 144
0.361535 -0.143770 0.018826 145 145 139
-0.134510 -0.172321 -0.002199 58 71 68
-0.291722 -0.184400 -0.002790 130 138 135
-0.324371 -0.025789 0.384530 78 87 80
-0.314640 0.431356 -0.003750 143 145 136
-0.081237 0.257181 0.008509 105 115 103
0.176937 -0.050096 0.004819 116 125 116
-0.168411 -0.245885 -0.001088 129 141 133
0.357423 -0.014408 0.006092 135 139 132
-0.044543 0.365090 -0.001906 128 137 130
0.095126 -0.290232 0.008549 107 117 120
0.195952 0.195047 0.006981 126 138 130
0.390171 -0.057196 0.010365 141 141 137
-0.345268 -0.089396 0.370819 73 86 85
0.032137 -0.238415 0.019675 108 118 121
0.215645 0.454665 0.014799 136 136 132
0.348626 -0.101618 0.018184 138 140 131
-0.308047 0.002569 0.370653 67 78 74
0.284401 -0.219357 0.014338 115 117 123
-0.365551 0.063920 0.380871 97 108 108
-0.356508 -0.008462 0.372835 177 184 192
-0.189296 0.296062 0.006691 130 142 132
0.128476 0.409489 0.005396 128 134 132
0.064933 0.062425 0.009573 96 110 101
-0.220528 -0.078077 0.385494 106 150 155
0.019297 0.139076 -0.001408 45 53 50
0.042625 0.287017 -0.004639 123 132 125
-0.100124 -0.051034 0.010094 95 118 112
-0.348327 -0.066257 0.384807 94 100 98
-0.028143 0.195531 0.002430 97 107 95
-0.141469 -0.153905 -0.004878 123 134 130
-0.002678 -0.184868 0.013724 110 123 120
-0.018364 0.190818 0.002747 49 58 49
0.243316 -0.001988 0.003904 121 128 122
-0.144995 -0.152287 -0.004234 122 135 130
-0.210849 0.220407 0.033697 129 117 86
-0.384696 -0.018755 0.367165 90 88 76
0.143886 -0.078244 0.013858 112 121 114
0.298120 0.027262 0.017022 81 80 80
0.144372 0.310985 -0.001344 123 132 123
-0.240120 -0.256101 0.001853 139 146 140
-0.267273 0.440812 0.002129 138 145 137
0.019080 0.432979 0.010716 131 138 130
0.231378 -0.288811 0.006836 88 87 87
0.098723 0.422686 0.008406 119 126 118
-0.460974 0.034866 0.423960 62 62 64
-0.257289 -0.060109 0.421404 127 173 179
0.030790 0.540551 -0.002842 68 69 63
0.051329 -0.013814 0.001243 90 106 97
0.077278 -0.068644 0.007424 111 124 119
0.337909 -0.176857 0.009308 146 147 138
0.065021 -0.069547 0.004415 109 120 116
0.188738 0.081949 0.005967 123 132 125
-0.300552 -0.099855 -0.003431 123 137 128
-0.144377 0.419099 0.007988 136 144 133
-0.159001 -0.159329 -0.004638 91 99 96
0.188742 -0.276901 0.003327 119 119 119
-0.331886 -0.069557 0.385990 90 98 95
0.196902 0.069282 0.005842 118 130 120
-0.067187 0.414708 0.005039 134 138 133
0.073442 -0.252325 0.033245 50 60 67
0.126614 -0.065032 0.008436 110 123 118
0.101775 -0.158873 0.021356 53 106 137
-0.004396 -0.070387 0.006274 101 114 109
-0.223981 0.436575 0.004815 140 147 141
-0.166325 -0.281592 -0.002197 58 57 61
0.399182 0.200674 0.012623 138 139 135
-0.155264 -0.193603 -0.000615 124 135 131
0.399704 0.358928 0.011276 145 145 141
-0.196558 -0.270046 -0.003281 67 66 66
-0.350209 -0.106349 0.351738 103 121 119
-0.198544 -0.100444 0.004991 111 129 123
0.086422 -0.188525 0.007073 28 70 100
-0.105814 0.050286 0.001911 103 115 107
0.397839 -0.183278 0.021428 146 143 138
-0.093012 0.014628 -0.001049 101 115 106
-0.060488 -0.296943 0.002782 131 137 135
0.031075 -0.186339 0.048299 43 96 129
-0.199567 -0.060207 0.002725 112 120 119
-0.113089 -0.280443 -0.000003 141 144 145
0.086782 0.377659 0.008038 119 126 120
0.263084 0.433313 0.015164 140 142 133
0.149093 -0.216025 0.039260 94 142 175
-0.248349 -0.084578 0.414705 116 164 172
-0.001077 -0.099862 0.010311 107 122 119
0.236599 0.151363 0.000049 120 127 119
-0.388921 -0.050270 0.373328 139 171 178
0.315678 -0.103620 0.018433 136 137 128
0.324585 -0.105294 0.017931 139 139 133
0.122931 -0.285202 0.006240 108 114 116
0.017794 -0.115975 0.008916 109 124 119
-0.267866 -0.053202 0.416565 127 171 178
-0.355550 0.004145 0.372114 40 48 45
0.169731 0.019747 0.013936 114 126 118
0.281663 0.202511 0.007609 133 140 134
0.295019 -0.228536 0.018120 143 141 133
-0.051889 0.323569 -0.004913 123 132 123
-0.159904 -0.255461 -0.003074 130 141 137
-0.011097 0.167412 -0.000198 50 62 54
0.272985 0.148487 -0.002363 128 137 130
-0.121189 0.020817 0.003162 98 114 105
0.349609 0.129604 0.008890 138 138 134
0.232953 -0.076241 0.019773 126 130 125
-0.064135 0.452623 0.005130 133 140 134
-0.159168 0.392770 0.004098 140 141 135
-0.351269 0.015395 0.385209 82 91 84
-0.169784 0.200074 0.007855 82 72 44
0.218686 0.196442 0.012753 137 137 133
-0.162594 0.062665 0.014733 100 115 101
-0.126098 0.137327 -0.004546 96 102 85
0.093922 0.217354 0.003151 118 127 120
0.281154 -0.246228 0.014969 150 150 150
0.384564 0.341958 0.009525 138 138 140
-0.312377 -0.036530 0.383214 69 78 71
-0.008517 -0.074934 0.008443 104 117 114
0.237657 0.006525 0.007690 124 132 129
-0.469317 -0.005915 0.408025 47 52 57
-0.190986 0.385278 -0.000382 140 142 133
0.101777 0.142081 0.002561 106 120 111
0.337042 -0.099310 0.016691 140 138 130
-0.179990 -0.261923 -0.003397 137 145 142
-0.233115 -0.088376 0.375893 92 136 139
0.103375 -0.140473 0.037697 66 122 154
-0.106531 0.251165 0.031405 63 62 45
-0.074835 -0.068273 0.005063 39 52 47
0.394161 -0.219587 0.023169 141 141 137
-0.330644 -0.227761 0.001191 145 152 146
-0.009687 -0.170988 0.006725 114 129 126
0.273550 0.309231 -0.003653 135 139 134
-0.201109 -0.022020 0.033696 55 66 62
-0.268406 -0.041875 0.418511 132 168 174
-0.063968 -0.297183 0.004769 132 138 136
-0.157545 -0.117424 0.000570 115 128 123
0.234515 -0.029348 0.007444 125 132 126
-0.263040 -0.237408 -0.001194 46 57 53
-0.329868 0.507877 -0.002808 152 154 143
-0.112600 -0.043935 0.006389 111 124 119
0.276028 -0.084662 0.017195 105 108 109
-0.003487 0.326329 -0.004326 122 133 129
-0.079156 -0.111660 0.000179 116 129 124
-0.056547 -0.123504 0.003094 95 106 104
0.393661 -0.010334 0.011324 146 153 145
-0.085566 0.254419 0.012606 109 119 107
-0.240260 0.400376 -0.000406 140 147 139
0.020624 0.002146 0.001096 16 32 23
0.202087 0.374910 0.007041 134 138 133
-0.457569 0.045135 0.414501 139 139 135
0.285831 0.021350 0.011679 127 133 131
-0.032368 0.536808 -0.003242 121 122 118
-0.156762 0.031057 -0.002008 94 110 99
0.012492 0.245319 0.002598 114 126 116
-0.046225 0.016009 0.001052 119 130 126
-0.013171 -0.069673 0.004126 103 116 111
-0.285182 -0.041817 0.004204 118 129 125
-0.346712 0.039300 0.388756 88 92 85
0.000865 0.013073 -0.001054 99 115 106
-0.266141 0.350871 -0.004396 63 78 75
0.172504 0.092562 0.005989 120 129 122
0.025508 -0.218464 0.027652 109 120 129
-0.296372 -0.240793 -0.000498 58 58 60
-0.223678 -0.108489 0.221162 78 93 88
0.033426 0.154702 0.002996 105 120 115
-0.129093 0.233887 0.060176 144 137 108
0.058741 0.440600 0.008879 70 73 72
-0.213679 -0.106534 0.142932 110 124 113
-0.354545 -0.028685 0.376724 96 102 100
-0.372840 -0.021686 0.367274 81 82 71
0.349011 0.343916 0.002707 128 129 125
-0.434506 0.048253 0.406740 153 153 149
-0.389833 -0.018721 0.367021 84 85 74
0.088504 -0.297119 0.012861 114 121 115
0.032725 -0.213730 0.036702 50 96 128
0.370118 0.260443 0.015265 139 140 134
0.136801 -0.180379 0.037816 94 142 177
0.074885 -0.274169 0.008775 122 128 128
0.098764 0.099149 0.008964 108 120 110
0.104375 0.225667 0.005140 112 121 112
-0.247250 0.356466 -0.001203 128 139 135
0.280830 0.316650 -0.003283 145 146 142
-0.184756 0.279944 0.015881 130 123 104
-0.046201 0.181971 -0.002239 99 109 97
0.192397 -0.081830 0.013701 119 125 123
0.121354 0.448016 0.014282 87 87 87
0.263490 -0.086203 0.016087 128 134 132
0.135570 -0.256445 0.008986 104 112 111
-0.012756 -0.197022 0.006648 113 128 127
0.107652 -0.155268 0.027632 71 123 159
0.083125 -0.066381 0.006453 117 131 122
-0.005971 0.032552 0.001180 64 75 71
-0.435694 0.013500 0.412594 121 127 127
0.106426 0.403816 0.005379 133 137 130
0.021866 0.385732 0.003152 127 136 129
-0.105371 0.456837 0.005806 131 140 133
0.334545 0.423678 0.018423 117 117 113
0.099187 -0.235647 0.021949 58 106 139
0.367553 -0.178638 0.009402 145 142 139
0.157066 0.300567 0.003029 127 134 128
0.222655 0.088725 0.005765 129 133 126
-0.433137 0.000026 0.406401 138 139 135
-0.301829 0.006942 -0.004513 50 58 55
0.081898 -0.100586 0.024699 102 134 143
-0.490000 0.034704 0.445050 162 157 153
-0.148369 0.236215 0.052935 142 132 102
0.274012 -0.163849 0.006751 136 140 135
0.136303 -0.091072 0.024202 118 129 127
-0.459009 -0.010478 0.397394 35 41 41
0.376951 0.140074 0.014616 137 138 134
0.100003 0.211828 0.000768 115 127 119
-0.402353 0.032470 0.401498 127 133 131
0.360861 0.017440 0.012197 139 140 136
0.148260 -0.000244 0.008374 42 49 43
-0.113321 0.058470 0.002177 93 109 98
0.391446 -0.161463 0.011521 146 141 137
0.212110 -0.202757 0.016503 110 113 112
0.220274 0.298106 0.000542 125 133 132
0.155657 0.411257 0.010377 111 111 113
-0.022035 -0.137174 0.006634 108 123 120
0.043954 0.102241 0.002075 102 116 105
0.375357 0.333178 0.007357 141 141 135
0.216315 0.241343 0.004891 112 118 116
-0.231455 -0.073213 0.413901 115 163 171
0.372926 -0.210685 0.021134 123 123 119
-0.037966 0.202070 0.002960 90 102 94
0.368765 -0.255984 0.013157 143 143 137
0.283389 0.302300 -0.004366 140 141 137
-0.107855 -0.247006 0.004691 128 135 129
-0.309445 -0.070673 0.388377 80 91 87
-0.107548 0.445683 0.002753 134 141 135
-0.316834 0.287478 -0.004590 138 145 139
0.062025 -0.252326 0.024061 98 104 102
-0.004632 -0.282396 0.000260 105 111 109
0.349497 -0.105463 0.018629 140 141 135
-0.087403 -0.040568 0.013156 105 121 112
0.204233 -0.102258 0.013387 119 126 120
0.072498 0.065814 0.011386 93 108 103
0.387925 -0.222416 0.020554 144 143 143
-0.128037 -0.264443 0.001462 129 140 136
0.089104 -0.228130 0.017410 29 77 110
0.133915 0.178223 0.007146 114 123 116
0.030372 -0.223251 0.026679 104 121 124
-0.383218 -0.033842 0.370119 125 134 127
0.381578 0.070626 0.018844 120 112 111
-0.415011 0.011701 0.411297 130 130 132
0.250590 0.246476 0.016074 133 140 134
-0.139772 -0.135282 -0.000569 115 128 123
0.221357 -0.282706 0.009365 83 82 84
0.306592 0.168056 0.007794 135 139 134
0.223304 -0.125398 0.010933 116 120 113
-0.272638 -0.085221 0.408131 45 76 90
-0.329382 -0.028034 0.383329 78 86 83
-0.247681 0.369119 -0.000843 140 147 141
-0.440312 0.034244 0.408865 121 127 129
0.327456 -0.155743 0.009983 147 142 138
0.129969 0.174650 0.005360 116 125 118
0.248253 0.377726 0.004273 135 140 130
0.032085 0.092655 -0.000551 103 115 105
0.118031 -0.164699 0.023565 85 133 168
0.339876 0.288029 0.002889 138 139 133
0.085927 -0.049884 0.008703 43 51 52
0.388686 0.141770 0.015771 138 137 137
-0.039759 0.258775 -0.000491 102 118 109
-0.431021 -0.001666 0.404576 129 133 128
0.294123 0.268420 0.005576 131 138 130
0.232843 -0.241876 0.018800 128 129 125
0.147785 -0.252659 0.015544 93 101 98
-0.489850 0.010756 0.433906 137 136 136
0.324724 -0.279790 0.009530 138 139 133
-0.217936 -0.266311 0.004412 138 145 139
0.027345 0.058365 0.004304 96 110 101
0.339420 0.087046 0.010829 133 134 128
-0.155510 0.135176 0.011192 118 119 92
-0.395858 0.006016 0.393799 134 137 136
0.243189 0.346551 0.000637 137 141 136
0.188660 -0.019792 0.002740 117 126 119
0.249050 0.274529 -0.000709 90 97 103
-0.104749 -0.012931 0.002308 92 110 104
-0.316544 0.000037 0.379141 63 70 62
0.393206 -0.103537 0.018680 145 145 141
-0.245603 -0.174112 -0.002081 125 133 130
0.174163 0.175357 0.004859 126 135 128
-0.041824 -0.238905 0.005003 118 126 123
0.377429 0.391052 0.016709 100 101 97
-0.004361 0.181687 -0.001067 104 118 109
-0.335447 -0.012153 0.386119 138 151 150
-0.078128 0.287009 0.000423 116 128 118
-0.116521 -0.299302 -0.002269 135 139 134
-0.007155 -0.178974 0.010811 48 63 62
-0.084694 0.187926 0.010369 55 62 54
-0.107347 0.200692 0.037676 142 137 108
0.258533 0.099531 0.001983 127 135 132
0.357440 0.129551 0.009109 140 140 136
0.250955 0.015566 0.005693 119 130 126
-0.296253 -0.111070 -0.003001 119 127 124
-0.235274 -0.083688 0.251105 31 42 42
0.263155 -0.117210 0.008262 135 136 130
0.242243 -0.259027 0.013315 131 132 128
0.065246 0.100342 0.001854 104 118 107
0.127777 0.028415 0.012250 41 49 48
0.348455 -0.239048 0.020409 139 139 133
0.076201 -0.246963 0.030310 71 114 135
-0.437188 -0.022335 0.398072 32 35 36
-0.030196 0.004335 0.004945 113 128 123
-0.109695 -0.291031 -0.004826 135 139 134
-0.103308 0.420149 -0.002382 85 94 87
0.347106 0.305822 0.002570 144 145 139
-0.068164 0.358330 -0.000272 128 137 128
0.084008 0.195805 0.003845 44 55 51
0.071403 0.275687 0.005329 120 129 122
0.076158 -0.034470 0.008953 109 123 114
-0.497367 -0.013662 0.421200 80 84 79
0.294888 0.122306 0.009304 134 138 133
0.258478 0.047353 0.008587 124 131 123
0.314768 0.360659 0.003918 140 140 136
0.068004 0.197726 0.004241 111 123 115
0.211082 -0.271445 0.009874 130 130 124
-0.450942 0.049241 -0.004916 114 122 119
0.180532 -0.147600 0.019127 75 78 81
-0.051431 0.141337 -0.002560 95 108 95
0.073502 0.142127 0.006115 104 116 106
0.232852 0.401018 0.008015 136 140 135
0.244763 -0.063884 0.017066 75 78 79
0.062264 0.395116 0.008780 128 135 129
0.106040 -0.172418 0.019597 58 109 143
0.313761 0.429034 0.018062 99 99 93
0.090968 -0.162444 0.021564 25 69 101
-0.006933 -0.127053 0.002988 59 66 70
0.111671 0.173768 0.006586 111 123 115
-0.220983 -0.289181 -0.004123 142 146 141
0.000692 -0.121142 0.001563 111 126 121
0.053082 -0.219342 0.023689 36 87 119
-0.386602 0.005296 0.386027 134 140 138
-0.191094 -0.071041 0.264991 59 67 64
-0.042065 0.393891 0.004958 138 145 139
0.241308 0.097396 0.005969 123 132 125
-0.086963 -0.207359 0.007247 113 128 123
-0.205620 -0.066480 0.309698 108 121 118
0.302043 -0.118924 0.014194 137 138 132
-0.074006 -0.025152 0.008612 103 114 110
0.319097 -0.289545 0.010331 49 43 49
0.038223 -0.068722 0.012791 104 116 108
-0.117501 -0.198092 0.003989 122 135 132
0.328575 0.349108 0.002281 138 142 137
-0.483181 0.001815 0.434365 130 130 130
-0.050716 -0.264320 -0.000485 129 135 133
0.011388 -0.237144 0.012999 116 127 125
0.035576 0.063462 0.002520 97 109 99
-0.212831 -0.095630 0.216451 9 15 15
-0.306253 -0.093689 0.374450 56 70 61
0.322502 -0.127676 0.012964 116 115 115
-0.467951 0.039122 0.430138 150 147 142
0.205299 -0.000796 0.005481 120 128 125
0.213066 -0.263718 0.012430 125 126 122
-0.127381 -0.096780 0.005603 116 127 123
0.090733 -0.124928 0.039022 58 114 146
-0.014566 -0.203455 0.004700 117 128 126
0.209748 -0.221211 0.015563 103 107 102
-0.305127 -0.234248 0.000069 147 150 149
0.358672 0.258841 0.017473 139 140 136
0.380541 0.373703 0.012040 89 88 88
0.004182 0.368605 0.001249 130 139 130
-0.313726 -0.019705 0.384384 114 122 121
-0.327200 -0.050732 -0.003463 115 128 123
0.370440 -0.166092 0.008712 96 78 84
-0.453818 0.004583 0.412292 151 154 153
0.032700 0.019661 0.003005 95 110 105
0.369808 0.343968 0.010001 140 141 137
-0.144932 -0.199462 0.002497 125 137 129
-0.321397 -0.093803 0.371718 59 71 63
0.034339 0.362557 -0.003938 126 135 126
0.244101 0.479972 0.002086 133 140 132
0.013078 -0.238679 0.012336 117 128 126
-0.205140 0.013825 -0.000503 27 46 34
0.109693 0.000780 0.005442 103 115 107
0.064524 -0.088109 0.009000 67 77 82
0.041284 0.065153 0.003485 94 108 97
0.029572 0.057471 0.001750 97 111 102
-0.072375 0.356443 -0.001281 50 63 60
0.299387 0.074656 0.013745 128 135 129
0.217260 0.175859 0.008643 127 136 127
-0.312183 -0.090770 0.376728 65 76 72
0.236293 0.435411 0.018617 136 140 135
-0.070642 0.452667 0.004947 103 106 105
-0.489414 0.014501 0.436766 134 133 133
0.238662 0.086839 0.009800 123 132 125
0.336050 -0.256623 0.017358 146 144 136
0.133204 -0.146796 0.059960 73 128 163
0.326455 0.349122 0.002222 138 142 137
-0.251005 -0.082722 0.001675 37 51 53
-0.340077 0.055896 0.385654 91 98 92
-0.388961 -0.093014 0.352324 118 133 130
0.253776 -0.086772 0.017726 131 137 135
-0.227272 -0.081346 0.245825 13 21 18
-0.052818 -0.122961 0.001256 91 102 100
0.382597 0.311268 0.006211 117 117 121
-0.332752 0.039812 0.381704 85 92 86
0.386973 0.457440 0.021430 143 144 138
0.366395 0.106697 0.010887 134 138 131
0.381882 0.190163 0.010501 119 122 121
0.079755 0.144827 0.005360 102 116 105
0.355518 -0.149560 0.013736 147 143 134
0.396761 -0.101944 0.019533 146 146 142
-0.185051 0.291269 0.010109 131 144 131
-0.265983 -0.064961 0.415564 126 172 178
-0.210118 0.387334 -0.000020 130 139 130
0.321210 -0.286401 0.010757 88 72 77
-0.098336 -0.047764 0.011672 34 48 50
-0.111211 0.197194 0.035927 143 138 109
0.053934 0.253329 0.002101 55 64 57
-0.011703 -0.107861 0.006257 112 127 124
-0.095169 -0.194907 0.005064 125 136 132
0.048348 -0.179472 0.020033 38 89 121
0.376705 0.029962 0.011900 94 93 102
-0.400529 -0.006154 0.380263 64 72 71
-0.115569 -0.185361 0.001148 123 134 130
0.120217 -0.142947 0.052518 69 125 157
-0.249560 -0.168138 -0.004940 123 134 130
0.076788 0.110792 0.007079 95 103 100
0.110721 0.347632 0.003633 119 127 124
-0.422791 -0.016487 0.372552 97 90 80
-0.275792 -0.106507 0.376053 40 47 41
0.025636 -0.116181 0.015685 112 127 122
-0.401505 0.048181 0.403321 153 153 149
0.247756 -0.170031 0.003055 109 118 109
-0.040755 -0.133801 0.000999 61 72 70
-0.000069 0.370556 0.002025 130 139 130
-0.107314 0.208822 0.039255 143 138 107
0.183995 -0.225853 0.013703 96 104 105
0.272349 -0.138618 0.012928 135 137 128
0.386399 -0.270640 0.012401 145 145 139
0.273570 0.169276 0.005126 134 138 131
0.171602 -0.297283 0.012064 124 125 121
0.347717 0.252266 0.016278 138 138 134
-0.001090 0.222412 0.004752 108 122 111
0.189139 -0.047141 0.002161 63 66 67
-0.191047 -0.129577 -0.001717 121 135 126
-0.176754 -0.140372 -0.001884 118 131 126
-0.298021 -0.112671 -0.003801 33 44 40
0.198760 0.344932 -0.001501 132 139 131
0.232355 -0.183581 0.000681 116 120 115
0.234274 -0.129810 0.013635 50 51 47
0.235564 0.244698 0.003742 134 141 135
-0.157535 -0.119033 -0.000179 116 129 124
0.093171 0.243130 0.007403 123 132 125
0.248781 -0.175290 0.002845 115 122 116
-0.333169 0.066643 0.386458 136 168 175
-0.219193 -0.119375 0.217337 23 34 32
0.123705 -0.277216 0.006671 118 126 123
0.278607 0.220520 0.012587 114 120 118
0.140537 -0.059226 0.013780 108 120 112
-0.083274 -0.140466 -0.001221 119 134 129
-0.027682 0.111499 0.004153 40 53 48
-0.027496 -0.105541 0.004637 111 129 123
0.205434 0.163341 0.002447 128 135 129
0.033110 0.047986 -0.000348 97 111 102
-0.365874 -0.036637 0.372669 90 97 91
0.207165 -0.000809 0.005533 120 128 125
0.008390 -0.211309 0.009484 99 117 115
0.217184 -0.159521 0.003684 106 112 110
0.226949 -0.058458 0.012416 124 128 121
0.122874 0.503102 -0.004165 134 135 126
0.356489 0.287917 0.003354 139 139 135
-0.228116 0.212488 0.034990 128 123 94
0.104930 -0.270255 0.003809 118 126 125
-0.094986 0.121407 -0.003264 96 106 94
-0.432417 0.003357 0.410181 138 138 134
-0.437418 0.032482 0.409239 119 122 123
-0.472665 -0.032352 0.417683 130 140 145
0.311502 0.377978 0.008568 139 140 134
-0.395701 0.041246 0.398067 133 136 135
0.249609 0.539166 0.000021 143 141 133
-0.070538 0.012778 -0.001210 107 121 112
-0.236140 -0.062955 0.419634 121 166 175
-0.129276 0.435968 0.004174 135 143 140
0.319712 0.461954 0.014814 128 131 132
-0.469346 0.013904 0.423872 128 129 125
-0.197515 0.297979 0.007327 130 142 132
-0.332708 0.032706 0.378397 87 94 88
-0.032663 -0.098428 0.005581 112 127 122
0.184100 -0.236029 0.014486 97 97 99
-0.131470 -0.285556 0.002561 48 58 65
0.036191 -0.236369 0.026271 107 121 123
0.373928 0.024052 0.011269 121 122 116
-0.125197 0.228605 0.057839 144 137 108
0.233570 0.097448 0.005752 126 134 131
0.108895 -0.250786 0.024032 91 121 140
-0.224338 0.296180 0.002343 128 141 128
0.292524 -0.239636 0.015082 140 140 134
-0.329242 -0.276112 -0.003619 142 143 137
-0.406368 0.000430 0.401906 150 154 149
0.010084 -0.209775 0.010251 103 121 119
-0.477597 -0.031806 0.423301 43 45 51
0.281883 0.318689 0.001010 126 132 132
0.171333 0.144838 0.002702 117 129 121
0.194823 -0.015732 0.002615 119 127 124
-0.297130 -0.007530 -0.003379 109 123 114
-0.309292 0.037061 0.365706 85 92 86
0.162501 -0.066917 0.003159 117 126 119
-0.322604 -0.037082 0.381535 67 79 71
0.324486 0.001616 0.005904 136 137 131
0.161625 -0.209424 0.039413 104 144 173
-0.020838 0.177470 0.001974 93 105 95
-0.377137 0.004490 0.378223 64 75 71
-0.161762 -0.042822 -0.002349 60 71 69
-0.148584 0.402337 0.005571 137 146 137
-0.215502 -0.072511 0.356240 68 86 82
-0.240237 0.224157 0.034527 130 140 128
-0.153157 0.053236 0.017258 101 115 106
0.168754 -0.034886 0.000610 117 123 121
0.270152 -0.126756 0.009554 129 128 128
-0.243732 -0.209603 0.002421 130 138 135
-0.466753 0.039873 0.427215 87 83 84
-0.416983 -0.005924 0.384271 66 74 71
0.254243 0.504233 0.000455 138 139 130
0.172056 -0.153382 0.033827 104 112 113
-0.423976 -0.011690 0.379162 37 43 43
0.303378 -0.044050 0.015988 131 135 128
-0.134437 -0.060647 0.004549 105 120 115
0.328388 0.542717 0.004129 146 142 135
0.184381 0.275714 0.000035 57 63 65
0.258716 0.167257 0.000413 135 139 134
0.393849 0.085302 0.019438 139 140 136
0.290036 -0.260535 0.011896 138 139 133
0.301160 0.191493 0.010811 109 109 109
-0.206459 -0.074323 0.265191 19 30 28
0.146708 -0.291944 0.008256 113 122 113
-0.020436 -0.094270 0.010105 103 121 115
0.017305 -0.075448 0.004594 98 113 108
0.199119 0.452853 0.010130 138 139 130
0.209380 0.188493 0.006555 121 132 128
-0.286883 -0.015591 0.002015 109 123 114
0.126408 -0.072583 0.013742 111 123 115
0.037172 0.248094 0.002452 114 128 119
0.170603 0.332763 0.004094 132 139 133
-0.064485 0.044916 0.005113 104 123 113
-0.484886 -0.015401 0.421883 79 83 78
-0.175021 0.143966 0.006952 117 121 91
0.218324 0.355622 0.001878 78 80 86
-0.015116 0.450838 0.014654 129 136 128
-0.150132 0.222033 0.028622 139 132 103
-0.231703 -0.084666 0.405251 101 147 153
0.313416 -0.157241 0.008848 139 139 133
-0.399901 0.013350 0.409225 135 141 141
0.080507 0.210101 0.007081 113 121 118
-0.242759 -0.201694 -0.002694 112 123 119
0.272311 0.024740 0.008422 124 131 125
-0.297557 -0.053941 0.000381 110 121 117
0.140472 -0.135411 0.056658 87 134 163
0.301867 -0.209135 0.014124 61 68 72
0.391774 -0.298108 0.013023 149 144 140
0.387819 -0.205485 0.028433 146 141 139
-0.211057 0.202798 0.017768 123 111 80
0.248137 0.254783 0.014347 125 136 134
-0.136192 -0.050032 0.001712 108 121 116
-0.050629 -0.172162 -0.002822 116 131 128
-0.388249 0.007077 0.390116 133 136 135
0.362717 -0.044014 0.011233 144 144 138
0.036394 0.128172 -0.001538 100 114 105
0.045565 0.042398 0.002956 95 109 100
-0.332759 0.040996 0.382255 85 92 86
-0.261901 -0.193330 -0.001604 129 140 136
-0.116675 -0.098470 0.005150 114 127 122
0.321695 -0.143745 0.012079 139 140 131
-0.106685 0.306119 -0.002605 117 127 115
-0.313821 0.061201 0.374596 134 170 176
0.286971 0.199615 0.008633 131 138 130
0.188633 0.405186 0.005268 85 88 87
-0.152135 -0.134148 0.001781 121 134 129
-0.482717 0.000140 0.434703 135 132 129
0.060305 0.044901 0.006788 97 110 105
-0.153213 0.066035 0.012180 94 111 97
-0.377564 -0.084669 0.366496 123 157 165
0.340575 -0.174809 0.008137 146 147 138
-0.057603 0.011912 0.000998 115 129 120
-0.305961 -0.277777 -0.003669 144 148 141
0.148813 0.436041 0.012874 129 133 126
-0.130896 -0.115414 0.000129 115 128 123
-0.294191 -0.225496 -0.002136 91 99 98
-0.114966 0.187691 0.029179 138 134 107
0.002543 -0.109571 0.005904 109 124 121
-0.327019 0.067838 0.384999 134 166 173
-0.230916 -0.108440 0.220959 15 22 30
-0.088653 -0.219923 0.002449 125 133 130
-0.435555 -0.026237 0.397409 153 161 158
0.002536 -0.195793 0.008800 108 123 122
-0.132545 -0.044409 0.002237 36 47 45
0.165861 -0.158821 0.041033 107 127 142
-0.209233 -0.104910 0.001475 115 129 120
-0.321045 -0.254877 -0.004513 144 145 141
-0.248262 -0.109782 -0.000906 116 130 121
0.393199 -0.148492 0.009890 149 147 139
0.216857 -0.116738 0.012557 99 107 106
0.029091 0.174536 -0.000044 105 117 107
0.103017 -0.232250 0.021443 66 114 145
0.292846 0.128213 0.006473 133 136 135
0.232507 -0.199353 0.008792 113 120 114
-0.136163 -0.043690 0.000252 39 45 45
-0.180252 0.375621 -0.001232 139 146 138
-0.005937 -0.189282 0.010464 71 88 91
0.352586 -0.001970 0.005110 131 135 128
-0.234660 0.151278 0.020635 44 56 48
0.079656 -0.275863 0.009239 119 125 125
-0.287170 -0.052653 -0.003110 111 125 116
0.274981 -0.077502 0.018289 112 113 107
0.111259 -0.209770 0.017820 66 117 149
0.031133 -0.170214 0.044773 44 97 130
0.346379 -0.022543 0.006374 68 68 70
-0.201956 0.306424 0.002292 73 84 80
0.274945 -0.265653 0.013457 145 141 142
-0.379288 0.010429 0.387542 48 47 54
-0.489475 0.024284 0.441319 140 136 137
-0.055537 0.510296 -0.003065 133 137 130
0.188770 -0.290449 0.008056 115 115 115
0.393863 -0.039234 0.014428 144 145 139
0.317435 -0.183747 0.008772 82 74 73
0.057184 0.246860 0.004708 110 121 119
0.035068 0.106330 -0.001816 99 115 104
-0.341051 0.063112 0.384569 134 157 164
0.231597 0.539288 -0.000483 137 138 134
0.366782 0.391124 0.016411 145 146 140
0.238423 0.056535 0.015548 118 127 118
-0.217738 0.448299 0.007157 140 147 141
0.044153 -0.120411 0.029742 109 132 139
0.318648 0.322117 0.000441 84 90 90
-0.055950 0.328587 -0.004910 123 135 125
0.036150 0.013754 0.002569 96 110 101
0.377336 -0.066719 0.009946 100 100 100
-0.358183 -0.098547 0.358432 93 127 133
-0.298606 -0.131006 -0.003528 73 80 74
-0.263186 0.224102 0.016131 48 59 59
0.137021 -0.107511 0.035331 111 123 127
-0.215659 -0.071039 0.372369 112 156 159
0.279874 -0.200797 0.007389 142 143 137
-0.268189 0.206757 0.017831 122 138 129
0.357142 0.012363 0.009718 142 143 139
-0.059594 0.208461 -0.000255 95 105 93
-0.066608 0.033050 0.003937 43 56 53
0.373033 -0.121014 0.015433 138 138 132
0.261833 -0.204241 0.007430 139 140 134
0.167966 0.195237 0.006197 124 133 126
-0.022205 -0.259945 0.002440 117 128 126
-0.394395 0.023719 0.403189 115 121 119
-0.150532 0.360862 0.001651 134 143 136
0.072080 -0.033497 0.011486 107 121 112
0.244662 0.044534 0.014569 113 119 117
0.263199 -0.227334 0.012171 140 140 136
-0.047193 0.053321 0.005151 113 129 118
-0.435708 0.015743 0.413638 133 139 137
0.212300 0.095837 0.004340 72 78 78
-0.039961 -0.285608 0.000975 87 98 98
0.141390 0.210675 0.014763 119 128 121
0.205513 0.150743 -0.003416 119 131 123
0.358223 -0.064274 0.008282 142 143 139
0.314957 0.288198 0.002191 87 88 84
-0.358656 0.004857 0.375659 85 94 87
-0.203927 -0.239340 -0.000251 137 141 134
0.262023 -0.005504 0.002850 69 75 75
-0.259326 -0.088403 0.409271 112 156 163
0.031853 -0.136034 0.034224 107 140 155
0.093165 0.373770 0.006426 129 130 124
0.124329 -0.242996 0.025932 83 129 163
0.372104 0.481541 0.018944 153 148 144
0.387118 0.023848 0.007171 143 144 138
-0.109906 -0.161251 -0.004003 51 63 67
-0.143215 -0.179526 -0.001410 128 139 135
0.235398 -0.236185 0.023736 136 136 132
-0.452104 -0.003220 0.406505 107 110 109
-0.246403 0.222832 0.029305 128 138 126
0.324123 -0.236976 0.018408 140 140 134
-0.204840 -0.258359 0.005212 139 146 140
-0.203925 -0.100104 0.003878 114 132 126
0.156585 0.297529 0.003806 125 133 130
0.205524 0.148943 -0.004253 121 133 125
-0.380157 -0.015403 0.366661 77 78 65
0.288270 -0.149909 0.008168 133 134 130
-0.257627 -0.088697 0.312080 69 84 79
0.027688 -0.242378 0.014380 102 109 113
0.253107 -0.100362 0.013586 128 132 125
-0.016064 -0.124347 0.006170 123 134 132
-0.277506 -0.063444 0.410393 124 168 175
0.389715 0.301896 0.005380 141 141 135
-0.349315 0.041665 0.389776 91 95 88
-0.235333 -0.096592 0.226337 100 114 105
-0.296060 -0.075849 0.393005 100 115 112
-0.244124 -0.069264 0.418655 123 171 179
0.386573 0.263130 0.011512 138 139 135
0.107860 -0.127586 0.053767 63 119 151
-0.320653 -0.017838 0.388347 137 148 144
0.155099 -0.255398 0.012289 36 47 45
0.143036 0.223476 0.013049 104 112 109
-0.138004 0.045414 0.003054 103 117 108
-0.437852 0.007822 0.414297 121 127 129
0.368014 0.238339 0.015945 139 140 136
0.100325 0.450169 0.011319 129 137 126
-0.172454 0.446037 0.007516 139 146 140
-0.062122 -0.079825 0.000082 117 131 122
-0.018000 0.247369 0.002602 112 124 114
-0.231856 -0.128744 -0.004809 113 121 120
0.266385 0.244329 0.023290 136 140 133
-0.386799 0.026026 0.400086 114 122 121
0.085837 -0.168662 0.018509 27 69 99
0.005990 0.205398 0.005880 110 122 112
0.305822 0.491565 0.009407 144 144 138
-0.090190 -0.124883 0.001404 76 89 86
-0.389510 0.005936 0.389545 137 141 136
0.141751 -0.293412 0.007418 118 125 117
-0.069001 -0.140024 -0.002778 124 137 132
0.348270 0.165974 0.008124 136 138 129
-0.096680 -0.192436 0.001754 124 135 131
-0.052639 0.059780 0.004677 104 120 109
0.286636 -0.008862 0.006467 96 103 95
0.358637 0.279416 0.004981 142 143 137
0.376928 0.166774 0.007182 72 79 73
0.381558 -0.110522 0.017273 145 145 141
-0.376963 0.000850 0.372119 48 56 55
0.346528 0.493033 0.021290 116 115 119
0.067038 0.313404 -0.002628 62 70 71
0.341508 -0.086463 0.011776 139 140 136
0.345662 0.255966 0.017937 137 137 139
0.392255 -0.293056 0.010976 143 144 140
0.205479 -0.178738 0.009822 107 115 112
0.080530 -0.146742 0.028549 30 78 111
0.311993 0.334692 0.000571 140 141 135
0.206434 -0.272773 0.008007 132 133 127
-0.196486 -0.274747 -0.004364 71 67 68
0.128699 -0.234368 0.032292 85 133 166
0.359761 0.293386 0.002692 140 141 137
-0.172689 0.107139 0.002018 48 57 50
-0.075146 -0.225045 0.002693 124 132 131
0.137050 -0.243453 0.028323 90 107 121
0.103054 0.017605 0.008654 101 113 103
0.087824 0.124535 0.006096 108 122 113
-0.098698 -0.089256 0.005586 105 123 119
-0.017684 -0.263673 0.005260 117 128 126
-0.215751 0.454217 0.006664 140 147 141
0.367816 -0.210651 0.020991 129 129 125
-0.157301 0.113102 0.007481 89 96 88
-0.302938 -0.071680 0.390317 38 48 51
-0.027476 -0.108775 0.003132 113 128 123
-0.144349 0.406171 0.007488 137 146 137
-0.342783 -0.056163 0.381954 89 97 94
0.155675 -0.205515 0.044358 95 141 177
0.299476 -0.269652 0.017877 149 145 138
-0.171741 -0.117328 0.000173 117 130 129
0.123627 -0.173771 0.025033 93 139 171
-0.021757 -0.030958 -0.001291 114 128 119
-0.401102 0.006593 0.406042 121 127 125
0.344348 -0.234053 0.020399 69 65 58
-0.207420 -0.292955 0.000061 141 145 140
0.055762 -0.276454 0.002701 118 124 124
-0.084801 0.363440 -0.003929 132 141 134
0.300615 -0.019967 0.009458 131 135 128
0.170591 0.334666 0.004980 131 138 132
-0.467622 -0.021048 0.395515 110 116 118
0.091842 0.017681 0.008340 102 114 106
-0.112886 0.178112 0.022577 132 127 98
-0.024623 -0.056047 -0.002025 109 124 119
-0.315216 0.490163 0.001540 146 147 143
-0.205625 -0.076637 0.253105 21 29 26
0.166102 -0.175486 0.038800 100 146 180
0.314435 0.177723 0.007022 135 142 136
0.117771 -0.266106 0.008348 116 124 123
-0.365745 -0.029991 0.371353 90 92 83
-0.037676 0.402874 0.007070 113 119 117
-0.260040 -0.071279 0.006721 110 122 114
-0.076267 0.178854 -0.001317 42 49 43
0.057650 0.198571 0.006518 109 123 114
0.147999 0.191745 0.003949 54 59 66
0.119607 -0.285180 0.006146 110 116 118
-0.302773 -0.094376 0.373135 51 65 56
-0.103890 0.045125 -0.000432 101 113 105
0.015501 0.233593 0.006060 111 125 114
0.311839 0.301262 0.004865 137 138 134
-0.150842 0.432806 0.007547 137 146 139
-0.185470 -0.048328 -0.003445 105 121 112
-0.057222 0.241409 0.007433 98 107 98
-0.080305 -0.215757 0.006856 124 135 131
0.344212 -0.088745 0.013005 65 59 61
-0.162220 0.259412 0.035716 137 130 101
0.165190 -0.261545 0.009742 114 117 116
0.301121 -0.157158 0.008504 137 141 136
-0.100255 -0.062219 0.009297 107 122 117
0.343111 0.427516 0.020477 145 145 139
0.047151 0.034713 0.001635 98 113 110
