ply
format ascii 1.0
element vertex 1215
property float x
property float y
property float z
property uchar red
property uchar green
property uchar blue
end_header
-0.207475 -0.161970 0.005582 83 89 91
-0.232176 -0.105235 0.376830 51 64 59
0.098975 0.096052 0.006561 104 118 109
-0.331766 0.183967 0.057035 133 169 177
-0.155736 -0.121532 0.008266 115 128 123
-0.367400 -0.037084 0.001086 111 126 123
0.125336 0.051081 0.007790 101 115 106
-0.122006 -0.086138 0.007311 42 54 56
0.331857 -0.161407 0.018048 141 141 135
-0.057575 0.081632 0.003119 108 122 111
-0.167117 0.330315 -0.002353 106 114 111
-0.045676 0.326997 -0.002512 121 133 125
-0.132053 0.194387 0.006453 96 91 69
0.252483 -0.036766 0.011644 131 138 132
-0.441075 -0.023906 0.001512 119 130 128
0.231425 -0.069342 0.010744 129 135 133
0.366197 -0.098655 0.020656 137 141 136
0.380484 -0.087847 0.021931 144 145 139
-0.303796 -0.099177 0.416412 75 88 85
0.271961 0.116983 0.010715 128 132 127
0.390747 0.125124 0.021991 140 140 140
0.361859 -0.087021 0.019301 142 143 139
-0.139989 0.187414 0.006459 78 72 48
0.311261 0.187104 0.014478 80 82 90
0.335303 0.165962 0.015880 134 138 133
-0.179559 0.222528 0.034538 126 116 84
-0.258228 -0.100664 0.436865 118 167 172
0.053851 -0.172229 0.011779 90 104 106
-0.068222 -0.023796 0.005190 101 121 114
0.088275 -0.109730 0.006933 41 52 52
0.306073 0.140057 0.013536 135 141 139
-0.436449 -0.001280 0.461052 72 74 80
0.273976 -0.137117 0.014019 129 133 126
-0.290671 -0.095655 0.407408 123 134 132
0.173695 0.369295 0.007004 127 135 132
0.233609 -0.100103 0.012640 125 136 132
-0.102932 -0.006139 0.005226 35 44 37
-0.288083 -0.140988 0.006454 124 135 131
0.104010 -0.055186 0.007530 94 107 102
0.217265 0.132297 0.010087 131 139 136
0.042065 0.225136 0.001136 107 123 114
0.328527 0.161345 0.015932 137 140 139
0.007208 0.212130 -0.001299 96 108 98
-0.471819 0.040059 -0.003154 120 126 124
-0.293578 -0.137283 0.005969 135 146 142
-0.414661 -0.089697 -0.001074 107 118 116
-0.190058 -0.167164 0.005302 115 128 125
-0.214684 0.308791 -0.004835 124 138 129
-0.119143 0.251593 0.054784 134 133 107
0.105624 -0.077928 0.007029 95 106 102
-0.295178 -0.076005 0.009246 115 130 129
-0.156745 0.029062 0.002535 94 109 104
0.398772 -0.131028 0.024850 67 66 68
0.296330 -0.188774 0.015377 140 141 137
0.152089 0.019648 0.009240 103 114 110
0.190298 0.023845 0.009454 117 125 122
0.194806 -0.000463 0.009444 120 128 125
0.024858 -0.189633 0.011941 29 43 47
0.327847 0.258626 0.017248 135 139 134
0.057637 -0.017739 0.006205 86 101 96
0.080888 0.203737 0.002203 112 123 119
0.207026 -0.175720 0.011817 133 140 134
-0.215166 -0.073474 0.007996 107 122 117
-0.196914 -0.093196 0.005534 107 120 115
-0.407163 -0.019551 0.425218 113 119 117
-0.275976 -0.073985 0.407313 121 169 177
0.074105 0.364132 0.001623 128 136 133
0.153426 -0.159454 0.010178 56 62 64
-0.289614 -0.095377 0.406894 126 137 135
-0.087586 0.022133 0.005242 90 108 102
0.084838 0.397443 0.002932 126 133 127
0.248669 -0.196948 0.013425 143 142 144
0.296686 0.065079 0.011601 124 136 128
-0.302551 -0.077011 0.421843 84 92 89
-0.342926 -0.092046 0.424461 94 105 103
-0.259836 -0.113835 0.006325 113 126 123
-0.011493 -0.060810 0.052937 45 105 136
-0.451839 -0.024526 0.442273 73 76 77
-0.329240 0.007915 0.011950 101 116 113
-0.120158 0.111709 0.054728 112 115 92
0.239004 0.134327 0.010769 126 134 131
0.390411 -0.090047 0.023002 130 124 128
0.176134 -0.046010 0.009560 120 129 122
0.046825 0.175791 0.002032 104 118 109
-0.225487 -0.106878 0.396613 56 69 64
-0.305457 -0.110293 0.383470 47 58 54
-0.311475 0.022593 0.015307 116 130 121
-0.296462 -0.063489 0.417223 46 56 59
-0.356830 0.020895 0.432607 103 99 102
0.285038 0.005007 0.011882 130 134 127
0.234267 0.383161 0.010555 128 134 132
0.141060 0.129058 0.006705 109 120 116
-0.150590 0.377603 0.000156 137 146 139
-0.120999 -0.195312 0.006923 124 137 134
-0.190958 -0.130484 0.231152 38 49 47
0.253953 -0.073687 0.012495 127 134 128
-0.458461 -0.022244 0.452957 157 152 150
-0.021625 0.112503 0.002307 47 58 56
0.336398 0.172713 0.016010 134 138 133
0.132049 0.281915 0.004476 126 134 131
0.090956 -0.187621 0.010639 114 127 126
0.156568 -0.072848 0.009242 121 132 128
0.018826 -0.123696 0.022556 62 115 144
0.369708 -0.117078 0.020605 142 143 139
-0.022166 0.339494 -0.001745 126 138 130
-0.005537 0.010800 0.004259 104 122 118
-0.512553 -0.055061 0.001525 82 86 81
-0.210268 -0.122891 0.006444 65 68 69
0.109051 -0.197919 0.010385 119 127 124
0.059319 -0.149051 0.010974 92 106 108
-0.062234 -0.180006 0.007880 126 141 140
-0.474342 -0.021167 0.459003 166 170 163
-0.117940 -0.028402 0.006423 99 114 109
0.129490 0.149549 0.005703 44 55 55
0.324682 -0.136077 0.016938 134 138 131
-0.141768 0.119712 -0.004930 47 55 52
-0.029999 -0.144132 0.012281 23 68 97
-0.499647 0.016529 -0.000928 123 127 122
-0.541902 0.027078 0.015877 91 100 93
0.227236 0.257553 0.009775 132 141 134
0.221246 -0.161682 0.012063 132 140 137
-0.492244 -0.001683 0.486212 151 152 148
0.054383 0.092074 0.005255 98 116 112
-0.212369 -0.104224 0.399446 62 77 74
0.330324 -0.168566 0.018443 142 138 141
-0.533738 0.022611 -0.001393 71 74 75
0.025339 0.249615 -0.000105 114 129 126
-0.529291 -0.049543 0.001948 81 90 81
-0.495973 -0.003038 0.002873 88 99 97
-0.132115 0.220409 0.013170 116 108 84
0.363441 -0.120834 0.020899 144 145 141
-0.089375 -0.070395 0.005586 99 117 115
-0.489039 -0.041951 0.002558 84 90 88
-0.331135 -0.047431 0.008521 61 68 72
0.228448 -0.136614 0.012053 128 135 127
-0.353003 -0.107318 0.408699 112 151 160
-0.210233 0.390729 -0.000994 132 141 132
-0.283547 -0.073874 0.411835 129 165 173
-0.107644 -0.085787 0.006356 41 51 56
-0.115637 0.018299 0.004356 89 107 101
-0.289517 0.004018 0.398676 49 56 60
-0.364897 -0.088119 0.000164 38 48 51
-0.409674 -0.119257 -0.000727 125 133 132
-0.159206 0.398111 0.000689 134 143 136
0.145180 0.025719 0.009286 112 123 119
-0.460036 -0.024314 0.447917 117 120 123
-0.536122 0.011076 -0.002747 86 92 90
-0.337389 -0.121304 0.000412 77 80 79
0.326823 -0.197921 0.017589 146 146 140
0.182643 -0.136299 0.010753 131 140 133
-0.419320 -0.060046 0.000320 127 135 132
-0.354235 0.025409 0.430584 115 106 111
0.360452 -0.169332 0.021506 107 101 105
0.224278 -0.069201 0.010277 127 134 128
0.041420 0.385251 0.000766 121 133 123
-0.310669 -0.083512 0.009215 107 118 114
-0.301918 -0.114065 0.006844 120 133 128
-0.307199 -0.002648 0.414775 87 98 94
-0.484771 -0.079030 0.000045 82 88 86
0.089841 0.241412 0.002576 113 128 123
-0.339069 0.004478 0.422985 85 93 90
-0.331402 -0.071481 0.006711 125 133 130
-0.104128 0.138095 0.034423 122 121 93
-0.120816 0.071281 0.001687 98 118 103
0.165903 0.271529 0.005940 119 130 126
-0.413992 0.017694 0.451431 158 155 152
-0.306075 0.059942 0.018451 91 106 101
-0.331957 -0.198093 -0.003212 149 152 153
-0.132596 -0.043530 0.005101 91 99 96
-0.491037 -0.015832 0.479675 138 141 140
0.048603 0.092087 0.005146 110 121 117
-0.477173 -0.020629 0.465925 133 133 133
0.024914 0.053434 0.005872 97 112 107
0.216455 -0.159737 0.011392 136 136 136
0.365937 -0.074048 0.020000 138 139 135
-0.414127 -0.131288 -0.003018 29 33 28
-0.271543 -0.160160 0.005281 129 140 136
-0.106560 -0.140794 0.006403 120 138 136
0.295903 0.050018 0.012369 129 133 128
-0.349385 -0.086645 0.424081 93 110 111
-0.223970 -0.078889 0.007259 109 122 119
-0.163883 -0.007730 0.003549 91 110 98
0.341005 0.225644 0.016771 62 65 68
-0.130425 0.050053 0.002090 99 115 106
-0.227992 -0.105402 0.382767 51 66 61
-0.042499 0.024616 0.004780 100 123 117
0.188065 0.130830 0.008248 122 135 130
0.310245 0.090417 0.012273 97 105 106
0.207134 0.224607 0.008599 122 134 126
-0.169812 0.023630 0.000769 103 121 115
0.001127 0.172333 -0.000639 89 103 94
-0.016128 -0.187446 0.009999 109 126 129
0.336058 -0.054107 0.017361 134 138 131
-0.388631 0.034774 0.433396 183 135 141
0.082160 0.124985 0.005163 67 82 77
0.246017 -0.113089 0.012815 135 141 139
0.365099 -0.077894 0.020174 141 141 137
-0.204493 -0.097838 0.415377 71 89 87
-0.065863 0.122294 -0.000324 96 108 98
0.374418 0.362577 0.023007 87 91 86
-0.305397 -0.048825 0.012552 92 110 108
0.367669 -0.074107 0.020184 140 141 137
0.192094 0.345344 0.008251 123 137 128
-0.157928 0.208071 0.013867 98 91 60
0.048842 0.017921 0.007254 90 106 97
-0.433193 -0.095681 0.000075 85 93 90
0.075082 0.017907 0.007608 90 104 95
0.002577 0.240765 -0.001676 109 123 114
0.206117 -0.042054 0.009671 126 135 128
0.315543 -0.080263 0.015621 131 137 135
0.000308 -0.061839 0.055829 43 103 134
0.131865 -0.148636 0.009652 116 127 123
0.317981 -0.199551 0.017220 138 142 137
0.255453 -0.197047 0.013848 137 137 137
0.153510 -0.115760 0.008960 99 105 105
-0.483560 -0.005055 0.481831 122 122 122
0.173133 0.244465 0.006738 127 135 134
0.067733 0.091718 0.006161 99 114 109
-0.189193 0.235357 0.050032 128 124 99
0.303940 0.164617 0.013766 134 138 133
0.113081 0.081076 0.006676 108 114 112
-0.172975 -0.149770 0.006360 117 130 125
-0.288415 -0.165575 0.005834 122 135 132
-0.259651 0.024879 0.042203 86 98 90
0.258044 0.354143 0.011495 135 142 134
0.114064 0.337331 0.003765 123 131 128
-0.193793 -0.089443 0.375857 123 138 137
0.330471 -0.123455 0.017271 140 140 140
0.304884 0.279083 0.015358 136 139 138
0.134289 0.102307 0.007534 108 120 112
-0.228702 0.365644 -0.002730 142 154 144
-0.311323 -0.102391 0.417448 77 88 86
0.268670 0.293427 0.011759 135 142 136
-0.539924 -0.099595 0.000057 78 85 79
0.084246 -0.051318 0.007318 84 99 94
-0.058124 -0.126877 0.020747 32 85 116
-0.268822 -0.071775 0.008088 107 122 117
-0.104123 0.041068 0.003955 95 109 100
0.218861 -0.154490 0.011740 90 97 101
0.383038 0.123448 0.020903 142 143 139
-0.067308 0.196698 0.048363 115 118 100
-0.147394 0.037996 0.001042 101 116 111
0.015803 0.385356 0.000136 124 133 126
-0.312359 -0.087141 0.425560 91 99 96
-0.052004 -0.181950 0.008743 121 139 137
0.133503 -0.180568 0.010179 125 131 129
0.027292 0.059975 0.005348 95 110 105
-0.114689 -0.070900 0.006838 100 118 114
0.363070 -0.071878 0.019183 144 145 141
0.134756 0.245299 0.004773 125 131 131
0.310490 0.182453 0.014562 86 89 92
-0.222554 -0.097170 0.447365 113 161 169
-0.480739 -0.011442 0.477630 128 131 132
-0.174550 -0.031450 0.008686 98 116 110
-0.327420 -0.070079 0.427981 83 94 90
0.142598 -0.085848 0.008419 121 132 130
-0.361106 -0.098176 0.408635 124 165 173
-0.088250 0.079611 0.002462 100 116 107
0.389512 0.036508 0.020486 142 143 139
0.170188 0.354241 0.006261 127 135 132
-0.120535 -0.130246 0.007252 111 131 126
-0.008132 0.274757 -0.001991 39 51 53
-0.375156 -0.011540 0.000792 120 133 130
0.315442 -0.119545 0.016337 125 131 133
0.319179 0.240144 0.015990 138 141 140
-0.336817 -0.050957 0.416276 91 99 98
0.109665 -0.014151 0.007737 94 106 98
0.269307 0.239733 0.012052 137 140 139
-0.310121 0.030569 0.015552 69 82 81
-0.125150 -0.014025 0.004829 97 110 105
0.330182 0.232962 0.016248 137 141 136
0.313926 -0.028006 0.015011 127 133 131
0.308992 -0.108136 0.015085 135 136 130
-0.288710 0.007254 0.013999 113 128 123
-0.196306 -0.070062 0.432395 120 130 118
-0.020630 0.270205 -0.002724 107 120 107
-0.039641 0.144952 -0.000811 85 98 93
0.231911 0.139016 0.010209 131 137 135
0.270697 -0.048683 0.012466 111 117 119
0.076168 0.395132 0.002328 127 133 131
-0.116360 0.219095 0.019223 138 134 107
-0.059219 0.147365 -0.001435 90 102 92
-0.146683 -0.196942 0.006606 123 136 133
-0.328791 -0.109894 0.004986 34 45 41
0.234421 0.158945 0.010689 132 138 136
0.193840 0.021833 0.009423 118 124 122
0.256692 -0.079396 0.012584 130 133 132
-0.186327 0.162626 0.036237 109 97 66
-0.175812 0.359670 -0.000670 136 148 140
-0.072023 0.112839 0.000905 35 43 44
0.188369 -0.145473 0.011378 127 135 136
-0.105000 -0.158337 0.005371 109 121 123
-0.175315 -0.108152 0.006205 114 127 124
-0.054286 0.175688 -0.003399 96 104 91
-0.269654 0.029403 0.014145 33 39 41
0.173208 0.206808 0.006394 126 134 131
-0.405405 -0.021864 0.402433 35 41 41
-0.221566 -0.154865 0.005383 124 137 132
0.335990 0.099829 0.015366 135 136 130
-0.297345 -0.108644 0.382935 45 59 50
-0.186613 0.176998 0.034502 112 105 72
0.203480 0.007797 0.009079 124 132 129
-0.171272 0.327884 -0.002573 136 150 139
-0.413699 0.027592 0.446151 169 136 137
-0.198104 0.310925 -0.004008 141 150 143
0.045779 -0.158632 0.071349 87 109 123
0.087726 -0.115331 0.007169 15 32 33
-0.492498 -0.028600 0.003021 84 91 85
0.323343 -0.134204 0.016704 132 134 125
0.119715 -0.006191 0.007884 96 107 103
-0.376072 -0.010114 0.430800 111 122 120
-0.424781 -0.005247 0.453219 120 125 130
0.379095 0.186448 0.020574 87 90 89
-0.070230 0.039134 0.004103 97 117 110
0.012040 -0.129699 0.018443 47 103 133
-0.147140 -0.051508 0.005675 93 111 107
0.343876 0.078418 0.015381 139 138 138
-0.261881 -0.144416 0.006040 133 144 140
-0.030412 -0.186011 0.060598 83 127 143
-0.476329 0.031779 0.465668 154 148 152
0.103792 -0.164686 0.009792 93 106 101
-0.417857 -0.020864 0.409624 48 56 55
-0.084592 -0.014050 0.005339 91 111 104
0.004609 0.240742 -0.001604 111 125 116
-0.216095 -0.097900 0.444177 114 160 166
-0.212424 0.168324 0.010713 117 125 114
-0.002955 -0.011354 0.004467 89 107 103
-0.303628 0.014583 0.015358 115 129 120
0.192823 0.222500 0.007944 126 134 131
0.226204 -0.054076 0.010928 117 129 121
-0.128665 0.024613 0.003714 93 109 100
-0.086035 0.211185 0.043096 143 138 109
-0.488412 -0.024025 0.466659 178 176 168
0.056034 0.222607 0.001639 111 124 121
-0.175099 0.063250 0.055540 106 120 109
0.353288 0.281383 0.020033 137 140 139
-0.187734 -0.085941 0.343584 57 48 41
0.192087 0.232369 0.007313 133 139 137
-0.302956 -0.124973 0.006909 92 105 100
0.354236 -0.031486 0.019363 138 141 140
0.112189 -0.168218 0.009824 29 41 45
-0.328902 0.053024 0.010916 132 145 140
-0.407661 -0.009380 0.443489 126 134 133
0.253999 -0.195319 0.013831 136 136 138
-0.270116 -0.189434 0.004002 129 140 136
-0.497432 -0.029665 0.451047 84 85 81
0.382312 0.066060 0.019568 133 139 137
-0.150904 -0.019441 0.003248 92 110 104
-0.438416 0.009615 0.467173 74 73 80
0.163731 0.311099 0.005965 114 122 123
0.328075 0.299910 0.017765 134 141 133
-0.289521 -0.103320 0.396527 123 141 137
-0.017878 -0.146005 0.012646 18 65 94
-0.226917 -0.149696 0.005936 118 131 126
0.056652 0.122866 0.004619 99 118 108
-0.386635 -0.044767 0.000759 123 136 133
0.146368 0.393527 0.005729 128 135 129
0.086973 0.025972 0.007979 77 92 91
-0.404671 -0.046434 -0.000123 127 140 135
0.017016 -0.141151 0.027278 69 122 153
-0.178912 0.168163 0.026929 105 93 64
0.036349 0.055284 0.006542 90 108 104
0.369595 -0.174730 0.022094 133 134 128
0.271917 0.131935 0.011604 128 135 129
-0.301829 -0.106312 0.404887 60 73 68
-0.005185 0.393430 -0.000458 52 62 65
0.115793 -0.026245 0.008374 73 85 77
0.284773 0.399512 0.014256 109 109 111
0.150450 0.124748 0.006652 117 128 128
0.290001 0.162732 0.012876 134 140 138
-0.215238 -0.077772 0.451850 122 163 171
0.136599 0.013818 0.008416 109 118 111
-0.368375 -0.066032 0.001576 114 127 124
-0.414112 -0.017431 0.430396 138 137 139
-0.264906 -0.104278 0.377182 51 65 56
-0.198423 -0.072617 0.434441 121 129 118
-0.269641 0.240899 0.019053 130 139 132
-0.350612 0.030489 0.427868 96 108 112
0.211646 -0.167019 0.012178 134 137 136
-0.026633 0.332007 -0.002058 125 137 129
-0.417274 -0.014269 0.440193 133 136 135
-0.360773 -0.016595 0.412918 53 59 61
0.153164 -0.087815 0.008760 78 84 86
0.377399 -0.137448 0.021985 139 138 138
-0.399580 -0.019378 0.422954 117 123 121
-0.400087 0.028941 0.440800 172 139 142
-0.213041 -0.086348 0.007264 106 121 116
0.122017 -0.173599 0.010279 47 58 58
0.221360 -0.184550 0.012233 132 138 138
-0.410423 -0.078594 -0.000672 121 129 128
-0.176038 -0.060528 0.003841 104 119 114
-0.247536 -0.052980 0.447564 125 171 177
0.342780 -0.036792 0.017785 113 116 119
-0.253593 -0.100490 0.401936 79 120 124
0.378355 0.347552 0.022539 134 137 138
0.013706 0.119097 0.002782 103 116 111
-0.535667 -0.082732 -0.000462 79 85 83
0.265893 0.027376 0.011701 124 135 133
-0.398612 -0.021142 0.396859 44 43 43
-0.198123 -0.111530 0.270809 7 13 13
-0.294229 -0.185995 0.004059 96 104 101
-0.495419 -0.106520 -0.001027 49 52 53
0.317663 -0.126868 0.016418 133 137 130
-0.093431 -0.096575 0.005190 104 124 121
-0.388366 0.043020 -0.004071 126 141 138
-0.223600 -0.062348 0.454401 130 170 172
-0.507370 -0.082707 -0.000322 78 85 79
-0.136294 0.235252 0.026452 136 126 94
0.298516 0.020822 0.013054 130 134 129
-0.288498 -0.005311 0.392482 181 138 144
0.147810 -0.002582 0.009175 44 51 45
0.369660 0.295352 0.021489 137 140 139
-0.396449 0.024487 0.442830 162 147 146
0.031353 0.064152 0.005464 92 107 102
-0.166793 0.092206 -0.002515 102 118 109
-0.280647 -0.084753 0.007572 60 71 71
-0.081509 -0.193657 0.007119 121 135 137
-0.010022 0.279457 -0.001714 115 127 117
-0.424632 0.022669 -0.000176 119 130 128
-0.161337 0.143847 0.023256 93 86 57
-0.059742 -0.079493 0.037586 39 98 132
0.311414 0.175618 0.014526 136 139 138
-0.210630 -0.103198 0.407859 63 81 77
0.321763 0.351132 0.016706 136 143 135
-0.204156 -0.101564 0.315558 18 29 27
-0.276936 -0.077811 0.406849 121 167 173
0.372591 0.262036 0.020184 66 69 72
0.054408 0.199021 0.001856 68 79 77
-0.228528 -0.040879 0.012570 22 30 29
-0.159437 -0.099346 0.007625 112 127 122
-0.063455 -0.119128 0.024899 31 89 121
0.054075 0.087763 0.005286 98 118 111
-0.190923 0.214393 0.043395 129 119 87
0.122647 0.042791 0.007683 99 114 109
-0.001175 0.024724 0.005049 97 112 107
0.322451 -0.164906 0.017895 142 143 139
0.256710 -0.021015 0.011652 126 132 130
-0.000141 -0.151929 0.021453 43 94 124
-0.458393 0.004988 0.469145 150 149 149
0.216472 -0.032471 0.010281 128 131 130
-0.335895 -0.087508 0.004207 123 134 130
0.275838 0.227996 0.011922 74 76 82
-0.245571 -0.108585 0.435151 86 132 138
-0.489586 -0.026741 0.454913 110 110 106
0.170026 0.197177 0.006864 124 132 129
-0.203347 -0.119155 0.006139 116 129 126
-0.497768 0.004312 0.489003 156 153 150
-0.313682 0.039690 0.414255 134 170 178
-0.236582 -0.105900 0.446866 103 151 159
-0.469304 -0.021975 0.454354 148 148 144
-0.155351 -0.179625 0.006308 122 135 130
-0.365769 -0.020418 0.400858 43 54 52
-0.215250 -0.076716 0.452265 122 163 171
0.250206 -0.142397 0.013470 84 84 86
0.289237 -0.199145 0.015466 139 138 138
-0.328868 -0.068445 0.427456 82 93 91
-0.187345 -0.097066 0.312213 108 119 115
0.367420 0.141841 0.019349 135 135 135
-0.478532 0.023076 0.472864 157 153 154
0.240490 0.331413 0.010743 133 140 134
-0.005809 0.234017 -0.002482 45 59 63
0.139202 -0.161190 0.010009 130 141 137
-0.289314 -0.070008 0.414491 68 93 100
-0.042690 0.018617 0.004510 96 119 113
-0.023070 0.372652 -0.001154 132 141 134
-0.405144 -0.096959 -0.001539 123 134 134
-0.225208 0.248232 -0.002370 124 138 127
0.258195 0.323506 0.011493 135 141 139
-0.065061 -0.102455 0.029501 36 96 127
0.117775 0.236182 0.003768 45 56 52
0.223325 -0.022675 0.010482 129 133 128
0.088651 -0.020251 0.007894 93 106 101
0.204054 0.042506 0.009375 121 129 126
-0.204544 -0.072688 0.005791 110 123 118
-0.187192 -0.027945 0.323569 110 119 112
-0.064042 -0.183407 0.007576 121 139 137
-0.494499 -0.099338 -0.000457 79 87 84
-0.304151 0.056735 0.397992 139 171 178
-0.194720 0.219502 0.049562 128 121 92
-0.146909 -0.128689 0.008000 110 128 124
0.386433 -0.093527 0.022203 141 138 135
-0.219078 -0.051208 0.014671 24 35 31
0.352152 -0.169091 0.020544 126 126 128
-0.331555 -0.116869 0.396709 49 66 67
0.112486 0.015978 0.007821 94 106 98
0.263020 -0.172629 0.013542 127 134 128
0.150553 0.108961 0.007510 53 61 60
-0.227516 -0.053745 0.453351 79 92 89
-0.111547 0.051501 0.003718 108 124 113
-0.157058 0.395585 0.000578 137 145 142
0.142334 0.179161 0.005673 112 124 116
0.013412 0.051366 0.005678 98 113 108
-0.184591 -0.093785 0.317759 98 111 96
-0.398744 -0.015248 0.431640 142 145 144
0.195929 0.038342 0.009313 121 129 126
-0.024058 0.060082 0.004423 103 121 115
0.243895 -0.172516 0.013073 124 128 121
0.009358 -0.151880 0.027791 64 117 150
-0.450127 -0.021121 0.451492 166 167 163
0.335903 -0.075072 0.017214 139 139 135
-0.176235 0.132464 0.043311 122 123 96
0.086530 0.019982 0.007658 86 99 96
-0.293780 0.238085 0.033587 32 39 43
-0.143601 0.019270 0.001753 92 108 99
-0.379713 -0.040990 0.001052 121 134 133
-0.487258 -0.088161 -0.000596 84 90 88
-0.400096 -0.021641 0.399904 38 41 42
-0.284060 0.003002 0.384452 165 117 123
-0.376026 -0.021529 0.001133 121 132 130
-0.280367 0.248546 0.014426 132 144 136
0.218188 0.108315 0.009769 62 72 75
0.134732 0.013833 0.008358 107 116 109
-0.284725 -0.108345 0.379731 101 114 109
0.049367 -0.109584 0.063516 81 137 169
0.210294 0.121713 0.009138 119 125 123
-0.312536 -0.115159 0.393438 47 58 54
0.223945 -0.082744 0.011043 127 136 129
-0.207048 -0.179203 0.004561 123 136 133
-0.234377 -0.068607 0.455820 117 167 177
0.243967 -0.125992 0.013063 129 133 128
0.201183 0.370917 0.008818 131 139 136
-0.027071 0.206539 -0.004246 91 103 95
0.326203 0.300212 0.017302 134 141 133
0.228515 0.388456 0.010409 78 84 84
-0.165534 0.176530 0.016744 85 74 51
-0.307141 0.033298 0.412657 135 169 175
0.094775 0.330420 0.002397 124 138 129
0.231597 -0.196762 0.012632 136 140 135
-0.040770 -0.083178 0.021432 34 90 120
-0.102824 0.003621 0.005810 91 111 104
0.318576 0.109110 0.013941 65 65 61
0.343809 0.136432 0.016689 135 139 134
-0.515544 0.003496 0.001264 94 98 93
-0.262582 -0.167122 0.005055 77 80 83
-0.145529 0.046461 0.000655 100 114 105
-0.032560 0.037220 0.004257 107 123 114
-0.252322 -0.106561 0.436037 98 144 150
-0.217082 -0.130082 0.006250 112 127 124
-0.292846 0.018551 0.015589 113 127 118
-0.171830 0.234572 0.037545 132 122 92
0.014623 0.278910 -0.000462 119 131 123
-0.104456 0.318790 -0.002738 44 55 51
0.263013 0.195062 0.011943 135 138 137
-0.206123 0.398200 -0.000337 137 146 139
-0.206325 -0.097852 0.422799 67 96 97
-0.334827 -0.092197 0.424865 93 101 100
0.304697 0.105273 0.012739 127 136 127
0.214950 -0.181018 0.012037 130 134 129
-0.404920 -0.025240 0.000293 130 141 139
-0.100176 -0.182991 0.005841 125 139 141
-0.296204 -0.101644 0.406130 53 71 67
-0.473925 -0.025240 0.446998 101 106 96
0.296185 0.360091 0.014605 139 140 136
-0.316779 0.018733 0.014872 118 132 123
-0.328970 -0.159381 0.002158 40 46 44
0.273522 -0.149799 0.014377 138 139 135
0.051755 -0.021778 0.006350 56 69 66
-0.352358 -0.002641 0.424579 84 90 88
0.311868 0.077433 0.012584 131 140 133
0.072583 -0.059119 0.007488 88 103 102
-0.191280 -0.088560 0.348883 34 42 43
0.146287 0.140504 0.006146 112 120 117
0.205640 0.391846 0.009014 136 140 135
0.313144 0.148657 0.014251 66 66 70
-0.012812 -0.190822 0.009673 109 126 129
-0.371621 -0.016742 0.412950 61 71 74
-0.013667 0.395937 -0.000439 130 138 135
-0.423046 0.013256 0.457096 152 152 148
0.074201 0.170808 0.003203 111 122 118
0.175837 -0.147202 0.011100 128 136 135
-0.136417 -0.196978 0.006743 129 142 141
0.373310 0.194465 0.018630 71 74 73
-0.069209 0.008180 0.004924 99 117 111
0.388015 0.151777 0.021870 142 143 139
0.248397 0.145470 0.010903 119 127 128
0.007308 0.110031 0.003303 80 96 87
-0.252275 -0.082932 0.007925 95 108 107
-0.488526 -0.117593 -0.000615 79 85 83
-0.481630 -0.058874 0.001823 83 89 87
0.165733 0.251684 0.006595 124 135 133
0.311073 0.006481 0.013494 112 118 118
-0.457025 -0.038223 0.003217 87 98 96
-0.160415 -0.191630 0.005910 125 136 132
0.279153 0.253562 0.013092 94 105 103
0.397814 0.211902 0.020932 137 137 137
0.201975 -0.071277 0.010583 124 132 129
0.015762 0.299175 -0.001137 121 130 123
-0.116053 -0.022459 0.006295 97 115 109
-0.152569 -0.053442 0.005660 101 116 113
0.371637 0.164429 0.019141 67 73 75
-0.358881 -0.097779 0.412923 127 166 175
-0.351827 -0.102978 0.415470 117 156 165
-0.063753 -0.124982 0.026437 31 87 117
0.304620 -0.072312 0.014447 137 136 136
0.301876 0.052014 0.012650 131 138 130
-0.267288 -0.103502 0.386531 50 64 55
0.279610 0.158471 0.012253 132 138 138
0.121891 0.195325 0.005279 116 127 123
-0.153806 -0.150012 0.007315 118 133 132
-0.169870 0.237409 0.040330 130 123 92
-0.494567 -0.010916 0.483939 121 124 123
-0.364709 -0.006878 0.430475 46 54 55
-0.509955 0.001721 0.000804 93 97 92
-0.130194 0.096660 -0.002275 102 118 107
0.171401 0.104530 0.007976 116 130 119
-0.077153 0.140116 -0.000717 58 62 55
-0.297247 0.052656 0.390838 165 163 174
0.099363 -0.157448 0.009182 97 108 106
-0.090495 0.129146 0.061957 118 117 91
0.134397 -0.141472 0.009715 112 123 121
0.094803 0.070317 0.006693 44 58 49
-0.322251 -0.045295 0.420863 81 89 88
-0.462349 -0.010665 0.002558 120 126 126
0.127472 -0.039764 0.007980 105 116 112
-0.462795 -0.009115 0.465502 136 139 138
-0.204169 -0.156580 0.005217 118 131 128
0.355157 -0.009333 0.018291 147 142 140
0.102007 0.317325 0.003141 123 135 127
-0.410795 -0.111533 -0.002127 119 127 126
-0.134195 0.056341 0.001974 100 116 107
-0.191816 0.306528 -0.004751 132 141 132
-0.290397 -0.101929 0.399011 124 131 135
0.206691 0.255539 0.008800 128 139 135
0.046354 -0.133251 0.060611 83 139 171
-0.157888 0.201882 0.012662 94 84 54
0.031229 -0.165659 0.066135 79 132 165
0.228750 0.286684 0.010060 139 140 136
0.363480 -0.001876 0.019683 142 143 139
-0.306470 -0.110671 0.384238 46 57 53
0.249384 0.385481 0.011246 114 120 120
-0.422948 -0.093634 -0.000457 88 99 97
-0.185855 -0.121382 0.262286 99 113 104
-0.354436 -0.004431 0.425032 85 88 87
0.319365 0.024333 0.014641 128 135 127
0.146352 -0.173712 0.010749 130 142 134
0.263523 -0.001000 0.011544 128 135 129
0.161595 -0.148896 0.010702 131 139 138
-0.406283 -0.030880 -0.000290 128 139 137
-0.429347 0.013446 0.462357 161 157 150
0.271088 0.358680 0.012577 137 141 136
0.233952 0.346641 0.010747 107 115 116
0.323547 -0.095405 0.016047 138 139 130
-0.135741 0.360500 -0.001006 53 59 59
0.329369 -0.184146 0.017807 140 141 137
0.167333 -0.073009 0.009800 121 129 126
-0.073232 -0.002137 0.005544 106 124 120
-0.030912 0.329533 -0.002234 122 133 129
-0.141978 0.304247 -0.004146 128 141 128
0.261356 -0.127938 0.013573 140 138 130
-0.462110 -0.116190 0.000919 79 87 84
-0.222317 -0.073502 0.008018 107 122 119
-0.132753 -0.091768 0.007327 103 120 121
0.205066 0.093793 0.008309 121 134 129
-0.286864 0.046233 0.017240 68 86 80
-0.441318 -0.101287 0.000223 83 91 88
0.211679 -0.191462 0.012129 132 140 137
0.375657 -0.030374 0.021775 138 139 135
-0.451128 -0.008995 0.463660 131 134 133
0.029147 0.393694 -0.000127 129 132 135
0.316198 -0.182153 0.016750 139 139 133
0.187466 0.076545 0.008277 119 131 123
-0.134736 0.256991 0.053465 129 132 107
-0.094634 -0.059202 0.006222 100 118 114
0.001774 -0.135631 0.014018 41 92 124
0.302807 0.116491 0.012118 130 134 129
0.112546 0.057244 0.007857 107 116 109
-0.196519 -0.092718 0.368582 96 116 113
-0.299550 -0.022735 0.014974 123 136 131
-0.190019 -0.168933 0.005370 117 130 127
-0.039805 0.092953 0.002133 102 121 111
0.372558 0.212973 0.018774 74 74 74
0.125274 -0.043609 0.007827 104 115 111
-0.064454 0.043313 0.004084 99 119 112
-0.068655 0.030388 0.005289 100 120 105
0.236569 0.099783 0.009743 125 134 127
-0.214576 -0.156605 0.005289 123 134 130
-0.005576 0.049536 0.004875 99 115 106
-0.389148 0.017181 -0.001106 108 119 115
0.082217 0.080841 0.006720 35 50 45
-0.296108 -0.032479 0.407487 68 74 72
-0.183798 -0.128327 0.006576 106 126 121
-0.339381 -0.092415 0.002110 126 134 131
0.365693 -0.026187 0.020988 138 142 137
0.389358 0.266278 0.021384 103 103 103
0.353411 0.382932 0.019866 106 112 110
-0.450033 -0.013048 0.461615 129 132 133
-0.238464 -0.007795 0.017436 47 63 54
0.202596 -0.157966 0.011384 134 137 136
-0.132837 -0.117928 0.008507 111 126 123
0.119992 -0.078113 0.007693 74 89 86
0.052289 -0.125229 0.068578 89 140 172
0.394298 0.259185 0.021222 135 142 136
0.307208 -0.015678 0.013748 136 143 135
-0.167641 -0.001699 0.003388 99 114 113
-0.062897 -0.031503 0.004874 108 123 120
0.147786 0.013712 0.008800 32 40 39
0.028488 -0.134314 0.034387 70 126 156
-0.216950 -0.096541 0.284264 12 20 19
0.327178 0.188834 0.015705 107 107 109
0.372454 0.399704 0.022358 144 144 140
-0.280076 -0.059053 0.009477 111 124 119
-0.139999 0.198661 0.006880 80 72 46
-0.443478 -0.007920 0.460420 127 125 134
-0.005710 0.380509 -0.000816 50 61 59
-0.126227 0.224462 0.017944 136 130 106
0.359138 0.114068 0.017587 142 143 139
0.145462 0.190645 0.005761 75 83 84
0.008973 -0.096314 0.016645 47 103 131
-0.298509 -0.103813 0.405188 59 74 71
0.074279 -0.082039 0.007774 96 107 107
-0.489149 0.026090 0.476032 164 160 165
0.231996 0.110357 0.010240 79 85 87
-0.195627 0.163668 0.045530 122 110 81
0.326065 0.072668 0.013841 133 140 134
-0.307136 0.010860 0.014675 115 131 122
0.183492 0.013759 0.009122 118 129 127
-0.198474 -0.090223 0.423378 70 81 79
0.003249 0.342200 -0.001465 126 135 128
0.284034 0.229973 0.012684 121 127 125
0.185693 0.343233 0.007518 60 68 67
0.358532 0.035860 0.016943 138 141 140
-0.378688 -0.001208 0.438523 116 124 125
-0.037973 -0.069145 0.034693 34 94 125
0.339903 -0.022944 0.017457 96 100 95
-0.047779 -0.064353 0.047100 46 102 132
-0.119025 -0.163957 0.006606 50 64 70
-0.196788 0.354604 -0.001194 59 73 79
-0.131467 0.390980 0.000213 110 118 119
-0.242179 -0.064795 0.009964 106 119 114
-0.261149 0.003686 0.013347 106 120 111
-0.331220 -0.116401 0.398438 52 67 66
-0.314094 0.033917 0.415827 128 165 168
-0.185938 0.332265 -0.001897 132 143 139
0.343165 -0.145725 0.019347 82 88 88
-0.432992 -0.019896 0.435784 122 125 124
0.217723 0.003491 0.009886 121 132 130
-0.309619 -0.001633 0.415395 92 100 97
-0.196297 -0.199571 0.003139 134 142 141
-0.342626 -0.119352 0.388071 75 107 114
-0.321425 -0.026421 0.411029 30 35 40
0.002269 0.367696 -0.001016 125 139 130
-0.062177 0.057773 0.004361 99 119 112
-0.122535 -0.169244 0.006675 120 133 132
-0.132067 0.183320 0.005775 99 95 70
-0.016263 0.062514 0.003823 99 113 104
-0.464706 -0.028560 0.439789 82 86 79
-0.136354 -0.114130 0.008001 24 38 40
0.351478 -0.131213 0.019027 67 63 68
-0.121989 -0.084216 0.007161 91 101 104
-0.369009 -0.102791 -0.000401 113 126 123
-0.048762 -0.187196 0.008960 119 137 135
0.052585 0.094179 0.005324 99 114 111
-0.448488 -0.097958 0.001316 86 89 88
-0.268824 -0.110167 0.006231 116 129 124
-0.036362 -0.132886 0.010536 19 66 95
0.115714 0.109220 0.006488 30 40 43
-0.488225 0.048901 -0.004665 122 128 128
-0.325328 -0.051560 0.009405 118 126 123
0.297123 0.367547 0.015049 145 145 141
-0.153542 0.116560 0.041411 112 116 95
-0.489229 -0.123303 0.000292 78 87 80
0.327899 0.132616 0.015307 137 141 136
0.258756 -0.054503 0.012413 125 134 127
-0.031386 0.316761 -0.002074 123 135 127
0.349292 0.110414 0.016084 140 139 139
-0.103587 -0.179557 0.006014 37 52 51
0.089742 -0.072335 0.007194 91 99 98
-0.320288 0.240290 0.026239 133 145 135
0.109884 0.287224 0.003520 120 128 125
0.061252 -0.189471 0.011196 104 117 116
-0.130701 -0.020071 0.005067 93 108 103
-0.452636 -0.092470 0.001481 84 90 88
0.242553 0.331346 0.010873 132 139 133
-0.492734 -0.025541 0.468717 169 166 163
0.387033 -0.036489 0.022563 145 145 141
-0.303773 0.069753 0.391422 195 151 162
-0.107345 0.151240 0.022750 113 109 84
0.105744 0.287220 0.003450 120 128 125
0.007149 0.174385 -0.000139 90 102 94
-0.026592 -0.060619 0.047248 43 103 134
-0.268105 -0.160122 0.005141 131 140 133
0.017310 0.146291 0.001718 103 115 107
0.150861 -0.026315 0.008925 115 126 122
-0.495052 -0.037987 0.002210 84 91 85
0.089120 -0.058929 0.007103 90 101 99
-0.179994 -0.146261 0.006531 121 132 128
0.229523 -0.152848 0.012302 137 138 134
0.154095 -0.166747 0.011030 47 54 60
-0.331005 -0.017799 0.012021 76 89 84
-0.200009 -0.186049 0.004194 93 104 102
-0.445039 -0.024640 0.419345 28 36 35
-0.196436 -0.089065 0.418857 25 33 32
-0.139970 0.365330 -0.000622 133 142 135
0.332097 0.042926 0.014699 131 134 133
0.215813 -0.125683 0.011871 77 88 86
-0.291664 -0.089793 0.411358 109 122 121
0.192395 -0.063256 0.009405 119 130 128
0.137529 0.094078 0.006758 108 119 115
-0.334930 0.236099 0.032334 156 156 150
-0.261069 0.001745 0.013233 106 120 111
-0.402179 -0.071191 -0.000211 121 134 131
-0.137981 0.040003 0.001294 104 119 114
0.036013 0.362635 -0.000560 124 136 128
-0.325763 0.024064 0.420766 86 94 93
0.334612 -0.032607 0.016982 136 140 135
0.171221 0.303430 0.006332 125 132 126
-0.471281 0.019439 0.472184 156 148 147
0.359772 0.320834 0.020558 139 140 136
0.049649 -0.127216 0.063706 83 139 171
0.116754 0.396623 0.004590 128 137 130
0.072175 0.029923 0.008127 31 39 38
-0.309783 0.001004 0.415832 93 101 98
0.165410 -0.117996 0.010353 124 135 133
-0.397967 -0.003699 0.443671 120 128 127
-0.332970 -0.023368 0.403785 157 172 171
0.336415 -0.082562 0.017012 138 139 135
-0.463616 -0.020915 0.454916 175 176 170
0.197466 0.317583 0.008075 131 139 136
0.125115 -0.192805 0.010586 118 126 123
0.279575 0.019024 0.012257 126 134 131
-0.421353 -0.019024 0.432623 130 134 129
-0.134210 0.045990 0.001839 98 114 103
-0.163496 -0.046259 0.006959 43 55 57
-0.094694 0.129863 0.033750 102 105 87
0.007514 -0.196068 0.010018 114 129 128
0.074226 0.307619 0.002145 109 120 118
0.175793 -0.175524 0.011002 128 135 129
-0.212931 -0.101428 0.321504 22 30 31
0.134081 0.137903 0.006643 109 120 116
-0.148191 0.299231 -0.004213 133 136 120
-0.485107 0.054892 -0.004112 121 127 127
-0.163428 0.160071 0.018054 82 76 52
-0.107764 0.051508 0.003753 54 62 59
-0.309224 0.068593 0.397011 190 146 157
-0.479928 -0.103015 -0.000386 84 87 86
-0.048991 0.053770 0.004157 101 117 108
0.166898 -0.177223 0.010788 131 137 137
-0.376950 -0.011608 0.000942 121 134 131
0.132411 0.329950 0.003749 127 136 129
-0.322269 -0.107576 0.417276 78 91 88
-0.063741 0.066737 0.003148 96 116 109
-0.192717 -0.129926 0.257583 28 46 44
0.200733 0.155237 0.008727 129 136 130
-0.073363 0.189094 0.049628 138 132 106
-0.106858 -0.163905 0.006419 59 71 75
0.093434 -0.199538 0.009986 113 121 120
0.248966 0.398789 0.011132 140 144 139
-0.476884 -0.009070 0.003333 107 113 111
-0.138274 0.235387 0.026210 135 125 93
0.175735 0.288220 0.006863 126 134 131
-0.330908 -0.183302 -0.000033 144 147 146
-0.199625 -0.103479 0.272889 35 48 43
-0.259526 0.399221 -0.002665 146 152 150
0.039974 0.107315 0.004836 99 115 104
-0.051121 0.154183 -0.001452 33 45 37
0.118769 -0.187579 0.010429 126 132 130
-0.251957 -0.174015 0.004689 125 136 132
-0.178918 -0.104418 0.006012 114 129 126
0.117163 0.322623 0.003075 120 128 125
0.166842 0.385201 0.006636 121 128 122
0.214929 -0.018331 0.009416 98 106 103
-0.498062 0.006685 0.489492 161 158 155
-0.409040 -0.111526 -0.002139 124 135 135
0.060509 0.122749 0.004899 102 118 109
-0.290933 -0.025218 0.398277 129 106 105
-0.161353 0.133653 -0.002393 106 115 97
0.029640 -0.023340 0.005058 83 101 99
0.344342 0.114915 0.015750 129 136 130
-0.094527 0.051498 0.003951 98 114 105
0.144502 -0.099244 0.009337 119 130 126
0.397814 0.122624 0.022671 140 140 134
-0.306323 -0.110653 0.378656 43 54 52
-0.115877 -0.198673 0.006615 121 134 129
-0.343419 -0.118914 0.389901 78 112 120
-0.148057 0.219833 0.013809 104 94 64
-0.384758 0.020713 0.440248 156 156 152
-0.243079 -0.105377 0.398656 50 68 66
-0.410979 0.048280 -0.002284 127 140 137
-0.257971 -0.194440 0.003331 131 139 136
-0.134540 -0.091833 0.007514 105 119 121
0.292385 0.039677 0.012199 130 133 132
-0.240915 -0.106277 0.447495 108 156 164
0.269869 -0.140698 0.013907 136 137 133
0.030832 0.239730 0.000438 111 124 119
-0.004735 0.028795 0.005058 96 114 108
-0.254907 -0.091150 0.449780 123 171 179
-0.545245 -0.133572 0.004479 33 34 28
-0.172498 -0.046085 0.011611 61 73 75
-0.397974 -0.015617 0.430105 147 150 149
-0.127393 0.328100 -0.002053 131 145 136
-0.108243 0.012195 0.004510 13 28 23
0.091630 -0.162995 0.010066 96 104 101
0.265338 -0.092708 0.013074 129 129 129
0.169829 0.194960 0.006690 122 133 129
0.293332 -0.095050 0.014734 129 133 126
-0.304095 -0.109236 0.397571 53 65 57
-0.207911 -0.070382 0.448379 119 134 129
0.000657 0.243179 -0.001737 109 121 113
0.075323 0.292966 0.001739 120 133 128
-0.027908 0.012727 0.004222 112 127 124
0.255832 -0.026927 0.011611 128 134 132
-0.007513 -0.144658 0.014268 23 68 97
-0.539913 0.045120 0.007397 100 104 99
-0.078735 0.199709 0.046971 140 134 108
-0.220900 0.238867 -0.002596 126 134 131
0.105545 -0.182229 0.009845 112 120 119
-0.029626 0.149449 -0.000684 87 99 89
0.344281 0.069915 0.015410 65 71 71
0.310559 -0.164669 0.016949 138 139 135
-0.202965 -0.094182 0.423333 74 94 91
-0.315174 -0.070265 0.008779 115 129 120
-0.342954 -0.090965 0.424875 94 105 103
0.084236 -0.166605 0.010378 96 107 107
-0.376485 0.001249 0.439152 117 125 124
0.308608 0.035349 0.012835 69 75 77
0.395587 -0.056038 0.023239 140 144 137
-0.350372 -0.003888 0.422210 87 90 89
0.364974 0.315530 0.021041 142 143 139
-0.241848 -0.016996 0.015894 54 62 59
0.362753 0.058721 0.017047 140 144 139
-0.417080 -0.018639 0.427925 124 130 128
0.166634 0.259241 0.006140 122 133 131
-0.538608 0.016369 0.003664 125 132 126
0.148814 0.023802 0.009037 69 80 78
-0.095245 0.199816 0.028288 138 134 107
-0.118563 0.108990 -0.000776 98 115 101
-0.015949 0.147103 -0.000279 87 99 89
0.365619 0.358183 0.021831 143 144 140
0.362955 0.180782 0.018264 138 138 134
-0.246321 -0.141041 0.006796 118 131 126
-0.295955 -0.185966 0.003937 53 64 60
0.380989 0.341468 0.023888 96 96 96
0.200234 -0.018131 0.008748 123 131 128
-0.182970 -0.076157 0.005072 107 122 119
-0.084487 -0.174444 0.006498 119 137 133
-0.041857 0.140000 0.000046 92 107 102
-0.331257 0.021268 0.422439 89 97 94
-0.267241 -0.082812 0.430307 121 169 177
-0.044708 0.066610 0.003678 16 31 30
0.345336 -0.152854 0.019302 100 100 100
0.338658 0.263181 0.017866 133 140 132
0.159228 0.326830 0.005051 127 136 127
-0.227060 -0.088108 0.451640 111 161 169
-0.025028 0.377722 -0.000976 132 141 134
-0.261261 -0.094696 0.442307 121 169 177
-0.293644 -0.003144 0.400395 67 74 68
-0.305076 -0.117936 0.007596 118 131 126
-0.326411 -0.062141 0.425956 80 91 89
-0.395962 -0.080484 -0.000522 122 133 131
0.283156 0.209096 0.012160 131 137 137
-0.091422 -0.085281 0.004944 36 48 52
0.112900 0.297427 0.003155 119 127 124
0.036877 -0.090562 0.054658 71 128 163
-0.024686 0.270535 -0.003292 105 118 105
0.001016 0.388235 -0.000459 123 135 127
0.112550 0.200612 0.004052 114 126 118
-0.233982 -0.040678 0.011981 24 32 31
-0.460405 0.012494 -0.000436 117 128 124
0.110976 -0.115319 0.007258 103 116 113
0.095309 -0.128338 0.007902 25 36 36
-0.483891 0.181189 0.062409 47 53 55
0.040182 0.166376 0.002447 107 121 112
-0.225607 -0.012794 0.418319 126 135 128
0.381965 -0.121482 0.023162 144 144 138
-0.353655 -0.063365 0.413733 92 95 94
0.333332 -0.059750 0.016995 133 137 132
0.189423 -0.189642 0.011773 125 133 132
-0.461361 -0.020877 0.454903 175 176 170
-0.481939 -0.088172 -0.000524 82 88 88
-0.214608 0.395874 -0.000907 121 129 128
0.399223 -0.046548 0.023643 142 143 139
-0.050236 0.392660 -0.000351 84 92 93
-0.181796 -0.142712 0.006601 119 130 126
0.054151 0.287616 0.001936 104 115 113
0.196343 0.234592 0.007632 131 138 132
0.212444 0.287132 0.009112 136 142 140
0.052929 0.300181 0.001677 121 134 129
0.099169 0.257742 0.003543 118 130 122
-0.043175 -0.124177 0.011649 22 68 100
-0.261559 0.015085 0.014715 102 115 110
-0.304195 -0.037678 0.013524 114 122 119
0.085602 0.007987 0.007224 87 102 99
0.163431 0.228186 0.005919 111 123 115
-0.000006 0.047423 0.005018 98 113 108
0.380924 0.078771 0.019527 142 143 139
0.156590 -0.161351 0.010662 130 138 137
0.332557 -0.044251 0.016817 139 140 136
-0.114141 -0.195311 0.006904 121 134 131
-0.175634 -0.084690 0.314016 99 118 108
-0.046626 0.225410 -0.004623 93 103 91
-0.514559 -0.014641 0.002076 86 93 87
-0.455271 -0.038161 0.003070 89 102 99
-0.007787 0.329744 -0.002094 67 75 72
-0.072253 0.361705 -0.001392 82 88 88
0.296151 0.388990 0.014397 127 130 131
-0.127116 -0.036038 0.005882 99 114 109
0.011955 -0.055835 0.074204 73 121 141
0.240541 -0.114787 0.012313 131 137 135
-0.079035 -0.163913 0.006491 93 101 102
-0.334535 -0.184580 -0.001974 138 144 142
0.116316 -0.096895 0.007622 106 119 114
-0.211492 -0.062337 0.450317 125 137 129
-0.034088 0.137781 0.000155 94 108 97
-0.496363 -0.012412 0.484086 130 134 129
-0.432687 -0.001047 0.458903 114 117 120
-0.327666 -0.068534 0.427628 82 93 91
-0.373060 -0.094034 0.001134 116 127 127
-0.219595 -0.077491 0.453492 102 142 153
0.134533 0.380500 0.005293 121 133 125
0.342500 0.050685 0.016064 110 110 112
-0.306260 0.396476 -0.003451 85 88 87
0.233368 0.106020 0.010226 118 131 126
0.077847 0.029970 0.008094 34 40 40
0.135823 -0.028340 0.008916 105 116 112
0.036400 0.111750 0.004628 98 109 107
-0.066770 0.030430 0.005216 103 123 108
0.059952 -0.161637 0.011596 92 107 106
-0.541059 -0.092228 0.000109 78 82 77
-0.209836 -0.138990 0.005986 116 131 126
-0.277207 -0.005897 0.012362 113 126 123
-0.077084 0.331237 -0.001939 122 134 126
0.169320 0.190316 0.006711 69 76 80
0.194287 -0.166872 0.011574 136 137 133
0.127635 0.373177 0.004462 124 133 126
0.376040 -0.028418 0.021787 139 140 136
0.293345 -0.117127 0.014270 135 136 132
0.373185 -0.024441 0.021627 123 123 127
0.029673 0.362755 -0.000840 122 134 126
0.373057 0.264510 0.020115 65 68 71
-0.385093 0.017978 0.441933 153 154 150
0.241718 -0.059987 0.011449 126 132 130
0.214476 -0.110851 0.011338 130 134 129
0.129069 0.085686 0.006226 110 119 112
0.035693 -0.091169 0.051108 70 127 162
-0.136268 -0.055504 0.006211 109 127 123
-0.026911 0.122080 0.000673 94 108 97
0.385339 -0.130599 0.023312 76 73 70
-0.546060 -0.105113 0.000039 76 82 80
-0.331771 -0.169678 0.001213 135 141 139
-0.542237 0.015471 0.014973 88 91 90
0.370298 0.273748 0.020783 138 138 138
0.071224 0.208561 0.001793 112 123 121
0.371688 0.058148 0.018385 138 137 141
-0.118394 -0.082357 0.007236 101 116 113
-0.094071 -0.026260 0.006201 97 112 107
0.034851 0.273551 0.000578 112 127 124
-0.145286 -0.066699 0.005406 100 118 114
-0.346498 -0.116458 0.392938 92 126 134
0.119979 0.355803 0.003225 131 137 137
-0.055089 -0.171455 0.008579 115 134 134
-0.546118 0.012934 0.029846 110 113 112
0.025009 -0.007622 0.005413 34 50 58
-0.149541 0.112455 -0.003730 100 116 105
-0.380989 -0.084772 0.001228 118 131 128
-0.056537 -0.162688 0.008630 107 130 135
0.092749 -0.117384 0.007917 95 108 107
0.096860 -0.182216 0.009793 107 118 114
-0.029941 0.357488 -0.001868 126 138 130
-0.189444 -0.199658 0.003518 127 135 132
-0.207807 -0.149634 0.005755 120 135 132
0.110327 0.177069 0.004811 109 124 119
0.387153 -0.063389 0.022324 144 144 144
0.182503 -0.108941 0.010938 83 89 87
0.345245 0.121217 0.016276 128 135 129
0.362098 -0.169386 0.021723 109 103 107
-0.305626 -0.017816 0.409124 82 95 90
-0.142067 0.352627 -0.000952 92 101 94
-0.249944 -0.098811 0.449880 121 169 177
-0.213363 -0.068696 0.452026 124 138 129
-0.327264 -0.077438 0.007687 132 140 137
-0.153332 0.094419 -0.002442 104 118 107
0.247039 -0.174329 0.013309 131 132 128
-0.241570 -0.024663 0.015557 72 83 79
0.008960 0.375217 -0.000473 126 138 130
0.264724 0.235205 0.011596 136 139 140
0.332748 0.357623 0.018550 141 145 140
-0.120192 0.203553 0.010569 117 110 89
0.377133 -0.102927 0.022498 143 143 143
-0.173744 0.038069 0.000540 60 73 70
-0.186143 -0.081553 0.354840 111 120 111
0.341502 0.386273 0.018727 117 120 121
-0.249141 -0.087878 0.453104 123 171 179
-0.036883 0.024572 0.004951 101 125 113
0.257130 0.254307 0.011569 136 139 138
0.220660 0.304324 0.009520 127 135 132
0.147322 0.269514 0.004971 70 76 76
-0.091721 0.095461 0.000672 100 116 107
-0.486207 -0.005926 0.482922 123 123 123
-0.250078 -0.046032 0.010712 35 48 47
-0.099774 -0.158360 0.005472 117 129 131
-0.087369 -0.147790 0.005873 113 130 133
0.089741 0.078748 0.006747 103 116 111
0.095080 0.009919 0.007552 95 106 102
-0.455306 -0.099806 0.001284 83 89 87
0.342809 -0.121953 0.018424 71 74 73
-0.149198 0.017347 0.001430 95 111 102
0.142555 -0.101041 0.009125 116 127 123
-0.433537 -0.021224 0.433576 109 109 109
0.269127 -0.197180 0.014412 140 143 142
-0.464761 -0.018872 0.003393 104 115 113
-0.038455 0.173277 -0.002927 90 104 95
0.307781 0.383003 0.015543 132 139 133
0.147358 -0.041900 0.008678 121 129 126
-0.446727 -0.023492 0.428310 44 49 54
-0.287615 -0.004135 0.390694 181 138 144
0.227405 -0.118508 0.012399 129 135 133
0.336212 0.034533 0.015014 132 133 129
-0.115406 0.041274 0.003353 97 113 104
0.180323 0.330938 0.006783 126 134 131
-0.265340 -0.105197 0.373490 123 137 126
-0.280556 -0.026729 0.384416 129 170 178
-0.227984 -0.062999 0.455372 121 167 173
-0.523743 -0.077471 0.000674 82 89 83
0.030415 0.051178 0.006313 95 110 105
0.204063 -0.043954 0.009525 124 133 126
-0.248150 -0.095978 0.008058 111 124 119
-0.446605 0.078307 0.388103 174 122 127
-0.335539 0.070576 0.396021 141 169 175
0.089031 0.028026 0.007991 84 98 100
0.048712 0.173647 0.001818 106 120 111
-0.019766 -0.121451 0.008694 17 64 93
-0.293328 -0.062440 0.415481 139 154 153
0.237360 0.121290 0.010347 122 133 129
-0.035436 -0.060846 0.047778 44 104 135
-0.194397 -0.089701 0.412688 41 52 48
0.068001 0.023917 0.007765 83 99 88
0.045299 -0.165718 0.013757 86 103 106
0.206762 0.171327 0.008416 128 136 133
0.000470 0.090451 0.003423 101 116 111
0.277466 0.143016 0.011758 52 65 62
0.335708 -0.141722 0.017825 142 143 137
-0.122481 0.157333 0.011770 101 99 76
0.287229 -0.037078 0.012820 135 139 132
0.346703 0.082831 0.015124 137 137 131
-0.212814 -0.093860 0.007480 109 124 121
0.125744 0.214297 0.004836 117 128 124
-0.067797 0.371921 -0.001056 138 144 142
-0.548953 0.011377 0.042274 67 74 68
0.209773 0.148480 0.008899 70 75 80
0.299724 0.109826 0.012278 74 74 76
0.353040 -0.156638 0.020180 144 144 144
-0.179229 -0.086351 0.326698 99 116 102
-0.051472 -0.139089 0.019697 28 81 112
0.167083 -0.134310 0.010057 123 134 130
-0.214848 0.315983 -0.004374 89 101 93
-0.207002 -0.180929 0.004519 124 135 133
0.061372 0.364149 0.001357 128 137 130
-0.456792 -0.008003 0.464098 128 131 130
-0.174806 -0.110967 0.203695 101 116 111
0.171728 0.009674 0.009050 117 125 122
-0.411858 0.002476 0.450648 121 129 130
0.100075 -0.037801 0.007673 97 110 105
-0.394387 -0.013524 0.431277 136 139 140
-0.061357 -0.091978 0.031017 35 98 128
-0.049494 0.265953 -0.004184 100 114 103
0.066538 0.053053 0.007252 93 109 100
-0.189049 0.397786 0.000518 139 148 139
-0.424228 -0.046848 0.000820 131 142 138
-0.058589 -0.173138 0.008309 118 133 132
-0.431266 0.007885 0.464003 145 141 142
0.064476 0.001745 0.007448 92 106 97
-0.024095 -0.092846 0.011425 19 66 95
-0.115458 -0.155039 0.006287 119 134 133
-0.181057 0.025439 0.001162 95 111 100
-0.184410 -0.033450 0.322421 111 121 109
-0.338427 0.011282 0.423784 86 93 87
0.238143 0.042368 0.010127 125 132 126
-0.267492 -0.062367 0.008229 113 128 123
-0.251268 -0.093148 0.451104 119 169 177
0.034935 -0.171928 0.070794 87 109 121
-0.486078 -0.067960 0.000676 80 86 84
0.266282 -0.129851 0.013923 59 63 58
-0.234997 -0.106301 0.384505 49 64 59
-0.367914 -0.070030 0.002192 110 123 120
0.072385 0.253475 0.002202 117 128 124
0.359845 -0.049173 0.019917 148 148 144
-0.293222 -0.012183 0.398413 77 86 79
-0.457746 -0.018541 0.002631 113 121 120
-0.312012 -0.030892 0.413738 60 72 74
-0.090687 -0.041844 0.006187 97 115 109
-0.480568 0.003261 0.002237 119 127 124
-0.019344 0.357551 -0.001751 128 140 132
0.004973 -0.111856 0.013367 34 90 120
-0.225601 0.328491 -0.004425 131 143 133
0.016638 -0.161426 0.043907 70 123 156
-0.162903 -0.108530 0.007508 113 128 123
-0.427886 -0.131523 -0.002245 30 34 29
0.268879 -0.102333 0.014047 133 137 132
-0.216506 0.385786 -0.001526 136 143 135
0.303696 0.084313 0.011507 126 133 127
0.148887 0.244956 0.005552 67 78 76
-0.390588 0.002066 0.443748 119 125 125
-0.015021 0.307067 -0.002272 112 131 119
-0.087687 0.133783 0.046215 101 107 90
0.147462 -0.104829 0.009397 118 129 125
0.221155 0.324733 0.009105 130 138 139
-0.107950 0.394503 -0.000450 115 128 127
-0.182879 -0.087203 0.334446 109 123 112
-0.019251 0.119684 0.001165 96 110 99
-0.085964 0.200656 0.038102 140 134 108
-0.494195 -0.027693 0.454225 102 102 98
0.079489 0.070309 0.006496 39 50 46
-0.239267 0.216264 0.014211 119 131 121
-0.103165 -0.020391 0.006179 91 109 103
-0.188284 -0.083210 0.363670 92 101 92
0.207411 0.295159 0.008147 131 139 136
0.261765 -0.169154 0.013714 85 81 82
-0.097570 0.091118 0.000669 100 116 105
-0.160106 0.244405 0.043998 130 120 90
-0.056485 -0.072292 0.043379 44 100 132
-0.197172 -0.082343 0.430602 116 130 119
0.126208 0.330212 0.003271 119 130 126
-0.003398 0.243285 -0.001972 106 120 111
-0.466916 -0.027033 0.443656 90 97 89
-0.143262 -0.196965 0.006700 124 137 134
