ply
format ascii 1.0
element vertex 1213
property float x
property float y
property float z
property uchar red
property uchar green
property uchar blue
end_header
0.301995 0.207392 0.003758 135 139 134
0.396595 0.301810 0.009215 140 140 136
-0.223189 -0.082032 0.317040 45 57 49
0.378403 -0.261863 0.018841 71 65 67
0.245768 -0.287606 0.009449 66 66 66
0.288767 0.440985 0.013001 135 136 130
0.284609 0.138205 0.000180 125 131 131
-0.082177 -0.180437 -0.004987 118 131 126
0.350110 0.424193 0.011529 72 71 71
0.063912 0.433907 0.000648 104 115 111
0.176026 0.164180 0.000491 125 131 129
-0.333855 -0.074669 0.379975 88 96 93
0.097926 -0.161890 0.005769 28 72 104
0.383348 0.412026 0.010571 102 105 106
-0.027682 -0.236484 0.000754 119 130 128
-0.043510 0.390941 -0.004788 128 132 127
0.334331 -0.064247 0.007999 139 139 135
0.044507 0.049652 0.000731 97 109 101
0.284818 0.411736 0.005660 117 119 110
-0.001557 0.385897 0.002488 122 128 126
0.098306 0.307171 -0.003921 120 129 120
-0.486395 -0.012987 0.407408 77 81 76
0.394219 -0.247474 0.020842 76 69 80
-0.159847 -0.053923 -0.003787 108 120 112
0.061596 -0.176045 0.005925 34 75 108
-0.018902 -0.295401 0.002088 119 125 123
0.148432 0.122847 -0.002327 86 98 88
-0.027374 0.058446 -0.001112 109 123 114
0.163358 -0.060932 0.002545 110 121 117
-0.232556 -0.085196 0.396110 92 136 141
0.254896 -0.044597 0.006486 130 130 124
-0.187529 0.198168 0.010695 95 83 54
0.001414 0.256028 -0.002962 117 129 119
0.010186 0.397350 -0.001769 131 138 132
0.287526 -0.031806 0.009269 132 133 127
0.214303 -0.041192 0.007436 51 51 51
0.163074 0.002121 0.002806 112 120 117
0.303367 0.271808 0.004332 130 134 129
0.149992 -0.159129 0.061173 90 136 170
-0.090566 0.272218 -0.003330 112 120 109
-0.027796 0.432276 0.004099 130 141 137
0.206544 -0.145100 0.010072 107 114 108
-0.115843 -0.214557 0.001179 123 134 130
0.245899 -0.256664 0.008910 132 133 129
-0.364261 0.078573 0.376625 146 171 176
-0.319315 0.034136 0.374326 92 99 93
0.232132 -0.017537 0.002535 123 131 128
-0.010279 -0.129874 0.000105 111 126 121
-0.338137 0.370185 -0.000582 142 150 139
0.282564 0.130906 -0.002926 53 61 60
0.235688 0.160250 0.000349 133 137 130
-0.184788 0.392960 -0.003342 134 143 134
0.367862 -0.115503 0.009298 146 143 140
0.097266 -0.184860 -0.001226 29 71 101
0.334361 0.485009 0.007819 145 142 137
-0.428048 -0.009048 0.391206 66 77 73
-0.423703 0.038162 0.412159 138 139 135
0.354129 0.064939 0.012686 137 141 134
-0.332634 0.444579 -0.003675 149 151 140
-0.171579 -0.265016 -0.004638 135 141 139
-0.341674 0.055406 0.001190 138 151 138
-0.308594 0.045002 0.049716 121 137 126
0.357444 0.031440 0.012974 67 67 71
0.161119 -0.241635 0.009004 93 104 102
-0.288208 -0.011418 0.366650 131 166 167
0.394039 -0.011740 0.009845 143 140 135
-0.217688 -0.079147 0.240895 11 17 17
-0.212557 -0.074642 0.379175 71 96 101
0.096829 -0.190046 -0.001478 27 72 101
0.000012 0.109871 -0.000728 101 115 104
0.346178 0.361667 0.006630 139 140 134
0.252588 0.024250 0.004575 121 130 121
0.032001 -0.051442 0.001832 97 110 105
0.147926 0.450051 0.002646 135 136 130
-0.038684 -0.182481 -0.003782 51 62 60
-0.245120 -0.094800 0.374817 54 67 62
0.014790 0.539077 -0.001576 134 138 131
-0.306989 0.047590 0.368986 120 144 154
-0.009533 -0.141709 0.003549 116 129 128
-0.370245 0.044122 0.394622 92 95 94
0.255572 -0.164771 0.003349 119 122 125
-0.009596 0.148885 -0.003419 107 120 119
0.049483 -0.197342 0.015601 38 86 119
0.000651 0.245051 -0.000915 116 128 118
0.068317 -0.058777 0.001061 104 117 112
-0.150580 -0.084249 -0.004351 104 127 121
0.288163 0.290611 0.001808 133 140 134
-0.336758 0.407172 -0.004148 149 151 140
0.203620 -0.280836 0.007884 130 130 124
-0.330257 0.078018 0.380147 130 164 170
0.355403 -0.147043 0.011077 141 141 137
0.069157 0.178801 0.001154 109 123 112
-0.321376 0.050309 0.378348 89 98 91
-0.277719 -0.097068 0.367845 45 57 49
0.120481 -0.010113 0.002741 115 126 124
-0.094911 -0.106601 -0.004356 115 128 123
0.217240 -0.181820 0.015385 46 49 50
0.084210 -0.261393 0.009920 112 120 121
-0.007421 -0.272657 0.000068 120 128 127
0.276289 -0.147994 0.007703 138 139 133
-0.367015 0.034627 0.392719 89 93 88
0.204197 0.160950 -0.001401 127 133 131
0.159980 0.492413 -0.004187 88 92 85
0.305271 -0.147196 0.011483 138 138 134
-0.187249 0.241558 0.054613 130 123 94
0.002915 -0.052559 -0.000710 92 107 102
-0.355443 0.077756 0.380005 152 181 189
0.116756 0.013397 0.004382 36 49 46
-0.225663 -0.082827 0.318673 52 64 56
-0.041490 0.149243 -0.000498 94 105 101
-0.217752 0.353827 -0.000556 72 80 77
0.194421 0.131174 -0.000588 121 133 125
0.235475 0.318520 0.000390 134 137 136
0.289031 0.051172 0.005223 130 131 125
-0.195269 -0.058781 0.120723 97 111 102
0.131293 0.387370 0.003169 130 134 127
-0.282305 0.085416 0.267227 41 48 54
0.178621 0.304080 0.001972 124 131 123
0.390427 0.085787 0.014103 141 141 137
-0.167101 -0.057848 -0.003656 110 121 117
-0.003330 -0.125327 0.003342 49 54 61
-0.435829 0.034391 0.414945 138 138 138
-0.063364 -0.239441 -0.001018 128 136 133
-0.046525 0.081262 0.008369 40 52 44
0.033980 -0.298823 0.002669 113 121 120
0.199331 0.177461 0.001632 130 133 132
-0.349336 0.001188 0.369703 15 20 25
0.021946 0.055729 0.000878 101 116 113
-0.147967 0.202143 0.008620 115 104 79
-0.326400 -0.055784 0.384050 89 97 94
0.335813 0.147274 0.000833 135 139 134
-0.421573 0.011239 0.409710 116 124 125
-0.332459 -0.092529 0.366242 58 71 66
0.033512 -0.227501 0.005946 103 115 117
0.023106 -0.066402 0.005998 79 92 89
0.047528 -0.264117 0.007104 118 126 123
-0.154430 -0.044136 -0.003999 109 122 117
0.182840 0.110852 0.004330 69 77 78
-0.105909 -0.242846 -0.000173 54 54 54
-0.338663 0.022376 0.381966 82 90 87
-0.276579 -0.057342 0.411758 124 168 175
0.253911 0.270284 0.002060 128 128 132
-0.004114 -0.268138 0.002375 35 43 42
0.227464 0.184912 0.005101 126 135 128
0.152665 -0.207685 0.054099 94 142 175
0.314653 -0.087789 0.009875 58 57 64
0.263077 -0.235124 0.009007 144 139 135
-0.228143 -0.225588 -0.002121 144 152 149
0.231547 -0.235387 0.010669 119 120 116
0.395070 0.015871 0.011515 143 143 139
-0.322734 -0.080376 0.377807 76 87 85
-0.138031 0.193315 0.008138 113 109 82
-0.017509 0.404711 -0.001511 131 138 132
-0.049051 0.098521 -0.000498 102 116 107
0.010643 0.014096 -0.003364 95 109 100
-0.219122 -0.080256 0.319509 50 63 58
0.292826 0.134948 -0.001966 130 134 129
0.153884 -0.268870 0.004610 113 121 118
0.268681 0.055499 0.004682 127 131 126
0.271488 -0.220465 0.011523 140 141 135
0.180400 -0.057029 0.002577 111 120 113
0.030247 -0.198972 0.037810 43 94 128
0.086697 0.177733 0.003280 109 124 119
0.019076 0.016734 0.004914 26 40 31
0.313246 0.256744 0.005157 79 79 79
0.126716 0.029755 0.009200 45 53 50
0.087695 -0.167927 0.001590 26 68 98
-0.304614 0.067037 0.369061 129 163 169
0.369673 -0.013629 0.004264 142 143 137
0.147211 0.213332 -0.000892 118 124 124
-0.124590 0.049012 -0.004675 97 112 107
0.349977 -0.076147 0.009336 129 133 128
-0.153284 0.083781 0.001724 107 120 107
0.279754 -0.209596 0.008325 124 130 128
0.324292 0.242622 0.008521 139 140 136
-0.241787 0.513124 -0.000512 118 119 115
0.384557 0.083971 0.013355 140 140 134
0.164063 -0.055097 0.002440 107 118 114
-0.350588 -0.085367 0.370976 75 92 93
0.261438 0.106088 0.001997 122 133 129
-0.338886 0.020603 0.380030 83 90 84
-0.429051 0.009397 0.412206 112 123 123
0.086183 0.118084 0.001619 111 125 116
0.264874 -0.235091 0.008813 142 139 134
0.086012 -0.150258 0.008905 27 71 103
0.250642 -0.061851 0.011372 126 129 130
0.323238 -0.231323 0.015015 139 139 133
0.195654 0.537680 -0.002650 73 73 69
0.180306 0.099717 0.009045 109 120 116
-0.316376 -0.078901 -0.004653 107 115 116
0.110648 -0.269368 0.008531 117 123 121
0.265999 -0.223716 0.010896 138 139 133
0.030246 0.004496 0.000405 95 108 103
0.252054 0.185712 0.004143 125 132 126
0.008312 0.007688 -0.002663 96 108 100
-0.043658 0.110949 0.009157 79 91 93
-0.231980 -0.062282 0.002911 114 127 124
0.130787 0.434380 0.004697 125 133 130
-0.101001 -0.024839 -0.002645 103 117 108
0.116382 -0.252628 0.006081 98 115 118
0.289853 0.059038 0.006415 130 134 127
0.132577 -0.276989 0.004956 119 122 121
0.140387 0.137096 -0.004145 111 120 113
-0.030795 0.065365 -0.002424 108 122 113
0.050433 0.527216 -0.003721 135 139 132
-0.221934 -0.080732 0.240880 14 20 20
-0.411754 0.007852 0.404018 132 138 138
-0.191717 -0.052654 0.221375 98 110 100
-0.170626 -0.066017 -0.002261 26 40 31
-0.199228 -0.067422 0.273769 22 33 33
-0.116266 -0.086093 -0.004232 107 120 115
-0.238360 -0.088098 0.396377 88 129 135
-0.478271 0.317846 0.052167 110 117 111
0.390412 -0.064498 0.014672 143 144 140
-0.334269 0.033551 0.383869 88 92 87
0.142125 0.441806 0.005829 133 134 130
0.213997 0.488263 0.001656 137 138 132
0.286195 0.197711 0.004034 139 139 133
-0.211564 -0.059341 0.401963 123 164 168
0.212650 -0.026877 0.000775 122 126 121
0.274810 -0.175596 0.004108 138 139 135
0.020642 0.241574 0.001117 101 108 100
0.384066 0.019584 0.012250 135 142 136
-0.392917 0.048803 0.402655 151 151 145
0.179264 0.490323 -0.001405 134 138 131
-0.377132 -0.062214 0.374466 133 169 175
0.260274 -0.277575 0.006631 141 138 135
-0.350163 0.020373 0.386923 82 90 87
0.318284 0.120871 0.004006 131 135 128
-0.175773 0.220383 0.023494 112 100 71
-0.033810 0.371936 -0.000424 130 138 135
0.169731 0.097887 0.003950 118 126 123
0.173376 0.430165 0.007358 83 91 90
0.018460 -0.187616 0.053557 68 113 142
0.278405 0.155870 -0.003342 135 139 134
0.304075 -0.123614 0.011483 135 136 132
-0.366824 0.042764 0.392256 92 96 91
0.116809 -0.044258 0.004233 87 100 97
-0.137930 -0.063249 -0.004440 26 39 34
0.025218 -0.207572 0.023603 118 130 144
0.107058 -0.198188 0.003848 52 100 133
0.100045 -0.058968 0.007311 114 125 121
0.134655 0.372984 0.001435 124 131 125
0.174041 -0.074955 0.004402 118 124 122
0.064075 -0.046528 -0.000704 35 50 49
0.217575 -0.257864 0.006579 120 124 119
-0.245339 0.208554 0.007841 121 130 121
0.196148 0.012083 0.003629 120 124 119
0.007449 -0.006676 -0.002091 71 85 76
0.247230 -0.159616 0.004106 122 126 119
-0.002535 -0.268251 0.003079 87 93 95
0.167605 0.134399 -0.002864 119 127 124
-0.185576 0.197049 0.008777 89 77 48
0.347060 0.180237 0.007185 140 141 137
0.246896 0.427770 0.008428 127 133 131
-0.355821 0.014661 0.381679 79 86 80
0.339675 0.464424 0.009097 143 143 137
-0.213295 -0.266909 -0.002274 136 142 140
0.356651 0.393524 0.009817 110 111 102
0.367611 -0.210842 0.013866 134 139 129
0.125647 0.346095 0.002521 117 124 118
-0.071881 -0.028851 0.002972 109 125 116
0.031753 0.084604 -0.001684 100 114 105
0.008037 0.043550 -0.000086 96 110 101
0.339006 -0.087317 0.008616 72 68 69
0.360984 0.278819 0.009543 139 140 136
0.170599 0.071960 0.004318 55 58 59
0.227071 -0.280948 0.008215 126 128 119
-0.039183 0.348200 0.003484 66 65 67
0.318921 0.212040 0.004132 139 136 133
-0.434287 0.039315 0.414515 140 139 139
0.383040 -0.129519 0.013314 120 116 117
-0.059609 -0.229336 -0.001340 127 133 133
-0.136042 0.084424 0.000662 104 116 106
-0.360333 -0.092378 0.362753 100 139 146
0.087634 0.275370 -0.004854 51 57 59
0.120807 0.126272 -0.000844 104 115 111
-0.290771 -0.046726 0.395916 133 161 165
-0.125264 -0.078583 -0.004127 111 123 115
0.259481 0.216683 0.007061 133 137 132
0.150824 -0.253963 0.003801 96 107 105
0.019943 0.501117 -0.004017 131 135 128
0.155011 -0.079156 0.005435 111 122 120
-0.243546 0.054687 0.279965 51 62 58
0.061680 -0.052544 -0.000213 100 111 107
0.128369 0.349725 0.001149 120 126 124
-0.266285 -0.065050 0.413354 125 170 179
0.160969 -0.078600 0.003824 118 124 122
-0.228290 -0.075395 -0.003136 109 120 116
0.110151 -0.207835 0.008739 61 107 141
-0.014489 0.424235 -0.002342 129 136 128
0.254008 0.274232 0.003492 79 82 85
-0.058347 0.243958 -0.003982 92 102 90
-0.139677 -0.286335 -0.003301 128 139 135
0.154994 -0.273745 0.004544 116 125 118
-0.342785 -0.097333 0.356137 45 67 70
0.238985 -0.149553 0.006704 122 122 122
0.328999 -0.202399 0.014544 146 143 138
-0.458697 0.044793 0.424934 89 89 93
0.131919 -0.177144 0.031657 93 139 171
0.360543 -0.130663 0.010852 134 135 126
-0.007854 0.239652 -0.000114 118 131 126
-0.024873 -0.105077 -0.002847 111 129 125
0.309131 0.064032 0.013975 65 68 69
0.068456 0.430648 -0.001918 115 127 119
0.167694 0.013571 0.004585 111 122 118
-0.456527 0.029284 0.423449 70 66 71
0.073857 0.036820 0.001890 97 109 101
0.172983 0.337273 0.004950 130 133 132
0.162360 0.123113 -0.002623 114 125 121
0.292367 0.209963 0.003229 135 139 132
0.244683 0.318080 -0.002388 78 84 86
0.129113 0.477983 -0.001180 125 131 129
0.393365 0.143086 0.005275 137 138 132
0.065809 0.108851 0.002232 103 117 108
0.282364 0.113100 0.001460 96 103 107
0.344334 0.349617 0.012297 79 75 80
-0.168221 0.446730 -0.002970 143 150 144
-0.451255 0.014360 0.417380 129 129 131
-0.010013 0.019522 -0.001960 99 112 107
-0.387524 0.051941 0.400669 138 145 137
-0.016610 0.176743 -0.000650 95 104 95
0.136923 0.278029 -0.000602 123 132 125
0.336966 0.201732 0.005960 139 140 134
0.112501 -0.285380 0.007742 116 116 120
-0.231750 -0.038886 0.416588 119 163 168
0.108967 0.155772 0.002283 109 122 117
-0.346666 -0.064791 0.382179 92 101 94
0.026980 -0.120340 0.005186 108 123 120
-0.151548 -0.244116 -0.001906 131 139 136
0.384257 0.497139 0.011101 106 106 100
0.037293 -0.006808 -0.001427 64 77 74
-0.018185 0.334248 -0.001478 128 142 133
-0.022739 0.031619 -0.001595 101 117 106
-0.319582 -0.034247 0.379264 65 76 72
-0.315170 -0.016044 0.378480 85 93 92
-0.228667 -0.116360 -0.003377 113 126 121
-0.041542 0.099243 0.002463 104 115 111
-0.210450 -0.056607 0.402082 125 151 151
0.292512 0.036621 0.005139 130 134 129
0.191476 -0.050311 0.005549 109 124 121
-0.312486 0.261445 0.019499 71 79 78
-0.114888 0.175347 0.023406 128 124 97
0.318843 0.222127 0.003104 129 134 124
0.081081 -0.127125 0.034395 50 103 136
-0.489130 0.018942 0.436706 118 117 119
0.300467 -0.033531 0.008767 133 137 132
-0.070083 -0.237682 -0.001449 105 113 110
-0.337850 0.086567 0.379620 128 162 161
-0.041406 -0.011336 -0.000992 112 127 124
0.384332 -0.096874 0.009383 139 140 134
0.060059 -0.150376 0.015881 35 86 118
0.287977 -0.242455 0.012347 139 136 133
0.381876 0.260512 0.011711 137 137 131
0.013539 -0.183827 0.009304 107 121 123
-0.193344 0.198001 0.014652 99 89 57
0.152172 -0.268877 0.004680 117 125 122
0.201406 -0.262827 0.007034 122 123 119
0.349205 0.344820 0.008462 100 100 104
0.255990 0.187422 0.005230 129 136 130
0.236233 0.454957 0.011637 138 139 135
0.020019 0.385085 0.000566 119 131 123
-0.030697 0.344733 0.001410 129 137 126
-0.486815 -0.013568 0.406078 80 84 79
0.075453 -0.163047 0.003317 29 71 101
-0.214035 -0.048463 0.407232 48 73 80
0.367810 -0.184103 0.010249 144 144 140
0.136674 0.146642 -0.001133 106 120 111
-0.112300 -0.053380 -0.004874 108 122 113
0.039334 0.035868 0.003586 95 109 100
0.070634 -0.270582 0.006518 120 128 125
0.057710 -0.292585 0.003087 113 126 121
0.022152 -0.220583 0.005106 110 121 121
0.120230 0.402653 0.000403 129 136 128
0.063724 -0.275264 0.005462 127 130 129
0.354892 -0.200169 0.012162 143 140 135
-0.173835 -0.099254 -0.004530 111 122 118
0.193522 -0.220651 0.012877 95 103 100
-0.076591 -0.089925 -0.003751 106 121 116
0.277122 0.053792 0.012992 72 75 74
0.197879 -0.236570 0.008324 99 105 103
0.108477 -0.294776 0.006465 116 119 118
0.052082 0.011679 0.007659 58 69 65
0.330688 -0.202424 0.014652 145 142 137
-0.425785 0.007853 0.410222 125 131 129
0.369206 0.337302 0.008596 141 141 135
-0.134700 -0.289635 -0.002687 140 151 147
-0.248825 0.522818 -0.001887 145 146 140
-0.465894 0.012459 0.425941 68 74 72
-0.058486 -0.196768 -0.002145 124 132 129
0.247136 -0.210298 0.011774 113 121 120
-0.315143 -0.072119 0.383284 77 88 84
-0.046573 0.079253 0.008136 46 58 50
0.181312 -0.288535 0.005898 78 72 74
0.143567 0.433663 0.005818 127 130 129
-0.063833 -0.257466 -0.002147 125 133 130
0.277585 -0.257003 0.010544 141 138 135
0.366188 0.330203 0.007768 141 141 135
0.313263 0.283710 0.005111 99 99 95
-0.328749 0.010676 0.374319 31 39 40
0.247033 -0.162951 0.003185 120 124 117
-0.196103 -0.290812 -0.004446 55 58 59
0.359948 0.108120 0.008024 140 140 134
0.017371 -0.268545 0.004674 111 119 118
0.080647 -0.006212 -0.002422 59 72 71
0.248336 -0.109629 0.007557 105 105 105
-0.247821 -0.090653 0.352358 49 63 54
0.079693 -0.221334 0.008524 33 77 109
-0.481907 0.023757 0.436314 118 118 120
0.113616 -0.195389 0.006765 59 107 140
0.089739 0.048619 0.003588 100 112 104
-0.086292 -0.124941 -0.004681 114 128 119
0.140971 0.051764 0.006517 104 113 106
-0.154761 0.364323 0.000421 135 142 134
-0.318134 -0.023741 0.204249 100 108 107
0.062958 -0.116489 0.051910 65 106 128
0.298230 -0.230963 0.013317 141 141 135
0.124253 -0.016866 -0.000335 112 122 110
-0.241739 -0.227023 -0.003297 133 140 134
-0.050686 0.049402 0.000020 107 123 112
-0.422992 0.017106 0.411956 132 139 133
-0.389196 0.015480 0.399910 128 136 133
-0.148668 0.442731 -0.001065 139 146 138
0.220806 0.344172 0.003440 123 126 129
0.382250 -0.025415 0.009040 139 139 135
0.308924 -0.030965 0.007287 127 131 126
0.254078 0.068626 0.008007 120 129 120
0.329606 0.446076 0.011006 147 142 138
-0.022101 -0.153470 0.000542 108 123 120
0.300811 0.174601 0.004263 132 139 133
0.094316 -0.217462 0.006016 29 71 101
0.270334 -0.197137 0.006501 143 143 139
0.006894 0.379524 0.000703 129 136 128
0.275565 -0.099972 0.006611 132 133 127
0.249575 -0.246588 0.007952 119 113 117
-0.132143 0.102250 -0.000532 107 120 105
0.217118 -0.045450 0.008437 131 137 137
0.194085 -0.293368 0.005840 118 117 117
-0.382346 0.015659 0.397595 132 140 139
0.156717 -0.193631 0.057758 96 142 176
0.290514 -0.293984 0.008256 137 140 141
-0.349007 -0.033083 0.376821 90 98 95
0.273069 0.072350 0.004928 88 88 88
-0.334403 0.068844 0.381383 134 167 171
-0.296842 0.504324 -0.004502 151 156 146
0.309393 0.230617 0.004577 130 131 122
0.064777 0.170386 -0.000192 108 122 113
-0.324790 -0.088639 0.369623 65 76 72
-0.008833 0.005237 -0.001840 116 129 124
-0.139675 -0.246961 -0.004747 124 136 128
0.215987 0.166110 0.001747 105 109 104
0.175508 0.536097 -0.004518 137 137 131
-0.119907 -0.294979 0.001303 133 139 137
0.216391 -0.190672 0.008681 110 116 116
-0.404463 0.001290 0.396227 126 129 130
0.225454 -0.100999 0.009538 124 128 123
-0.006133 0.059232 -0.002515 98 114 103
0.323334 -0.172982 0.007878 133 137 130
0.375040 -0.247949 0.014376 77 69 68
0.056147 0.035399 0.004854 95 109 100
-0.006379 -0.171295 0.007967 81 91 94
0.007449 0.255529 -0.002091 116 128 118
0.198874 -0.041567 0.003030 120 124 119
-0.296390 0.497564 -0.003255 143 148 138
0.393976 -0.044167 0.011951 144 144 140
0.339581 -0.236304 0.014691 139 140 136
0.159022 0.147653 -0.002627 106 121 116
-0.148456 0.375951 -0.001050 133 142 135
0.062273 0.244397 -0.002562 113 127 118
0.019590 -0.020900 -0.001318 93 109 100
-0.154123 -0.095643 -0.004007 111 126 123
-0.019039 -0.297045 0.002529 119 125 123
-0.205074 0.344086 -0.004469 132 141 134
-0.343054 0.024023 0.386227 81 90 83
0.286336 -0.185013 0.006741 104 100 101
0.295852 0.131963 -0.000515 131 135 130
-0.193239 0.180218 0.006160 92 80 53
0.358894 -0.068420 0.009164 141 141 137
-0.161388 0.404353 -0.000525 137 146 139
0.312092 0.533441 0.001201 143 143 139
0.353125 0.211618 0.005402 136 140 133
-0.258965 -0.223427 -0.004372 136 143 137
-0.062115 0.254035 -0.004735 100 107 99
-0.075245 0.066277 0.003958 108 124 115
0.183894 0.411455 0.000685 132 133 129
-0.010200 0.474383 -0.003059 82 91 84
0.135170 0.455181 0.002843 132 133 127
-0.345218 -0.076238 0.377521 88 96 93
-0.132008 0.161751 -0.000152 114 108 84
0.067585 -0.115667 0.054967 62 107 132
-0.205848 -0.094830 0.210596 22 28 26
0.083120 -0.202538 0.000139 28 70 100
-0.340808 0.348940 0.000209 150 151 142
0.361379 -0.059665 0.011617 143 143 137
0.365536 0.219284 0.008483 135 139 134
-0.231812 -0.071606 0.411052 110 160 168
-0.375744 -0.093361 0.350350 101 133 140
-0.454331 -0.000218 0.408545 92 95 98
-0.351129 -0.058921 0.381688 93 102 95
0.239335 0.038605 0.004663 122 129 123
0.204541 0.347548 0.002047 128 132 127
0.266342 0.431598 0.010751 133 137 132
0.069404 -0.265687 0.006405 120 128 125
0.360689 0.264316 0.009263 134 140 138
-0.031504 0.215736 0.003626 91 100 93
-0.437361 0.003408 0.410017 153 154 150
0.258291 0.203772 0.005130 136 137 133
0.057725 -0.054719 0.000416 97 110 105
0.386988 -0.075457 0.013206 147 144 139
0.320217 -0.262279 0.012134 147 142 138
0.314347 -0.238301 0.016673 63 60 57
0.146083 -0.019371 0.001206 107 119 111
-0.378325 0.009703 0.390883 39 42 45
-0.313499 -0.020470 0.378461 75 83 80
-0.342634 -0.072071 0.380193 91 97 95
0.391858 0.448354 0.016059 152 145 139
-0.154143 0.231665 0.038742 142 132 102
0.251425 0.286439 0.003617 129 134 139
-0.374666 -0.047801 0.376784 135 168 172
0.390975 -0.174503 0.014093 143 144 138
0.260773 0.144511 -0.003536 129 136 128
-0.121548 -0.066935 -0.004728 108 122 113
-0.256484 -0.075606 0.410523 119 170 175
-0.030360 -0.139256 0.001126 111 124 119
0.354015 0.439040 0.013363 141 141 135
0.277633 0.312853 -0.001546 131 138 132
-0.210050 0.149141 0.009076 121 120 103
0.248228 0.063283 0.005802 114 125 123
0.266244 -0.266593 0.009211 144 144 140
0.060022 0.039071 0.005930 97 109 101
0.173544 0.342464 0.004862 129 133 128
0.260628 0.015804 0.005252 125 132 126
0.100878 0.314358 -0.003355 117 125 122
-0.234338 0.177240 0.040709 126 129 108
0.393073 0.051570 0.014830 141 138 135
0.366517 0.010588 0.009213 137 141 136
-0.304962 -0.001134 0.371723 66 80 71
-0.217932 0.211454 0.043945 129 117 86
0.342576 0.108377 0.007265 122 121 121
0.157884 0.006164 0.002757 113 122 115
0.151285 0.403079 -0.002907 130 134 129
-0.317738 0.445812 -0.004852 141 145 138
-0.056614 0.390922 -0.001631 119 126 120
0.203593 -0.154016 0.009915 108 112 107
0.368800 0.231932 0.011065 77 80 81
-0.073372 -0.011540 0.004147 109 127 123
0.234687 -0.181163 0.005308 114 118 113
-0.179640 0.241028 0.045202 132 122 92
-0.232155 -0.081644 0.402158 97 146 151
-0.241342 -0.056404 0.073061 16 28 30
-0.223348 0.407412 0.001092 142 143 137
0.185548 0.036253 0.004593 116 125 118
-0.036033 0.186721 -0.002324 90 104 93
0.064673 0.071430 0.003952 43 51 48
0.039778 0.042162 0.003404 96 108 100
-0.183658 0.468039 0.000818 136 144 133
-0.469254 0.035666 0.434600 150 147 142
0.300737 -0.154191 0.010816 139 140 134
-0.053132 -0.193221 -0.002536 122 133 129
0.126662 -0.161669 0.032034 84 132 167
0.314050 0.059959 0.009279 127 132 122
-0.001394 0.040250 -0.002116 100 114 105
0.091000 0.176690 0.001198 111 123 113
0.195159 0.380570 0.002974 131 134 133
0.332609 0.362341 0.008919 144 144 138
-0.223567 0.415399 0.001112 140 141 135
-0.239712 0.200020 0.029174 133 141 126
0.091580 0.113467 0.002141 84 95 93
0.113955 -0.256162 0.007564 107 117 120
-0.471060 0.008510 0.429295 124 127 126
-0.092715 -0.075591 -0.001475 109 122 117
-0.318217 -0.083983 0.374156 72 81 74
-0.035760 -0.106990 -0.002738 114 127 122
-0.136301 -0.265047 -0.004982 130 139 132
0.127951 0.254211 0.002055 123 131 128
0.105500 -0.163142 0.010664 57 103 137
-0.351203 0.046563 0.389496 87 94 88
0.146610 0.545898 -0.003069 136 136 130
-0.377267 0.024893 0.397545 67 74 78
-0.268637 0.265660 -0.003976 123 135 125
-0.016484 0.231567 0.001212 43 58 55
-0.089749 0.196608 -0.004284 53 55 46
-0.139895 0.098850 0.001799 102 111 102
0.354193 0.272365 0.008070 92 96 91
-0.128410 0.050559 -0.003538 97 113 104
0.005035 -0.188332 0.006338 106 121 120
-0.017419 -0.165920 0.000540 90 109 111
-0.006365 0.176091 -0.003321 104 116 108
0.105719 0.097976 0.002839 107 119 111
-0.165946 0.239778 0.043836 137 127 95
0.379265 0.035695 0.012972 138 139 133
0.116729 -0.144083 0.038071 75 125 162
0.218192 -0.156877 0.007254 52 55 54
0.374390 0.129313 0.001475 140 140 136
-0.250316 0.056967 0.287094 124 136 126
-0.012323 0.105557 0.003253 37 52 47
-0.275705 -0.082014 0.397131 83 122 127
-0.189399 0.223352 0.033089 121 109 78
-0.284884 0.009702 0.066839 119 131 121
-0.244116 -0.253333 -0.004907 139 148 141
-0.228273 0.348682 -0.004190 131 140 131
0.192668 -0.135330 0.007358 97 108 104
0.199053 -0.218883 0.012454 97 105 104
-0.057196 0.022554 -0.000074 109 123 114
0.218667 -0.111963 0.008961 118 124 126
0.190323 0.421237 0.005377 121 124 123
0.059329 0.352645 -0.004087 69 77 76
0.322036 0.183417 0.005274 138 139 133
-0.132423 0.212915 0.028727 138 132 106
0.088690 -0.114967 0.052889 63 111 142
-0.481975 0.029274 0.438796 151 151 145
0.186088 0.273063 0.000356 58 63 68
-0.200858 0.170349 0.007401 100 88 57
-0.461866 0.088070 0.205787 73 78 66
0.128903 -0.293133 0.005584 114 123 116
0.133434 0.160827 0.001727 113 122 115
-0.129781 -0.293153 -0.000294 139 147 146
0.161054 0.127885 -0.003280 114 122 119
-0.115906 -0.224520 0.000277 125 136 132
0.108961 0.091384 0.003112 105 114 107
0.114432 -0.145998 0.032340 72 125 158
0.388175 0.337224 0.009059 142 143 137
0.140758 -0.265563 0.004543 113 121 120
0.230843 -0.290515 0.007601 125 122 117
-0.277877 -0.090064 0.378542 53 64 60
-0.167040 0.322439 -0.001953 133 141 138
-0.205644 0.471258 -0.003365 135 144 135
-0.094366 -0.259380 -0.000054 135 141 139
0.179244 0.246724 -0.000393 128 134 132
0.020888 -0.249882 0.000781 117 128 126
0.247612 -0.289064 0.008348 95 99 94
0.055079 0.204767 0.000067 103 121 117
-0.196992 0.227711 0.044002 128 116 85
0.397702 0.447246 0.017488 153 145 142
0.058690 0.344414 -0.003431 82 88 88
-0.183600 0.195551 0.007482 85 75 47
0.175139 0.532934 -0.004250 137 137 131
0.277573 0.378570 0.000315 140 141 135
-0.090115 0.229568 0.014243 106 105 88
0.243975 -0.177684 0.005451 113 117 112
-0.372594 0.044807 0.395779 99 103 98
0.043067 -0.004737 -0.001518 57 65 64
-0.372230 0.012971 0.381621 79 83 78
-0.407831 -0.011434 0.374289 41 47 47
0.247771 -0.177515 0.004750 115 122 114
-0.326231 0.033964 0.378961 87 94 88
0.236289 -0.276113 0.008139 131 132 123
0.168602 0.336872 0.005415 130 133 132
0.241445 -0.254836 0.007887 129 130 126
0.195426 0.051499 0.003269 121 127 125
-0.357341 0.081552 0.379313 148 177 185
-0.016602 -0.146573 0.001574 112 127 124
-0.210742 -0.297313 -0.003013 143 147 142
0.136573 -0.296486 0.006702 117 126 119
0.203367 0.206606 -0.000480 129 135 133
0.186591 0.187095 0.000709 125 131 131
0.184345 0.277536 0.000982 56 62 62
-0.430848 0.046447 0.413286 152 153 147
0.111686 -0.125569 0.052952 65 118 151
0.281226 0.079873 0.007146 127 134 128
-0.148891 -0.056151 -0.002847 108 121 116
0.110049 -0.056068 0.004666 111 124 119
-0.082384 -0.017130 -0.001896 102 116 107
0.019679 -0.028406 0.007872 27 43 34
-0.023405 -0.287311 0.001353 108 119 117
0.154831 -0.215980 0.054485 103 140 170
0.223089 0.182489 0.005233 131 138 130
0.174877 -0.252368 0.003852 103 111 108
0.378164 -0.275602 0.013119 140 134 136
-0.101348 -0.263285 0.004043 59 67 64
0.069584 -0.127813 0.030636 46 102 134
-0.382751 0.006236 0.391468 133 133 133
0.222069 -0.140872 0.007864 106 112 110
0.341536 -0.100784 0.009618 136 137 133
0.290428 -0.080244 0.009741 131 135 130
-0.213349 0.525030 -0.000436 144 145 139
-0.207500 -0.063288 0.346988 73 86 83
0.233982 0.084801 0.005166 124 132 129
-0.230738 -0.065844 0.412938 113 161 169
0.290709 0.001763 0.005153 130 134 127
-0.231834 0.479860 0.002235 148 152 147
0.351132 0.046457 0.011769 136 137 133
0.272667 0.186471 0.003190 136 137 131
-0.147895 0.191890 0.002665 103 99 74
-0.014257 0.189478 0.001183 82 93 89
-0.151286 -0.294763 0.000397 138 141 140
-0.191549 -0.059499 0.260345 31 39 38
-0.107310 0.074850 -0.001144 40 48 49
0.291317 -0.174682 0.007601 133 142 133
0.202056 -0.181843 0.008182 106 112 110
0.290707 0.359589 0.004881 138 139 135
0.334988 -0.134157 0.010220 136 137 131
0.356860 -0.247687 0.013075 70 62 61
0.366280 -0.018223 0.005729 140 141 137
-0.106645 -0.034518 -0.003128 16 29 28
0.148874 0.102324 0.003452 63 72 65
-0.305695 0.068580 0.371384 132 164 171
0.006621 -0.158790 0.007334 119 134 133
-0.084216 -0.189528 -0.003442 118 129 125
0.073997 0.208834 -0.002464 112 124 116
-0.309574 -0.002624 0.373976 71 85 76
-0.434121 0.018508 0.416067 130 133 132
-0.126257 -0.255864 -0.001069 133 137 132
-0.031884 -0.101267 -0.003152 109 127 125
0.253082 0.046001 0.006906 121 130 123
0.193298 0.005731 0.004214 118 124 122
0.385601 -0.259696 0.015504 145 146 137
-0.206319 0.227609 0.054440 129 119 89
-0.019139 -0.298651 0.002683 120 126 124
0.048743 -0.128738 0.039641 50 101 135
0.073011 -0.066750 0.001921 108 121 116
-0.059677 -0.185802 -0.004522 124 135 131
0.174791 -0.186737 0.021525 91 113 127
0.362723 -0.254175 0.012276 139 139 135
-0.393481 0.045119 0.403398 154 154 148
0.137350 0.158894 0.001198 112 120 117
0.119186 0.200174 0.001020 117 125 122
0.179383 -0.293169 0.004665 124 125 119
-0.285862 0.092645 0.242390 131 140 131
-0.196457 -0.039819 0.100411 99 112 107
0.392265 0.169679 0.010328 140 141 135
-0.085269 -0.060934 0.000368 110 123 118
-0.054710 0.457245 -0.003398 132 141 132
0.142142 0.251956 0.002058 123 131 128
0.366438 0.029285 0.013304 112 115 114
0.252621 0.010177 0.003994 121 130 123
0.147437 0.006370 0.006994 54 65 61
-0.226308 -0.077832 -0.001500 109 121 113
-0.101951 -0.090449 -0.002306 110 123 120
-0.171545 0.008786 -0.002557 32 40 39
0.218058 0.426252 0.009707 116 119 122
0.274505 0.032258 0.005402 62 70 71
0.062185 -0.031424 -0.004417 99 113 104
0.223496 0.325584 0.000931 133 136 135
-0.276410 -0.097278 0.368289 46 58 50
0.168977 -0.071186 0.004495 113 121 118
0.091578 -0.040048 0.003156 109 121 113
0.382807 -0.084036 0.010464 143 139 140
0.367485 0.038792 0.010534 138 139 135
-0.254699 0.018664 0.370591 40 54 60
0.275114 0.218876 0.003780 129 136 128
0.093482 0.272410 -0.003996 113 119 117
0.095543 -0.070172 0.006486 115 126 122
0.321630 -0.160817 0.008891 139 140 136
-0.104279 -0.132637 -0.003382 27 38 38
-0.123463 -0.083997 -0.004919 108 123 122
-0.006902 -0.228294 0.001622 138 146 145
-0.280205 -0.015644 0.154744 76 87 83
0.180696 0.230223 0.002981 99 107 108
0.203701 0.382488 0.004062 135 136 132
0.178112 -0.122678 0.007671 104 112 109
0.306526 -0.275051 0.010669 146 141 137
0.235427 -0.193937 0.007755 117 118 114
0.140042 -0.041094 0.001180 111 119 116
-0.055695 0.263761 -0.004661 103 115 105
-0.492441 -0.013706 0.395002 49 48 50
0.004555 -0.241370 -0.000217 118 126 123
-0.000025 -0.282805 0.003085 118 118 118
0.046152 -0.286424 0.005091 47 57 62
-0.326865 -0.052568 0.383384 88 97 90
0.192638 -0.278946 0.006180 105 111 113
-0.156607 0.320465 -0.002523 135 145 133
-0.109830 0.153267 0.038421 123 123 92
0.156404 0.230499 0.002123 106 121 118
-0.219723 -0.044186 0.413993 117 136 126
-0.095980 -0.045814 0.001138 104 119 114
-0.208803 -0.247420 -0.001321 129 140 136
-0.470121 0.008870 0.428812 126 129 128
0.340322 -0.125017 0.010202 138 142 135
-0.485259 -0.010684 0.408335 82 79 74
0.143204 0.052296 0.005393 103 112 105
0.321447 -0.234435 0.013785 141 138 133
-0.170680 0.100474 0.002399 113 122 113
-0.041525 0.328697 -0.001275 88 96 93
0.221588 0.488517 -0.001718 137 138 132
0.065918 -0.165531 0.006110 31 77 109
-0.407401 -0.006040 0.386925 71 77 75
-0.103228 -0.177747 -0.001545 33 44 42
-0.381837 0.047309 0.400680 151 151 145
0.349352 0.025833 0.011587 134 134 128
0.197242 0.434214 0.009501 128 137 128
0.228870 0.205204 0.002267 135 136 132
-0.047457 -0.219585 0.000519 121 129 128
-0.155462 0.126760 0.014583 114 114 92
0.150700 -0.055687 0.003969 39 45 43
-0.203582 0.478784 -0.002362 143 146 147
-0.260565 -0.088695 0.399729 92 133 137
-0.242567 0.474318 0.001991 133 141 138
0.131665 0.055614 0.007116 104 112 109
0.012261 0.537417 0.000170 135 139 132
0.163271 0.482910 -0.002939 134 137 136
-0.178183 0.081483 -0.002648 99 115 104
-0.283353 -0.070044 0.400142 125 166 172
-0.459560 0.073897 0.228668 73 74 61
-0.167956 -0.140253 -0.002283 41 52 50
0.368720 0.440154 0.015588 149 144 140
0.038639 -0.272112 0.006457 114 122 121
0.250219 0.118359 -0.000665 120 128 127
0.214292 0.386164 0.006320 130 134 127
0.085863 0.395024 -0.004112 69 80 78
-0.099938 -0.073726 -0.001430 110 122 114
0.234875 0.370737 0.002869 138 139 135
0.332142 0.136271 0.000347 137 141 136
-0.276635 0.549475 -0.003140 145 145 139
0.157939 0.397781 0.003926 133 140 134
0.320310 -0.062049 0.007098 131 135 128
0.133290 -0.175895 0.033548 94 140 172
-0.178503 0.127476 0.016938 112 115 94
-0.305454 0.035502 -0.004640 120 133 128
-0.091931 0.189010 -0.003217 97 98 85
-0.132833 -0.198469 -0.002057 124 127 128
-0.090415 -0.040153 0.001648 104 118 109
-0.171441 -0.000842 -0.003648 22 28 28
0.160883 0.026632 0.007397 106 120 111
0.324563 0.162635 0.005608 138 138 132
0.043346 -0.225268 0.028410 45 91 125
-0.198172 -0.065021 0.297597 30 42 44
0.158058 0.008122 0.002928 113 122 115
0.120059 0.218878 0.004939 117 125 122
0.363272 -0.178998 0.010892 146 143 138
-0.372578 0.015692 0.386639 82 90 87
0.368822 -0.138506 0.012901 141 141 135
0.397335 -0.167667 0.014974 65 68 71
-0.099780 -0.064075 -0.001739 111 123 115
0.174136 -0.231770 0.009689 96 107 107
0.146610 -0.013548 0.001614 107 119 111
-0.212090 -0.075480 0.264262 19 30 28
-0.247761 -0.091900 0.395751 81 120 125
0.257753 0.109951 0.002944 123 127 122
0.247215 0.466001 0.008638 131 138 132
-0.296239 -0.042993 0.387085 79 96 99
-0.131317 -0.263927 -0.001775 116 119 120
0.384569 0.225725 0.009874 136 137 131
0.299837 0.320872 0.005382 139 140 134
0.224757 0.100487 0.003903 128 135 129
0.085987 -0.023565 0.001140 33 39 37
0.178473 0.006022 0.003341 113 122 115
0.111830 0.440287 0.003772 131 135 130
0.224216 -0.168796 0.005192 75 81 81
-0.015374 -0.095603 -0.003204 106 121 116
-0.456406 0.031548 0.186389 142 170 176
0.323270 -0.001182 0.007780 133 135 126
0.157742 -0.113477 0.007520 95 118 123
-0.257864 -0.061245 0.416363 123 168 177
0.303365 -0.010700 0.006241 128 132 127
0.141691 -0.282066 0.006417 122 125 124
0.234191 -0.048314 0.005801 71 77 75
0.258639 -0.296890 0.006818 131 131 125
0.020250 -0.090039 0.003096 102 120 116
0.124902 -0.189767 0.019821 80 131 163
0.101736 -0.201430 0.002919 37 83 115
0.076244 0.389450 -0.000561 110 124 115
0.074935 -0.028492 -0.001599 108 120 112
0.084069 0.205009 -0.003723 117 129 121
0.278966 -0.077375 0.012384 52 56 51
-0.195413 -0.092528 -0.002326 108 119 117
-0.010735 -0.108962 -0.002214 107 122 119
0.210730 -0.111049 0.005920 115 121 119
0.341693 0.440319 0.011584 145 144 144
-0.223132 -0.062985 -0.000448 105 120 115
0.339776 -0.035171 0.003080 137 137 137
-0.316147 0.041006 0.373614 89 98 91
-0.471976 0.040480 0.436094 155 152 147
0.273880 0.437663 0.010148 139 140 136
0.073316 0.339860 -0.003953 121 130 121
-0.122933 -0.262426 -0.001060 132 140 137
0.161549 0.236499 0.000269 125 133 132
0.335245 0.176864 0.004879 137 138 134
0.188655 -0.184237 0.010931 103 109 107
-0.476896 0.032752 0.438236 147 148 144
-0.410388 0.052122 0.011744 121 134 131
0.366750 -0.270884 0.014298 135 141 139
-0.092063 -0.221489 0.001858 128 136 133
-0.383419 0.030234 0.400690 133 136 135
-0.199958 -0.046772 0.327098 68 74 74
0.381758 -0.292044 0.015626 94 93 95
0.110973 0.344481 0.000951 124 130 128
-0.146526 0.465204 -0.004833 136 143 137
-0.056346 -0.016808 -0.002432 113 127 118
0.279686 -0.232322 0.011791 138 138 134
0.094027 0.001082 -0.000380 102 114 106
0.271584 -0.122492 0.007511 135 136 132
-0.102954 0.443697 -0.004599 110 121 117
0.068042 0.065119 0.003924 94 110 99
-0.442054 0.046530 0.417009 155 152 147
0.313896 -0.252285 0.011446 135 136 130
0.270849 0.538176 0.004695 141 142 133
0.208474 0.234480 0.000494 68 75 69
-0.201091 -0.042623 0.333385 45 53 52
-0.279394 -0.091456 0.375854 51 62 58
0.009437 0.209213 -0.004177 108 120 112
-0.349684 0.076631 0.381581 147 176 184
0.077249 -0.156609 0.005928 28 73 102
0.282684 0.290360 0.005692 111 117 115
-0.103549 -0.200321 -0.001547 97 103 101
0.053040 -0.091212 0.001150 107 122 117
-0.207294 -0.096275 0.210230 21 27 27
-0.187560 -0.046775 0.260318 115 119 114
-0.495882 -0.004800 0.371776 130 142 146
-0.201558 0.379339 -0.003071 139 146 138
-0.100704 -0.135819 -0.004983 113 126 123
0.329999 0.032403 0.010452 79 80 76
-0.344348 -0.083323 0.372487 80 91 89
-0.382979 -0.004591 0.375778 24 34 41
0.108561 -0.277195 0.006803 116 124 121
0.172938 -0.096150 0.005674 109 122 117
0.314904 -0.104915 0.010731 96 96 92
-0.381962 -0.089728 0.342780 99 132 136
0.260654 -0.124224 0.007102 132 133 127
-0.037864 0.136666 -0.001957 96 108 98
-0.236365 -0.080896 0.272527 28 36 37
0.291889 0.099155 0.007517 133 134 128
0.300984 0.522875 0.003030 142 143 139
0.349218 -0.174913 0.008565 58 64 64
0.361579 0.258999 0.009967 137 137 137
-0.304269 0.055177 0.365188 125 161 167
0.394269 -0.072183 0.014824 147 147 143
0.214379 0.245284 -0.001290 125 134 127
-0.351676 0.050019 0.389086 92 96 91
-0.035101 -0.175887 -0.001989 118 133 130
-0.228239 -0.084054 0.391449 97 141 146
-0.091080 -0.086757 -0.002014 106 121 116
0.113285 0.172927 0.008067 111 120 113
0.040276 0.549326 -0.002657 131 133 122
-0.066038 0.263197 -0.003989 104 113 104
0.322819 0.131041 0.001628 134 138 131
0.102071 0.144548 0.002146 103 116 111
-0.327035 -0.034417 0.379425 75 83 80
-0.164969 -0.088342 -0.003459 106 121 116
0.325772 0.357713 0.008041 140 140 136
0.236033 0.084952 0.004888 123 131 128
0.094461 -0.149061 0.011115 28 76 107
0.257408 0.543666 -0.001529 136 136 130
-0.045981 -0.224744 0.000958 123 131 128
0.021635 -0.033204 0.005064 35 48 43
0.189190 -0.205056 0.011438 94 105 103
-0.266224 -0.070524 0.410994 122 167 176
0.205868 -0.012535 0.004745 122 129 123
-0.035386 -0.181291 -0.001400 118 131 130
-0.148198 -0.233820 -0.003568 132 140 137
0.269292 0.268341 0.005250 129 136 130
-0.010362 0.384315 0.004345 136 140 133
0.344379 0.400448 0.010907 145 142 137
0.161870 -0.029130 0.000966 114 121 115
0.179035 -0.090547 0.005799 111 123 115
0.059465 0.152091 0.000012 39 52 49
0.196875 -0.180210 0.008668 107 113 111
-0.183562 0.224329 0.031677 120 108 79
0.024184 -0.052469 0.004604 106 119 116
0.232782 -0.056362 0.006603 125 134 127
-0.193010 -0.100325 0.196404 55 61 59
0.127923 0.018358 0.007206 106 115 108
0.292916 0.092774 0.007306 130 134 129
0.163988 -0.104461 0.008322 112 120 117
0.052584 -0.241229 0.007785 108 120 122
0.223016 0.225720 0.003312 127 133 133
-0.234003 0.276771 0.001835 50 58 57
-0.090912 -0.252932 0.000630 133 140 134
-0.087649 -0.102833 -0.004462 113 127 118
0.307944 0.110835 0.006227 121 128 122
0.272169 -0.253357 0.008530 138 138 134
0.142119 0.232280 0.002827 74 82 83
0.391394 0.484405 0.016079 149 146 141
0.366634 0.142472 0.001861 139 139 139
0.163628 -0.269100 0.005945 120 123 122
-0.059952 -0.290104 -0.000872 127 135 132
-0.351532 0.028612 0.390565 86 90 85
0.314961 0.067889 0.010395 126 136 124
0.244983 0.451011 0.009976 138 139 133
0.191674 -0.246386 0.007410 89 88 95
0.082988 -0.040698 -0.000445 107 121 112
0.266367 0.189746 0.005382 137 138 132
0.114351 -0.006300 -0.001828 51 66 65
-0.034154 -0.112455 -0.003048 111 129 123
-0.164720 -0.278081 -0.004269 27 33 33
0.378417 -0.274011 0.013316 141 132 135
0.038988 -0.010616 -0.001912 86 105 95
0.165821 0.327540 0.004192 129 136 130
-0.314768 0.509797 -0.004636 143 148 138
-0.241074 -0.073141 -0.004292 106 121 116
0.355708 0.534693 0.007073 89 86 83
-0.161553 -0.258805 -0.002685 126 137 133
-0.410994 0.051490 0.407031 145 146 140
0.034086 0.400572 -0.002015 128 137 128
0.320949 0.414516 0.009591 133 137 132
0.044372 -0.203924 0.022286 39 87 120
-0.050918 0.098870 -0.001218 104 118 109
0.394428 0.042445 0.012000 139 140 136
0.397648 -0.234054 0.020002 147 144 141
0.356465 -0.253963 0.011102 137 136 136
-0.201707 -0.116178 0.192032 31 39 38
0.106235 -0.203623 0.005080 52 98 132
0.086495 -0.139001 0.019939 35 86 120
-0.174775 0.448236 -0.004899 141 145 138
0.311402 0.154574 -0.000484 126 130 123
-0.232054 0.333873 -0.004967 120 129 122
-0.236733 0.420501 -0.002127 136 143 135
0.111524 0.318660 -0.002101 124 132 129
-0.398143 -0.029914 0.345240 138 167 175
-0.461128 0.030339 0.427965 50 61 59
0.078298 -0.294803 0.007407 112 123 119
0.054014 -0.241472 0.009115 107 119 121
-0.222129 -0.252219 -0.002005 135 143 140
0.373885 -0.069883 0.007975 138 139 135
0.000435 -0.142882 0.007845 116 127 125
-0.060915 -0.108695 -0.003380 121 134 131
0.328449 0.143817 0.002922 138 139 133
0.027874 0.026894 0.000427 95 106 102
0.268114 -0.297107 0.008281 139 139 133
-0.357416 -0.088661 0.366447 107 143 151
0.159515 -0.283931 0.007886 115 118 117
0.260464 -0.266184 0.006691 136 137 133
0.248405 0.514456 0.001710 121 122 118
0.369869 0.046131 0.012731 137 137 133
0.141074 0.226224 0.004884 114 121 115
0.339476 -0.257551 0.013057 148 143 141
0.125911 0.057293 0.007934 104 113 106
-0.475350 0.132136 0.131269 87 85 73
0.367923 0.160190 0.006609 137 138 134
0.316754 0.107937 0.007738 129 130 124
-0.258129 -0.055043 0.417496 126 171 180
0.020443 0.433721 0.000013 114 120 118
-0.320813 0.041685 0.377061 91 97 95
-0.218368 -0.077446 0.349061 61 74 71
-0.304119 -0.093083 0.359361 50 62 54
0.215030 0.450402 0.006840 138 140 131
-0.061045 0.016861 -0.001129 109 123 114
-0.241078 0.042729 0.317134 128 139 137
0.349522 0.058976 0.011856 132 139 131
-0.260809 -0.097650 0.374818 48 60 52
0.327523 -0.060503 0.008244 138 139 133
0.273300 -0.218873 0.012012 140 140 134
0.224544 0.221131 0.003096 126 132 130
0.088030 0.255343 -0.004104 68 74 72
-0.318365 -0.022088 0.378602 76 85 78
-0.021771 -0.183529 0.000675 116 127 127
0.218753 -0.251171 0.006033 106 112 110
0.007997 -0.087596 0.001278 93 108 103
-0.274052 -0.086343 0.389915 88 128 130
-0.387813 -0.069193 0.363606 135 169 175
-0.193782 -0.027889 0.294742 103 108 98
0.065337 -0.237300 0.022253 38 86 119
0.365147 -0.100775 0.009745 143 143 137
-0.194996 -0.266674 -0.004093 145 144 144
-0.245869 0.032121 0.348137 126 138 130
-0.089451 -0.102855 -0.004403 113 127 118
-0.239396 -0.242106 -0.002989 118 126 123
-0.325537 0.475456 -0.000997 80 83 84
0.089017 -0.133826 0.026854 49 102 135
0.234138 -0.164870 0.003710 115 121 121
-0.346764 -0.245118 -0.003559 161 159 151
0.068500 0.167852 0.000313 110 122 114
0.010083 -0.160451 0.006914 119 134 133
0.022092 0.374847 -0.003158 125 134 127
0.064099 -0.152866 0.011934 35 83 114
0.211241 -0.022981 0.000953 120 127 121
-0.352845 0.040868 0.390812 87 94 88
-0.045663 0.133276 -0.004045 83 95 87
0.047603 -0.089577 0.001868 104 122 116
0.298932 0.033650 0.007241 87 87 91
-0.217731 -0.235366 -0.003656 132 140 137
0.213779 -0.186943 0.007599 110 118 115
-0.315969 0.060055 0.013732 124 138 129
0.288092 0.209649 0.003673 131 139 128
0.003977 0.262100 -0.004777 117 129 119
0.288007 0.149080 0.000904 128 132 125
0.255723 0.108076 0.002301 122 134 124
0.229743 0.082550 0.005321 125 131 129
-0.016549 -0.144848 0.001840 111 126 123
0.124306 0.016873 0.005871 102 114 106
0.006340 0.005705 -0.002793 96 109 104
0.319433 0.417649 0.009016 102 102 102
0.155793 0.197182 -0.001157 121 132 132
0.209667 0.019328 0.005949 122 126 121
-0.468564 0.018749 0.431403 112 118 118
0.120787 0.260583 -0.000399 124 132 131
0.342573 -0.167401 0.006826 63 69 71
-0.214557 0.389870 -0.003345 133 141 130
0.052619 0.041176 0.005756 90 103 98
0.035208 -0.110346 0.002594 116 129 126
0.358791 0.295822 0.006367 139 139 135
0.136614 0.418369 0.001204 129 136 130
-0.152937 -0.294718 0.000091 136 139 138
0.368763 -0.102421 0.009062 144 144 140
0.089569 -0.256615 0.010590 114 125 125
0.125372 0.188642 0.004911 110 119 112
-0.166777 0.094289 0.001917 104 117 104
0.093882 -0.186329 -0.002439 28 70 100
0.399393 0.187680 0.011079 134 138 131
-0.454874 0.004343 0.412620 143 143 145
-0.344101 -0.039902 0.378590 84 92 89
-0.120471 0.429336 -0.004046 134 141 133
0.258620 -0.259424 0.005514 136 137 131
-0.225130 0.474286 0.002381 144 147 146
-0.186878 -0.250667 -0.001875 128 136 135
0.182161 -0.101148 0.015589 90 98 95
0.031196 0.387288 -0.002050 122 126 121
-0.227350 -0.078636 0.404192 103 149 153
0.271473 0.177439 0.002847 137 138 134
0.329440 0.219923 0.006836 135 139 134
-0.006950 0.042464 -0.002489 100 116 107
0.187628 0.394849 0.004852 56 62 60
0.356585 0.079571 0.013206 141 141 137
0.271823 -0.295501 0.008092 135 137 128
0.071999 0.354372 -0.002690 79 82 83
-0.369780 -0.094826 0.353452 95 129 137
0.306585 0.170645 0.003266 135 139 134
0.379432 -0.251274 0.014426 70 66 67
-0.008158 -0.174541 0.006920 45 58 57
0.145191 0.056289 0.014806 31 42 40
-0.010877 0.045564 -0.000184 96 110 101
0.082241 -0.174504 -0.000415 29 69 98
0.197172 -0.294990 0.005955 125 125 119
-0.174906 0.460896 -0.003594 139 146 138
-0.094361 -0.268662 -0.003377 137 141 136
0.366652 0.523825 0.009682 149 147 139
0.230109 -0.003747 0.003122 131 135 130
0.258642 -0.159126 0.002226 131 135 130
0.349244 0.078203 0.011534 139 139 135
-0.109376 -0.249469 -0.000128 130 139 132
0.361123 -0.164719 0.010293 141 142 133
0.205803 0.041338 0.002773 118 126 123
0.230622 0.176256 0.004225 133 137 132
0.377019 -0.102409 0.014999 74 77 76
-0.314109 -0.037593 0.380088 67 80 75
-0.217869 -0.231933 -0.004129 131 139 136
0.050601 0.094037 0.005577 32 44 36
-0.161181 0.375942 -0.001283 136 144 133
0.087038 -0.013265 0.000250 72 85 84
0.268076 -0.013775 0.003519 129 132 131
0.192767 0.449322 0.007677 130 134 127
0.354594 0.022006 0.011019 137 138 134
-0.170932 0.120794 0.000927 111 119 104
-0.007027 0.454517 0.000785 138 145 137
-0.236245 0.478506 0.000504 138 146 135
-0.341192 -0.021925 0.377949 84 90 88
-0.338123 0.068177 0.382195 134 167 169
0.216275 -0.296920 0.008105 127 131 126
0.036232 -0.073945 0.000312 103 116 111
-0.245925 -0.062645 0.416611 120 168 176
-0.116207 -0.075103 -0.003110 110 123 118
-0.210343 -0.094375 0.209411 11 17 15
-0.462819 -0.014273 0.391844 52 55 56
0.112210 -0.291570 0.006226 112 115 114
0.273826 -0.170346 0.004340 128 132 127
-0.342186 -0.235574 -0.001432 155 156 152
-0.165320 -0.220651 -0.001919 71 74 77
0.314875 0.032476 0.010094 99 95 100
-0.137981 -0.251915 -0.004845 126 137 133
0.369309 0.324776 0.008297 146 143 140
-0.059461 -0.059676 -0.002980 115 128 123
-0.073474 -0.294972 0.000093 128 136 133
0.230104 -0.299824 0.005549 130 131 125
0.249848 -0.030556 0.005608 129 135 135
0.294240 0.088529 0.007188 125 132 126
-0.001651 0.519743 -0.002907 62 65 64
-0.226102 -0.067356 0.410876 120 166 172
-0.303976 0.017734 0.364054 45 53 52
-0.157882 0.534087 -0.002878 138 145 137
0.309341 0.210985 0.001840 133 137 132
-0.415674 -0.004381 0.393357 91 97 95
-0.477706 0.079209 0.392575 145 145 147
-0.363889 0.039653 0.392285 86 93 87
0.140024 -0.270543 0.005119 116 124 123
0.004802 -0.113530 0.000734 114 127 124
-0.254639 0.452568 0.004605 142 146 141
0.099817 0.166628 0.002967 110 122 112
0.004178 -0.030825 -0.001377 97 109 101
0.156171 0.412566 -0.001245 94 97 96
0.259118 -0.282547 0.007488 136 135 135
0.279168 -0.065805 0.011970 64 61 58
0.287109 -0.116817 0.007080 131 135 130
-0.086057 -0.272011 -0.002898 127 133 131
-0.127807 -0.229175 -0.001669 128 139 135
-0.463525 0.134258 0.118063 82 81 66
-0.194975 -0.268236 -0.004526 152 152 152
-0.108845 -0.069018 -0.004127 110 123 118
-0.210453 0.192963 0.026356 121 109 78
0.297414 0.274098 0.004469 81 81 81
0.310617 -0.119607 0.010380 133 133 129
0.390839 -0.164947 0.011231 139 139 139
0.328885 0.055951 0.009048 137 138 129
0.152102 0.016241 0.007688 103 115 107
0.122093 -0.067107 0.003366 110 124 115
0.383330 -0.037469 0.009629 143 143 139
0.227856 -0.156300 0.005069 116 117 111
0.089987 0.367464 -0.002472 66 74 71
-0.221570 -0.076641 0.403130 111 155 162
-0.358427 -0.052404 0.380091 99 106 100
0.368292 0.190735 0.009310 120 123 122
-0.281428 -0.046121 0.409212 126 165 172
-0.011450 -0.224336 -0.001362 122 133 131
0.143317 -0.216554 0.041786 92 140 173
-0.096082 -0.265678 -0.001552 133 139 137
-0.207988 0.154482 0.015418 102 96 70
0.365836 -0.127486 0.012516 75 67 66
-0.122531 -0.202090 -0.001257 45 53 50
0.291370 0.005824 0.005141 130 134 127
0.126644 0.022759 0.006455 104 113 106
0.205910 0.281104 -0.000267 127 136 129
-0.167148 0.334453 -0.001062 126 134 133
-0.339393 0.049468 0.385743 86 94 91
-0.466430 -0.015030 0.388363 48 48 52
-0.061215 -0.054285 -0.001878 112 127 122
-0.127090 -0.084125 -0.004555 111 125 127
-0.402957 -0.005050 0.385475 71 77 75
0.101973 -0.120220 0.052746 64 115 147
0.171255 -0.211717 0.010740 87 98 107
0.353186 -0.039720 0.004846 137 138 132
0.126145 -0.013426 0.001083 111 121 109
-0.213352 0.339021 -0.004690 131 143 133
-0.229730 -0.277840 -0.004701 42 45 46
0.151502 0.028441 0.007835 104 114 117
