ply
format ascii 1.0
element vertex 1217
property float x
property float y
property float z
property uchar red
property uchar green
property uchar blue
end_header
-0.166997 0.115951 0.001884 82 91 82
-0.034699 -0.183477 0.007856 110 129 129
-0.004166 -0.138344 0.004438 28 73 100
0.363308 0.050543 0.016650 137 140 139
-0.005457 -0.124418 0.006467 25 76 106
0.307980 0.038153 0.015778 54 64 67
-0.146745 -0.172121 0.004134 124 137 134
-0.212614 -0.073307 0.023807 107 122 117
-0.017321 0.382864 0.009424 79 90 86
-0.297812 -0.082115 0.386723 86 96 99
-0.268836 -0.047908 0.412378 125 170 179
0.364876 -0.163710 0.006337 142 139 134
-0.085640 -0.138112 0.009732 111 130 130
0.329371 0.261606 0.020055 139 139 139
-0.069284 0.145836 0.001185 90 105 91
0.230214 0.001490 0.005115 123 131 128
-0.037535 -0.118368 0.010492 18 64 96
0.162815 0.251675 0.010241 125 136 132
-0.176714 0.123036 0.004879 104 117 102
-0.167405 0.360916 -0.002160 55 63 60
-0.437646 -0.009472 0.402942 85 89 84
0.227654 0.118848 0.002288 129 136 130
0.059100 -0.092535 0.055324 88 106 104
0.125006 0.365865 0.003738 128 134 134
0.158988 -0.130342 0.008834 114 121 115
0.337032 -0.149965 0.015179 142 143 139
-0.492015 -0.003719 0.435927 163 164 153
-0.518843 0.041430 0.447282 165 157 154
-0.293139 -0.065283 0.401325 73 94 100
0.059785 0.003573 0.002980 88 103 98
-0.469676 0.008307 0.423463 122 128 128
-0.188206 0.130769 0.014742 110 123 110
0.307897 -0.188873 0.008296 142 139 136
-0.433005 0.040049 0.407382 139 140 136
0.293075 -0.049980 0.016217 113 116 115
-0.176272 0.262839 0.026942 128 123 101
-0.115073 0.232848 0.044681 142 135 106
0.112918 0.183004 0.014236 71 83 85
0.101234 0.374384 0.009171 128 137 130
0.185143 0.026235 0.008609 110 124 115
-0.384791 -0.066322 0.371502 138 172 180
-0.119451 0.000804 0.002727 96 109 104
-0.315704 0.027853 0.376668 91 102 98
0.357711 -0.083303 0.013752 143 144 140
0.122715 -0.097859 0.010688 102 113 113
0.294728 0.015518 0.015862 127 133 131
0.190134 0.058137 0.011478 115 126 122
0.169742 -0.099404 0.015848 122 133 129
-0.394172 -0.062256 0.366481 143 168 173
-0.220281 -0.054088 0.416532 120 164 171
0.093718 -0.059175 0.002413 95 106 104
0.359482 0.057432 0.019738 138 142 137
-0.442958 -0.011122 0.400905 60 68 65
-0.245250 -0.175078 0.001895 125 136 132
0.314183 -0.140270 0.018980 129 132 131
0.117850 -0.135425 0.007393 99 108 101
-0.178726 0.126219 0.002988 107 120 105
0.289883 0.198038 0.011300 135 139 132
0.048409 0.215771 0.008720 106 120 111
0.131535 0.164650 0.002961 114 126 118
0.308475 0.066803 0.016993 43 50 58
0.041016 0.329718 -0.004672 124 132 129
-0.173482 0.011777 -0.004884 96 107 103
0.193758 -0.111754 0.014158 128 135 129
-0.229663 -0.047501 0.421513 121 166 175
-0.265391 0.393489 0.001122 83 91 88
0.149319 0.353028 0.004037 115 126 124
0.229091 -0.147381 0.005293 136 137 131
-0.342383 0.065511 0.385644 140 170 173
-0.318463 -0.091634 -0.000162 116 129 124
-0.206257 -0.067737 0.321232 35 47 49
0.114381 -0.009192 0.005360 45 53 52
0.294016 -0.094540 0.013157 129 133 126
0.327795 0.099345 0.016193 135 139 132
-0.259961 0.272966 0.006978 130 145 144
0.188978 -0.019945 0.008196 118 129 125
0.216460 -0.014932 0.005869 118 126 123
-0.040683 0.027857 0.006741 97 115 113
0.227124 0.184791 0.013109 123 136 133
-0.076684 0.008021 0.005213 50 65 62
0.228501 -0.027871 0.003531 127 133 131
0.363334 -0.176659 0.015709 137 141 134
0.085925 -0.153556 0.007888 95 110 107
-0.044810 -0.004930 -0.002031 39 57 55
0.271752 -0.037702 0.009130 132 138 136
-0.033764 -0.121020 0.007167 18 65 94
0.356287 -0.043007 0.013708 142 143 139
-0.073985 0.056950 0.010419 101 114 109
-0.404859 0.011128 0.408037 123 126 127
0.200224 0.103450 0.001990 123 136 131
0.199942 -0.091539 0.020451 108 107 107
0.007851 -0.137376 0.007471 49 102 133
0.131563 0.021598 0.009194 106 115 108
-0.075234 0.156548 0.005987 43 51 38
0.329848 -0.053473 0.010219 133 137 132
0.071563 0.207527 0.011121 113 126 121
-0.223701 -0.088044 0.006669 104 119 118
0.317806 0.005826 0.005449 130 135 125
0.107249 -0.021797 0.006994 98 109 105
-0.376983 -0.095641 0.349268 96 128 135
-0.029473 0.031177 0.008636 62 73 73
-0.383449 -0.012940 0.369912 118 84 90
0.020150 0.348245 0.001096 99 114 109
0.074093 0.333416 0.001391 123 134 130
0.049298 0.116895 -0.000868 110 123 118
0.096156 0.107152 0.005988 97 110 105
0.004538 -0.168611 0.018206 47 103 133
-0.071383 0.225073 0.032491 136 130 104
0.034161 0.051054 0.006631 95 110 105
-0.204514 -0.109405 0.199262 27 35 34
0.004476 0.382028 0.004197 124 133 126
-0.340182 -0.014560 0.380437 86 99 96
0.289816 0.078185 0.015090 131 135 130
0.177289 0.388543 0.009304 94 100 102
0.182299 -0.115629 0.008686 132 141 134
0.264893 0.364919 0.007657 137 141 136
0.157461 0.377139 0.006688 123 134 130
0.246560 0.142312 -0.003855 128 136 133
-0.147752 0.122567 0.014391 102 108 91
0.309851 0.039848 0.016625 129 140 140
-0.178287 0.098757 0.005666 107 121 110
-0.108926 0.142549 0.010559 115 118 95
-0.241127 0.365296 0.000892 141 148 142
-0.388491 -0.002719 0.384444 82 95 94
-0.086129 0.260305 0.025260 126 130 109
-0.219667 0.159921 0.017402 117 129 119
0.113281 -0.096792 0.013098 99 112 107
0.147758 -0.121222 0.014937 123 131 128
0.357045 0.373121 0.005519 142 143 139
0.003649 -0.051596 0.048378 47 105 135
0.087914 -0.169581 0.008215 40 51 49
0.251045 0.041897 0.011333 123 132 125
0.324461 -0.095139 0.009413 138 140 131
0.374967 0.009899 0.015747 95 95 95
-0.228889 -0.072077 0.416717 113 163 173
0.065328 0.011994 0.007074 93 107 98
0.284490 -0.157560 0.010006 66 74 73
-0.088955 0.219131 0.026970 144 137 108
0.059581 0.039834 0.008820 93 106 101
-0.024880 -0.050722 0.035757 45 103 133
0.162022 0.260000 0.008575 125 133 130
-0.184146 0.139309 0.030983 119 123 102
-0.305648 -0.097191 -0.000143 117 130 125
-0.333030 0.019780 0.376784 76 84 81
0.300977 -0.191973 0.006637 144 144 138
-0.092635 0.042510 0.000909 94 110 101
0.294818 -0.180441 0.009607 140 141 137
-0.241983 -0.171477 0.001466 124 137 132
-0.119254 0.051286 0.008578 101 117 108
-0.110162 0.011620 0.005845 98 113 108
0.053153 0.149210 0.001054 31 43 45
0.027000 0.031605 0.008388 81 89 88
0.291837 0.350061 0.003787 140 142 131
-0.123592 -0.059080 0.005617 98 116 110
0.048996 -0.135588 0.044897 81 139 171
0.024416 -0.110289 0.026114 73 121 152
-0.480195 0.031227 0.438219 155 150 146
-0.368897 -0.006767 0.369928 43 49 49
0.009386 0.153397 0.004950 97 111 102
-0.245283 -0.043625 0.421727 119 169 177
-0.075178 -0.156155 0.003865 115 135 132
-0.306136 0.399540 -0.000641 139 146 140
0.059658 -0.181465 0.013940 93 108 105
-0.120701 -0.173384 0.002151 120 133 132
0.208244 0.038828 0.012985 125 134 127
0.164074 0.258136 0.007771 125 136 132
0.065024 0.254157 -0.002686 114 125 121
-0.232323 -0.100215 0.004045 38 49 47
-0.381441 -0.091927 0.353065 112 140 146
-0.053311 0.103670 0.006330 97 113 104
-0.483226 -0.007590 0.435503 155 155 149
0.139083 -0.018727 -0.000516 101 115 106
0.384164 -0.155868 0.010589 144 144 144
-0.347244 -0.084717 0.375143 80 93 90
-0.169309 -0.172570 -0.001193 132 145 140
-0.434683 -0.000650 0.415969 160 161 157
-0.097936 0.056607 -0.002625 97 116 106
0.398449 -0.159921 0.012458 143 143 143
-0.211080 -0.074243 0.281637 62 80 78
0.270396 -0.146334 0.014792 136 136 136
0.288036 -0.129612 0.013196 66 60 64
-0.500465 0.018945 0.446215 118 118 120
-0.512860 0.023959 0.447060 129 128 128
-0.069648 -0.197305 0.008054 67 81 85
-0.040871 0.093377 0.014064 102 120 114
-0.058973 0.156306 -0.001343 94 106 98
-0.110924 -0.199685 0.011177 120 133 130
-0.001572 -0.151377 0.006176 37 85 116
0.276718 -0.196530 0.003760 138 141 140
-0.154232 0.249331 0.036789 132 122 92
-0.357646 0.009622 0.382323 70 79 72
0.289625 0.365431 0.010873 140 144 139
0.140700 -0.121174 0.014739 118 126 123
0.337903 -0.086439 0.011675 142 146 141
-0.216986 -0.076448 0.005656 107 122 119
-0.131021 -0.138031 0.002838 114 129 128
0.264254 0.361764 0.008376 137 141 136
-0.201596 0.294284 0.005480 73 87 78
-0.140034 0.106268 0.012561 50 59 52
0.298521 0.104867 0.013437 125 132 124
-0.503543 0.019423 0.447445 119 119 121
0.237078 -0.055861 0.010630 126 134 131
0.038283 0.026426 0.006329 82 101 91
-0.222334 -0.104191 0.222101 54 62 61
0.185480 0.181473 0.010266 124 132 129
-0.344442 -0.030211 0.381846 89 97 96
0.341417 -0.070431 0.014823 141 140 140
0.001054 0.144393 0.004913 93 105 97
0.269126 -0.014719 0.010920 127 134 126
0.145324 -0.177852 0.006153 130 141 137
0.302043 0.039839 0.011964 131 134 133
-0.198151 -0.069715 0.265389 18 30 32
0.099952 -0.095469 0.008884 89 107 103
0.107030 0.387087 0.006437 86 97 93
0.015507 -0.084472 0.025718 56 114 144
-0.109424 -0.090806 0.004530 97 115 113
0.166142 -0.149609 0.006709 130 138 135
0.039606 0.342281 -0.004385 123 132 125
0.143210 0.062751 0.009957 102 114 106
0.016469 0.268433 -0.003070 107 123 112
0.214109 0.351805 -0.000031 129 133 128
0.041348 0.147504 -0.000108 98 114 105
-0.266238 -0.088831 0.409960 117 144 153
0.211985 -0.124286 0.013305 123 131 128
0.275390 0.003036 0.011656 133 140 134
0.122172 -0.146122 0.006962 44 55 51
-0.365764 -0.009029 0.371180 130 138 137
-0.051236 -0.092391 0.015537 32 90 122
0.002751 0.011359 -0.001793 96 114 110
-0.230126 0.172593 0.010837 120 130 118
0.304647 0.120471 0.008754 130 134 129
-0.004041 -0.068304 0.032635 41 103 136
0.323260 0.167811 0.000475 135 141 139
0.173958 0.339562 0.001847 130 138 135
-0.190629 0.361073 -0.002811 135 146 142
-0.249398 -0.099328 0.012753 111 124 119
0.298511 -0.087075 0.018980 135 136 132
-0.177872 0.069229 0.005174 92 111 99
-0.118472 -0.112273 0.001979 110 128 126
0.151597 0.112591 0.004730 88 99 97
0.286954 -0.013726 0.008627 135 136 130
-0.095463 -0.003859 0.004614 103 117 108
0.224461 0.294301 -0.001098 132 138 136
0.076092 -0.154791 0.012525 93 108 107
-0.132345 -0.000960 -0.002910 86 101 98
-0.213219 0.168525 0.037057 116 129 114
-0.165205 0.349499 -0.004096 142 153 151
-0.004042 -0.171673 0.016513 42 90 123
0.320352 -0.148794 0.017411 136 140 133
0.304642 0.162670 0.005226 134 141 135
0.263819 0.075770 0.010948 128 137 130
-0.325659 0.018502 0.374212 35 43 44
0.124978 0.035161 0.010890 101 112 108
-0.067796 -0.014856 0.002563 98 119 108
0.083647 0.239309 0.002017 124 133 126
-0.524573 -0.021079 0.412485 33 29 30
0.281253 0.120630 0.008099 125 134 127
-0.085066 0.228050 0.031244 142 137 108
-0.202186 -0.093659 0.006932 80 93 92
0.104935 0.118193 0.005884 107 118 114
-0.346493 -0.090504 0.370265 69 84 83
-0.352906 0.063192 0.384237 112 120 121
-0.162376 0.272782 0.023176 126 124 105
-0.230406 -0.165105 -0.002932 125 133 132
-0.174791 0.124778 0.005750 108 122 111
-0.192330 -0.038707 0.017374 100 115 112
0.270569 -0.150574 0.017238 136 140 135
0.212594 0.048171 0.015263 124 132 131
-0.072089 -0.154309 0.010338 26 43 44
-0.078343 0.019734 0.006200 103 122 110
-0.356599 0.049398 0.389838 94 97 96
-0.016979 0.061695 0.009991 97 111 102
0.181819 -0.188532 0.014457 127 134 128
-0.225877 0.184911 0.024428 117 129 119
-0.336905 -0.030262 0.382057 82 90 89
0.382701 -0.164584 0.009796 113 107 113
-0.124532 0.113809 0.006623 102 117 103
0.045156 0.227575 0.008597 67 78 78
-0.046272 -0.067345 0.029559 36 96 127
-0.155438 -0.167441 -0.000579 121 135 126
-0.134360 -0.103023 -0.004141 117 135 133
-0.028879 0.228400 0.002260 89 97 84
-0.495909 0.013201 0.440373 134 137 138
-0.398694 0.007756 0.397831 134 140 142
0.227443 -0.107153 0.017349 129 135 133
0.325328 -0.054125 0.011982 133 137 132
-0.229029 -0.124285 0.218055 93 111 107
0.234589 0.038650 0.013723 125 131 129
0.108804 -0.007472 0.005987 66 74 71
0.041606 -0.035794 0.017192 90 105 100
-0.216992 -0.061842 0.408611 117 163 167
0.268337 -0.003503 0.012806 129 136 130
0.268723 0.051183 0.014000 125 131 129
-0.231014 -0.090227 0.357441 52 67 62
0.106579 0.178445 0.014123 113 121 118
-0.112564 -0.043587 0.005449 102 120 118
-0.177791 -0.064300 0.003705 107 122 117
0.008785 0.372364 -0.000168 130 139 132
-0.366970 -0.072330 0.380295 131 170 179
0.020162 -0.085790 0.029663 53 111 141
-0.110858 0.140800 0.009684 112 115 94
-0.193836 0.133628 0.021415 110 120 108
0.162564 -0.136780 0.005948 128 136 133
0.350841 -0.127868 0.013758 105 103 114
0.293350 0.054842 0.010953 128 134 132
-0.115608 -0.179090 0.004067 122 135 134
-0.222077 -0.082566 0.007063 110 121 119
-0.035290 0.082078 0.011185 103 121 115
-0.233416 -0.085372 0.411490 104 149 158
0.124181 -0.086255 0.009515 100 111 109
0.346218 0.060953 0.020964 134 141 133
0.279965 -0.144270 0.013844 146 146 140
-0.150346 0.301382 0.010381 123 137 126
-0.245902 -0.121188 0.000479 50 57 61
-0.051846 -0.026238 0.006590 111 131 124
-0.186110 -0.098915 0.006090 113 128 125
-0.122522 0.132875 0.007838 112 115 92
0.186930 0.286206 0.002791 132 143 141
0.041641 -0.141611 0.035243 77 132 167
-0.049875 -0.057682 0.033945 48 104 134
0.211421 0.029465 0.010931 44 50 52
0.202588 0.040573 0.013621 121 129 126
0.141253 -0.149704 0.006992 126 137 133
0.342298 -0.066491 0.014478 136 132 135
0.284534 0.067830 0.014518 119 123 116
0.276264 0.275268 0.006001 133 139 137
0.006976 -0.182773 0.019414 95 114 118
-0.515757 -0.021221 0.421522 84 80 81
-0.136067 0.295328 0.015732 76 91 86
-0.195719 -0.050248 0.067070 99 113 104
0.115111 0.074155 0.012183 78 91 88
-0.254029 0.274064 0.005467 124 137 132
-0.402293 0.026649 0.403204 114 121 125
0.216626 0.207299 0.017743 129 136 130
-0.426113 0.030129 0.408496 115 121 123
-0.238282 0.237705 0.009998 125 139 128
0.211217 -0.031823 0.003359 123 131 128
0.159865 -0.045693 0.008544 120 128 125
-0.406156 0.032496 0.401391 121 124 125
-0.322096 -0.022996 0.384798 82 90 87
0.338630 0.064436 0.022349 46 52 54
-0.061169 0.384363 -0.000073 132 141 134
0.298623 -0.126476 0.014985 135 139 134
-0.526981 0.058315 0.001352 135 139 134
-0.095576 0.281179 0.019235 122 136 125
-0.197622 0.097663 -0.000963 102 116 105
0.078877 -0.145573 0.011385 91 106 105
-0.081890 0.306664 0.000628 116 128 118
0.105345 0.241209 0.006888 121 132 128
-0.402105 0.010588 0.404560 117 123 123
0.213618 -0.151525 0.007296 130 138 135
-0.024566 -0.190256 0.007223 111 128 133
-0.178528 0.109846 0.000889 102 118 107
-0.171966 0.055056 0.008691 33 46 43
-0.220995 -0.098567 0.223657 53 66 61
-0.496468 -0.012231 0.429619 97 104 96
-0.211496 -0.079262 0.248390 20 28 27
0.322657 -0.005163 0.002691 68 74 72
-0.034634 -0.144270 0.006248 22 70 101
0.261179 0.076647 0.013481 126 135 128
-0.163156 -0.082328 0.006803 119 127 124
-0.161900 0.203677 0.002054 93 83 53
0.011783 0.019012 0.004258 90 103 98
0.325794 0.279549 0.015055 139 139 139
0.121632 0.225232 0.009889 99 112 107
-0.214716 -0.080923 0.344624 63 76 71
0.190786 -0.101466 0.016647 124 135 131
-0.118705 -0.139708 0.002441 116 131 130
-0.092315 -0.143076 0.001696 114 131 132
-0.287935 -0.026088 0.003716 110 123 120
-0.117431 0.028376 0.004591 90 106 97
0.325256 0.167798 0.000531 134 140 138
-0.369650 0.039385 0.394701 91 97 97
0.192930 0.166032 0.005517 126 137 133
0.077419 0.172492 0.008235 112 123 119
0.384419 0.074905 0.023132 141 141 137
-0.331374 -0.037023 0.381289 77 88 84
0.175465 0.108370 0.009026 56 64 63
-0.297041 -0.090159 0.001192 43 57 61
0.217092 0.100670 0.003428 126 133 127
0.198760 0.344932 -0.001501 131 140 133
0.047746 -0.145858 0.037870 86 137 171
0.065994 -0.196222 0.010578 114 125 123
0.103101 -0.174898 0.008420 105 113 110
0.019334 0.008774 -0.000273 81 92 88
0.106078 0.350260 0.006919 90 98 99
0.342386 0.155216 0.002932 65 64 66
-0.096979 -0.061000 0.016587 99 117 113
-0.255706 -0.033827 0.419343 125 171 175
0.104886 0.368648 0.009925 128 137 130
0.095456 -0.087690 0.007952 52 63 63
0.136467 -0.098566 0.012994 105 117 109
-0.385442 -0.094282 0.346326 109 128 130
0.247642 0.183873 0.011114 123 131 130
-0.124906 0.043667 0.007063 98 113 108
-0.313569 -0.044114 0.386267 72 83 81
-0.425053 0.008899 0.412991 114 122 123
-0.091654 0.159055 0.020988 122 119 89
0.181024 0.347068 0.002251 126 132 130
0.347345 -0.120263 0.012775 92 98 100
-0.193029 0.385319 0.002885 135 143 140
0.362368 -0.142943 0.009306 143 144 140
0.024149 0.160307 0.000903 102 117 116
0.105739 0.136710 0.000184 107 119 111
-0.284549 -0.020406 0.004260 111 122 118
-0.313573 -0.064134 0.389085 80 91 87
0.026782 0.177148 0.003307 98 117 107
0.011158 0.395462 0.007348 134 138 133
-0.166199 0.041417 0.006935 100 113 108
0.215831 0.121711 -0.003368 58 65 59
0.367844 0.197510 0.013484 133 139 137
-0.400506 0.050184 0.394353 152 153 149
-0.177226 0.011802 -0.004988 95 111 102
-0.061002 0.165266 0.002765 98 106 93
-0.351408 -0.077191 0.381827 93 101 100
0.382723 -0.128083 0.014651 78 68 68
-0.293603 -0.181021 -0.002379 132 140 139
-0.108382 0.010827 0.007738 13 28 23
-0.176999 -0.121083 0.000468 90 98 95
-0.183341 -0.165424 -0.001613 119 134 129
0.355329 -0.127333 0.011940 113 112 116
0.243380 0.088951 0.014240 63 71 70
-0.125068 0.375197 -0.003021 135 147 139
0.276354 0.040836 0.009421 110 118 117
-0.361805 -0.068391 0.383393 89 114 121
-0.319157 -0.077383 0.002037 119 130 126
-0.159313 0.127082 0.013926 108 114 95
-0.426925 0.019704 0.412445 128 131 134
0.148867 0.034182 0.013385 111 119 118
-0.336936 -0.083483 0.378246 82 93 91
0.308973 -0.148185 0.015133 137 138 132
-0.161346 -0.085586 0.005342 90 105 102
-0.148989 -0.036267 0.001100 99 114 109
0.200071 0.148363 0.000824 119 131 123
0.213334 0.140150 -0.000379 129 140 136
0.276964 0.359759 0.007838 137 141 136
-0.217121 -0.068476 0.403312 118 162 169
-0.365192 -0.031024 0.373096 91 91 93
-0.090518 0.051435 -0.000388 97 113 104
0.391078 -0.023512 0.019454 145 145 139
0.276079 -0.053791 0.010602 119 130 126
-0.451902 -0.018994 0.392548 154 113 121
0.015058 -0.114511 0.016133 48 104 134
-0.008448 0.197979 0.006390 93 109 100
0.187731 0.289796 0.001177 124 135 133
-0.203063 0.227457 0.037222 130 124 100
0.196838 0.051669 0.011986 118 129 125
0.167437 0.302381 0.004197 127 134 126
0.080238 0.046522 0.012577 84 96 88
-0.089289 -0.133882 0.013795 104 126 125
-0.345010 0.064334 0.385014 104 126 129
-0.081358 0.154620 0.009313 92 100 87
0.197872 -0.073394 0.011177 126 132 130
-0.014704 0.265104 -0.002281 109 121 111
0.217940 -0.117329 0.014522 135 135 135
-0.272922 0.253454 0.010732 128 137 128
0.147434 0.201584 0.010719 44 59 54
-0.501678 -0.017027 0.426120 75 78 77
-0.017435 0.174926 0.006412 91 103 93
0.050633 -0.124772 0.049984 81 137 169
-0.054172 -0.162485 0.021436 82 130 152
0.384817 0.251236 0.025783 138 142 137
0.147887 -0.172409 0.005457 130 142 134
0.296657 0.262790 0.014069 132 139 133
0.143039 -0.154495 0.004817 131 142 138
0.239638 -0.141050 0.008569 129 135 133
-0.455111 0.011747 0.418897 78 76 83
0.126472 -0.002711 0.004340 98 109 105
0.338406 -0.133716 0.015062 135 139 134
-0.203722 -0.110673 0.002274 116 129 126
-0.350720 0.074705 0.381940 153 181 187
-0.283010 -0.080604 0.404440 112 148 154
0.004905 0.326272 -0.004091 124 132 129
0.310374 0.383812 0.014560 129 136 128
0.297984 -0.119640 0.010423 134 138 133
0.071527 -0.119609 0.033176 87 101 103
-0.164779 -0.102995 0.001545 107 125 121
-0.090525 -0.157693 -0.003950 117 135 131
-0.396408 -0.006611 0.385696 69 77 76
0.184314 -0.142815 0.008231 122 128 126
0.176936 0.182268 0.004853 120 127 121
0.056878 0.361248 0.001673 86 95 88
-0.504809 -0.001104 0.440057 147 147 143
0.168071 0.378994 0.007882 129 136 130
-0.201406 -0.058566 0.317928 125 140 135
0.336871 -0.068098 0.013560 139 139 135
0.165356 -0.071536 0.011029 123 131 128
0.070652 0.248760 -0.001713 118 126 123
0.133944 0.092823 0.004908 107 121 112
0.000185 -0.086301 0.019975 37 95 125
-0.349414 0.078312 0.383660 153 178 183
0.234461 0.176531 0.011699 130 139 132
-0.027678 0.164047 0.005443 94 106 96
0.022863 -0.155484 0.028199 72 125 158
0.189790 -0.193721 0.014496 127 136 129
0.018706 -0.141494 0.015823 69 122 153
-0.131478 0.354928 -0.003828 81 89 90
-0.260567 -0.100632 0.005178 111 123 115
-0.122281 0.163196 0.005409 100 99 73
0.161991 0.206708 0.002523 125 131 129
0.089647 0.046458 0.012841 99 113 102
-0.068414 0.045821 0.007619 97 118 107
-0.006235 0.202623 0.006414 88 107 97
0.285099 -0.013713 0.008575 129 133 126
0.230845 -0.145792 0.006088 133 136 135
0.194385 0.105252 0.002647 123 134 130
0.234440 0.130121 -0.002183 125 136 132
-0.406116 0.013392 0.409051 134 137 138
0.312867 0.109737 0.008427 105 111 113
0.233054 0.188350 0.014950 130 138 139
0.087227 -0.101376 0.015669 97 108 104
0.281262 -0.047481 0.009287 77 77 81
-0.190275 0.112223 -0.003888 103 116 103
-0.364244 -0.070599 0.382289 133 169 177
0.015226 0.232511 0.007755 111 125 116
0.385954 0.250112 0.027502 137 141 136
-0.363032 0.001302 0.371661 58 61 60
-0.001300 0.096335 0.004536 102 117 112
0.295875 -0.151803 0.015247 137 138 132
-0.128576 0.227380 0.035094 139 132 101
-0.160854 -0.143416 0.002712 116 131 128
0.008515 -0.097253 0.019550 47 103 131
0.349570 0.108946 0.014720 68 67 69
0.310308 0.056049 0.017561 129 136 130
-0.118470 0.151326 0.006623 106 105 79
-0.224779 -0.112550 0.223651 22 30 31
-0.181831 0.081343 0.006276 104 118 109
-0.253979 0.363417 -0.003694 142 146 139
-0.169174 -0.036385 -0.003997 93 108 105
0.035651 0.116987 -0.001251 100 113 108
-0.092351 0.321779 0.007339 129 141 133
0.377531 0.049631 0.023289 137 140 139
0.394718 0.297588 0.022290 141 145 140
-0.325505 0.070798 0.387528 134 168 174
0.219550 -0.144651 0.008474 75 81 81
-0.132221 0.221416 0.018961 124 116 92
0.189087 -0.038809 0.006038 122 128 126
-0.241696 -0.061241 0.423569 119 169 177
-0.243286 -0.054331 0.423427 119 169 179
0.125516 -0.160748 0.001360 116 119 118
-0.245890 -0.081888 0.417138 119 167 177
-0.179073 0.014429 -0.001616 94 109 104
-0.028147 -0.095766 0.014685 21 66 95
0.293410 0.298483 0.008515 138 144 142
0.173589 -0.000581 0.004593 116 124 121
0.292056 0.297770 0.005934 134 140 138
0.126905 -0.183397 0.007412 119 126 120
-0.129298 0.382892 -0.002880 133 142 135
-0.230496 -0.087073 0.321406 49 64 59
0.282530 0.135513 0.005136 125 136 134
0.336611 -0.002806 0.002016 142 143 139
-0.271785 -0.095803 0.001558 111 126 123
-0.382507 0.008167 0.388595 124 132 131
0.187631 -0.188108 0.012628 136 142 142
-0.326606 0.070183 0.388311 133 167 173
0.043987 0.096976 -0.000375 101 114 109
0.384610 0.132161 0.021102 137 141 136
-0.105620 0.286667 0.018166 43 54 50
-0.336369 -0.053336 0.384574 89 97 94
0.350882 0.233718 0.026501 140 140 136
0.197129 0.355765 0.001284 114 126 118
-0.052618 0.183084 0.003597 93 101 88
0.357064 -0.142907 0.009157 139 146 138
-0.400716 -0.018972 0.386428 125 101 105
0.095848 -0.012433 0.003274 90 103 100
0.192672 -0.019970 0.008300 120 128 127
-0.194166 0.160488 0.028392 114 102 73
0.367393 -0.121724 0.011616 141 145 140
-0.378987 0.008707 0.387853 39 46 50
-0.005877 0.395577 0.006871 65 71 71
0.149425 -0.041607 0.007914 38 49 47
-0.157697 -0.095962 0.002833 107 125 121
-0.331996 -0.107307 -0.003467 116 127 123
0.257401 -0.037357 0.013257 129 136 130
0.266043 -0.176611 0.008286 139 140 136
-0.253238 -0.070014 0.003107 109 122 117
0.097950 -0.132645 0.010274 88 101 98
0.282466 -0.031345 0.008009 136 136 136
0.112064 0.175604 0.015178 116 128 120
0.036452 0.364469 -0.002981 124 136 128
0.368574 -0.011105 0.007976 136 141 131
-0.340850 -0.085219 0.376212 80 93 90
0.313403 -0.156683 0.013522 137 138 134
0.314612 0.083214 0.018204 129 133 128
-0.179827 0.071830 0.004117 97 113 102
0.169414 0.099507 0.013540 117 129 119
0.327347 -0.138218 0.018138 134 138 133
0.019221 0.107287 0.000343 33 46 43
0.001526 0.196105 0.005828 93 107 96
-0.314836 0.296792 -0.000192 136 147 145
0.284744 0.171803 0.008858 130 138 135
-0.031986 -0.122635 0.006471 18 65 94
0.267243 -0.196911 0.005494 140 143 142
-0.129029 -0.110736 -0.003152 114 127 124
0.256075 -0.002660 0.010610 126 133 127
0.286268 -0.129600 0.013146 55 54 58
-0.046134 -0.057016 0.032165 47 103 133
0.272729 0.097130 0.011238 125 131 129
0.004573 0.253853 0.004117 116 128 118
-0.505962 -0.016485 0.427343 81 82 78
-0.152859 0.005778 -0.004827 95 113 107
-0.021073 -0.006593 0.002349 42 55 54
0.349596 -0.079335 0.013140 137 140 139
-0.377082 0.041163 0.396401 56 58 64
0.115791 -0.073178 0.004306 91 103 95
0.284649 -0.168094 0.009520 55 53 60
-0.299087 -0.095514 0.372721 43 56 53
0.191161 0.228742 0.009276 71 77 79
-0.096945 0.195096 0.021049 138 132 108
-0.276053 -0.038712 0.408711 129 168 175
0.103713 0.398031 0.005911 130 139 132
-0.037788 0.061836 0.009408 98 119 108
-0.254732 -0.122732 -0.000515 93 108 107
0.397561 0.369734 0.010722 145 146 140
-0.146821 -0.147220 0.003585 118 133 132
0.012960 -0.136091 0.009332 60 113 144
0.192914 0.351949 -0.000624 121 132 128
0.236356 -0.113651 0.014602 131 137 135
0.241018 -0.172551 0.006086 133 139 137
0.091391 -0.169604 0.008312 77 87 92
0.014375 0.046968 0.010732 95 111 102
-0.295742 -0.055177 0.398225 139 149 152
0.106684 0.322613 0.002894 124 132 129
-0.029706 -0.193341 0.005626 116 133 138
0.369131 -0.089807 0.022115 139 138 140
0.129747 -0.011920 0.002362 103 112 103
-0.085077 0.229839 0.032077 145 138 109
0.361311 0.373092 0.005639 144 145 141
-0.505865 -0.005125 0.443669 175 172 167
0.004124 -0.175580 0.018260 84 126 145
-0.351736 0.009538 0.380261 46 52 52
0.144630 0.296884 0.000927 124 132 129
-0.141905 0.193461 0.000128 78 72 46
-0.317837 -0.198731 -0.000344 139 145 143
0.060437 0.234914 0.004765 116 124 121
0.147456 0.197963 0.009034 48 59 57
0.237710 -0.001950 0.003747 124 132 129
0.091821 0.021070 0.009917 92 105 100
0.062589 -0.100359 0.051790 99 111 113
0.171171 -0.004703 0.004806 112 120 117
0.096605 -0.124077 0.012014 97 110 107
-0.117140 0.234724 0.048800 141 134 105
0.265069 0.243617 0.020711 133 139 137
-0.305161 0.299630 -0.004087 135 146 142
-0.058576 -0.053713 0.033315 58 107 135
0.163923 0.219471 0.008525 123 131 128
0.269044 0.003996 0.014112 129 133 128
0.275495 0.055839 0.013068 99 107 104
0.074046 0.172226 0.004696 111 122 118
-0.203350 -0.093156 0.202450 90 98 95
-0.221534 -0.119638 -0.004662 63 66 67
0.124998 0.204305 0.013494 116 129 124
-0.468052 0.001741 0.418250 169 170 164
-0.145130 -0.103548 -0.002515 108 123 122
-0.474208 -0.017610 0.399117 99 69 79
0.363818 0.003207 0.012284 142 143 139
-0.141997 0.135876 0.014146 118 121 98
0.132440 -0.125352 0.010330 109 117 114
0.167930 0.009608 0.009160 114 122 119
0.090168 0.359173 0.005055 61 72 70
-0.323832 -0.089978 0.000442 117 130 125
0.195600 -0.170660 0.005551 124 131 125
-0.269207 -0.067019 0.416712 123 171 179
0.387312 -0.075981 0.020291 146 146 140
0.370274 -0.176706 0.015904 144 144 138
-0.154120 0.231408 0.028448 125 115 85
-0.228354 -0.122342 -0.001719 76 90 94
0.043464 0.386849 0.002138 121 134 129
0.325672 0.221270 0.012196 134 141 133
0.377432 0.380667 0.006357 142 143 137
0.019249 0.253564 0.001129 111 124 119
-0.147828 0.149861 0.012750 86 80 56
-0.426467 -0.005679 0.412781 133 136 135
-0.227224 -0.039531 0.413161 124 165 169
-0.312401 0.032201 -0.001911 114 130 121
-0.089185 0.237697 0.037813 143 137 111
0.269961 0.036631 0.009471 121 129 126
0.292244 -0.097780 0.011594 133 137 130
-0.181294 0.304411 0.001999 130 139 130
-0.045907 0.057617 0.013811 17 35 33
-0.452144 -0.002689 0.410062 84 86 92
-0.148303 0.285213 0.019470 132 142 128
0.112513 0.218972 0.012208 123 131 128
0.084109 0.140419 0.001237 39 51 53
-0.305867 -0.090158 0.378313 61 76 73
-0.284622 -0.175534 0.003766 130 141 139
-0.102088 0.360535 0.003008 107 118 116
-0.008796 0.104282 0.005795 101 115 106
-0.281444 -0.091313 0.386261 58 69 67
-0.285392 -0.046065 0.000013 105 120 117
0.019492 0.111722 0.000209 36 46 51
0.306626 -0.104381 0.008969 133 137 132
-0.128026 0.204210 0.005565 110 104 80
-0.341871 -0.043019 0.381481 83 94 90
0.287885 0.081663 0.016648 129 135 133
-0.230196 -0.084821 0.243012 31 46 41
-0.069614 0.175058 0.016987 95 97 84
-0.036341 0.198168 0.005609 91 103 93
0.388806 -0.130294 0.016018 109 109 103
-0.477272 0.020733 0.434528 117 117 117
-0.234107 0.241473 0.015192 86 99 94
-0.194229 -0.150359 -0.004871 119 130 126
-0.145041 -0.151993 0.001419 119 134 133
-0.353932 0.069256 0.382614 149 177 181
0.186965 0.169665 0.007023 127 135 132
-0.312186 0.010213 0.372979 66 78 70
-0.200232 -0.083917 0.211262 9 15 15
0.108827 0.062552 0.018724 83 96 91
0.105395 0.089884 0.010375 103 117 108
0.271293 0.091847 0.013148 126 132 130
-0.021550 0.164999 0.003870 94 106 96
0.042682 0.324114 -0.003919 125 133 130
-0.331702 0.045138 0.383113 87 93 91
-0.271714 -0.107123 -0.003709 117 130 125
-0.247422 -0.089764 0.320729 39 52 47
0.296199 -0.008740 0.011236 90 98 97
0.334656 0.098389 0.018168 135 136 130
0.209090 0.059729 0.012810 123 127 122
-0.375751 -0.082227 0.369897 124 160 168
0.384754 -0.017919 0.015240 144 144 140
-0.285259 -0.090001 -0.004988 115 128 123
-0.295360 -0.176306 -0.000239 68 79 75
0.178330 -0.174922 0.008546 131 138 132
0.182218 -0.102717 0.014694 55 58 59
-0.370163 -0.044715 0.376499 89 102 101
0.215817 0.214857 0.016822 130 133 132
0.195492 -0.105327 0.017203 126 132 130
-0.323571 -0.002722 0.380948 83 91 88
-0.203272 0.357329 -0.004948 59 73 75
-0.166496 -0.110041 0.000418 119 134 133
0.322161 0.252612 0.018953 138 142 137
-0.034052 0.246730 -0.000403 100 109 100
0.262453 0.389898 0.012589 132 138 136
-0.479664 -0.008689 0.435102 148 148 144
0.128171 0.091113 0.003933 107 118 114
0.357110 0.017466 0.012092 137 141 136
0.151553 -0.030459 0.004342 97 110 105
0.184613 -0.073957 0.012709 119 127 124
-0.290044 -0.176581 0.000902 129 140 136
0.277608 -0.083398 0.013419 128 136 133
0.153661 0.040904 0.012250 107 116 109
0.092139 0.309443 -0.003690 126 132 132
0.289457 0.149397 0.008505 120 128 125
0.076683 -0.144510 0.014019 92 107 106
-0.008983 -0.125998 0.005622 19 66 95
-0.249295 -0.167299 -0.001231 123 134 130
-0.375786 -0.076619 0.372506 130 169 178
0.043703 0.195045 0.004442 106 122 113
0.221886 0.326587 -0.000494 130 138 139
0.227079 0.191990 0.016459 126 137 133
-0.256584 -0.081329 0.415961 123 171 179
-0.044748 0.369614 0.002401 131 140 133
-0.197845 -0.043827 0.060061 109 120 116
-0.475140 0.012948 0.433178 136 139 138
0.127198 0.238133 0.008344 124 132 129
-0.491251 -0.010683 0.431605 110 116 116
0.132023 0.281850 0.004570 126 134 131
-0.310658 -0.046274 0.387559 76 87 85
-0.055841 0.028849 0.008937 94 117 109
0.032196 -0.190640 0.008813 106 123 124
0.186003 0.354616 0.002609 75 81 81
0.084053 0.149328 0.005383 37 47 54
-0.189056 0.286433 0.009940 130 142 134
-0.048017 -0.103285 0.014980 32 85 116
0.084707 -0.088513 0.016061 19 30 30
0.339850 0.205758 0.010934 136 137 133
-0.330715 -0.091279 0.369293 64 77 72
0.103662 -0.001628 0.006340 95 106 102
-0.347322 -0.046759 0.382880 91 102 98
0.134709 0.173896 0.010674 116 124 121
0.291461 0.053131 0.010098 130 134 129
-0.204456 -0.064178 0.331773 68 86 84
0.339144 0.170635 0.007802 134 138 133
0.092963 0.335191 0.002805 126 137 133
0.245608 0.333346 0.001185 134 140 138
-0.173585 0.346430 -0.003579 128 142 133
0.299906 -0.063292 0.021267 133 137 132
0.229543 0.026833 0.012478 119 131 123
-0.301055 0.303349 -0.002228 129 141 133
0.105181 0.328206 0.002141 122 133 129
-0.498723 0.006251 0.435946 132 132 132
-0.191207 0.058965 -0.004434 103 118 104
-0.121175 0.028401 0.004486 85 104 94
-0.195054 -0.063372 0.077533 36 47 47
0.385129 0.239875 0.024917 139 139 135
-0.321191 0.036766 0.379543 92 98 96
0.136678 0.019072 0.010385 102 114 106
0.274231 0.012273 0.013713 133 139 137
-0.216063 -0.123466 -0.004066 114 127 124
-0.037599 -0.000672 0.002383 105 123 117
0.116066 -0.132211 0.008833 96 108 100
-0.034384 0.358101 0.000674 125 137 129
0.322292 0.242503 0.019769 138 142 137
-0.278202 -0.101217 0.370716 50 62 54
-0.176609 0.278737 0.017780 128 142 133
0.299923 0.125449 0.007614 132 139 133
-0.268665 -0.161936 -0.001545 80 93 90
-0.099624 0.084319 0.001395 102 116 105
0.057862 -0.024083 0.002183 86 101 98
-0.224398 -0.086996 0.348116 54 69 64
-0.245952 -0.197665 0.002392 129 140 136
-0.461716 0.025015 0.427075 122 121 128
0.114553 -0.178745 0.002572 110 123 118
-0.167160 0.333848 -0.003719 96 104 101
0.207512 -0.030122 0.004035 124 132 129
0.213291 0.275519 0.000844 87 93 93
0.291962 -0.037839 0.009696 134 138 131
-0.193223 0.066740 -0.003084 100 117 103
-0.426609 -0.020140 0.401630 30 33 34
0.008822 0.328858 -0.000558 123 131 128
0.221692 -0.042640 0.000857 127 135 132
-0.175372 0.320848 -0.003406 129 143 134
0.335122 -0.021012 0.002322 131 137 135
0.177561 -0.049816 0.009383 54 60 60
0.377966 0.117174 0.016125 137 140 141
-0.144181 0.360759 -0.001510 135 144 137
-0.267388 -0.175650 0.004249 125 136 132
0.271337 0.290376 0.001846 133 140 134
0.341698 0.231234 0.022852 131 134 133
-0.322994 0.362701 -0.000661 136 143 137
0.311030 0.197635 0.008461 103 107 102
-0.033223 0.089867 0.012668 106 121 116
0.388929 -0.156159 0.011705 146 146 142
-0.156894 0.368453 -0.001634 137 146 139
-0.088311 -0.193396 0.005981 116 130 132
0.187796 -0.136448 0.011303 129 135 133
0.254632 0.315068 -0.001525 108 114 116
0.101422 -0.124681 0.014090 100 113 110
-0.364838 0.005515 0.376876 33 38 43
-0.212243 0.387349 -0.000080 134 141 133
0.084869 -0.165908 0.007623 96 107 107
-0.303874 -0.038034 0.388296 62 77 74
0.042410 0.317230 -0.004925 122 135 132
0.012507 -0.196309 0.011078 115 130 129
-0.222708 0.267715 0.018937 130 142 134
-0.480734 0.016745 0.435874 123 123 123
0.259290 -0.183823 0.009132 139 140 134
-0.047590 -0.166402 0.023128 65 112 139
0.070310 0.385437 0.007835 75 83 82
-0.095048 0.230592 0.034323 144 137 108
-0.159928 -0.041872 0.000357 76 84 85
-0.205200 -0.127877 -0.001367 114 129 124
-0.281708 -0.083509 -0.001855 106 119 116
-0.205401 -0.191023 -0.004287 124 135 133
-0.208390 -0.199032 0.000719 126 137 133
-0.063251 0.018730 0.003996 102 121 111
0.238936 0.232825 0.014873 131 138 132
0.245606 0.133718 -0.004575 123 134 130
0.163648 0.288966 0.005558 127 135 132
0.398677 0.184653 0.016184 138 141 140
0.181476 0.295480 0.003628 132 140 137
0.365114 0.200904 0.011668 134 140 138
0.234384 -0.147417 0.005442 134 137 136
0.273520 0.220772 0.015856 128 134 136
-0.395851 0.004872 0.393266 142 153 149
-0.279452 -0.175569 0.003911 129 140 138
0.296267 0.087698 0.017512 129 132 131
-0.346577 0.066156 0.384710 144 170 172
-0.056130 0.018791 0.008660 104 122 116
0.121105 0.062477 0.014658 102 116 105
-0.240790 0.188982 0.005996 127 141 130
-0.287752 0.322311 -0.004020 140 147 141
0.148861 0.090081 0.006304 83 94 90
0.287199 0.068677 0.012788 101 107 105
0.161835 -0.076736 0.015120 124 132 129
-0.161351 0.143787 0.019432 96 88 62
0.168749 0.198598 0.004475 123 131 128
0.106759 0.022664 0.011125 95 104 95
-0.463710 0.019994 0.425779 63 59 64
0.175360 -0.179013 0.010963 131 137 137
-0.118535 0.146322 0.007601 121 121 97
-0.280678 -0.017850 0.007778 110 122 114
-0.382575 0.034760 0.396559 138 144 142
0.046702 0.164415 -0.001999 104 118 109
-0.312985 -0.039200 0.385262 67 78 74
-0.021349 -0.195407 0.007132 114 128 132
-0.066921 0.101106 0.006919 103 116 103
-0.464379 -0.012085 0.401996 90 95 100
0.377002 0.276344 0.020676 134 137 138
-0.040078 -0.016719 0.002560 111 129 123
0.127625 -0.036987 0.000557 104 117 112
-0.198990 -0.084711 0.205413 12 18 18
-0.279373 0.295507 0.005832 132 144 136
-0.243804 0.216902 0.005658 122 134 126
-0.011881 0.243641 0.001057 110 122 114
-0.237262 -0.033472 0.412359 119 165 171
0.363014 -0.082985 0.018480 143 144 140
-0.006324 -0.017307 0.014373 96 109 104
0.153455 0.196112 0.008359 118 129 125
-0.241631 -0.089566 0.326519 45 61 52
0.303694 -0.144969 0.016465 134 138 133
0.260222 -0.118061 0.011085 134 138 131
0.228902 0.020939 0.011921 122 129 123
-0.206868 -0.076563 0.256411 17 28 26
-0.027709 -0.071583 0.020440 29 87 119
0.105916 0.009250 0.009268 95 106 102
-0.304003 -0.023293 0.380809 76 87 85
-0.010820 -0.010964 0.008358 50 64 68
0.031402 -0.140344 0.024479 74 127 158
-0.328052 0.335032 -0.004871 140 144 137
-0.078174 0.399279 0.004135 133 142 135
-0.484120 -0.010732 0.431805 121 121 121
-0.253885 -0.045757 0.418260 123 171 179
-0.392796 0.044201 0.396222 135 138 137
-0.438977 -0.008902 0.406476 90 96 94
0.116522 -0.090087 0.009699 53 66 65
0.341528 0.159636 0.007170 133 137 132
-0.411971 -0.023668 0.396030 163 130 133
-0.001858 0.170233 0.006920 89 103 94
-0.101000 0.132874 0.004094 91 101 85
0.183518 0.177887 0.008536 124 133 126
-0.187225 0.191101 0.018583 116 106 74
0.391602 0.317815 0.018368 143 143 143
-0.208030 0.393101 0.002729 121 132 128
0.297813 0.074645 0.018105 129 136 128
0.241592 -0.078259 0.014689 127 133 131
-0.435413 0.011151 0.415923 118 126 127
0.346576 -0.169010 0.013231 59 57 64
0.203400 0.059768 0.012650 117 125 122
-0.242310 -0.104178 0.010717 114 127 122
0.259261 -0.179102 0.011329 139 140 134
0.321050 0.197567 0.008742 136 140 133
0.063335 0.188458 0.004194 63 76 73
0.113972 0.194555 0.014128 51 62 60
0.328526 0.067522 0.020160 93 96 95
-0.169405 -0.163937 -0.000487 117 130 127
0.264904 0.012336 0.013452 128 135 129
-0.099162 0.165641 0.017199 116 113 83
0.179244 -0.097238 0.014945 125 138 133
-0.019496 -0.060415 0.031412 38 102 134
-0.228787 -0.097014 0.005645 109 122 119
-0.145031 -0.153581 0.000680 121 134 131
-0.108524 0.194214 0.014761 125 123 100
0.203910 -0.067860 0.011735 124 132 129
-0.450458 -0.006031 0.406352 90 90 90
-0.013174 0.131463 0.003967 37 49 41
-0.157514 -0.122253 -0.001677 43 60 63
-0.084105 0.301172 0.001313 116 128 118
-0.441063 -0.007220 0.408298 101 104 105
-0.486298 0.018351 0.437552 115 118 119
-0.247434 0.363429 -0.000174 142 146 141
-0.068776 -0.033259 0.009414 105 123 119
-0.199456 -0.053899 0.305816 71 86 83
-0.037286 0.267118 -0.002047 100 112 102
0.173886 0.351025 0.007181 118 129 129
0.384990 0.398045 0.011372 142 146 141
-0.390927 -0.080259 0.360408 131 159 165
-0.163441 0.394712 0.001558 141 149 146
0.053035 -0.159061 0.021957 38 50 52
-0.223429 -0.085502 0.237388 14 22 21
0.370992 0.106958 0.018876 55 58 61
-0.314541 -0.024188 0.384478 77 88 86
-0.300482 -0.029369 0.383608 67 78 76
-0.036423 0.045604 0.008515 108 124 115
-0.193378 0.209823 0.021590 125 118 87
0.067719 -0.049761 0.008193 43 58 57
-0.152686 0.372263 0.000271 136 143 137
0.087755 0.048178 0.013583 98 110 102
0.315517 0.036396 0.015195 127 136 129
-0.210019 -0.067306 0.365455 74 94 91
0.067241 0.201082 0.010193 112 123 121
-0.417462 0.032471 0.405442 119 124 129
-0.362608 0.025360 0.390598 86 92 90
-0.471918 -0.008811 0.418734 101 105 100
-0.436135 0.024196 0.416456 110 116 118
0.304523 0.351895 0.005036 130 138 135
0.306750 -0.110445 0.010564 133 137 132
0.001997 -0.021242 0.019422 87 102 101
-0.040315 0.196388 0.004656 90 102 92
-0.116366 -0.057488 0.006583 97 117 112
-0.339257 0.060681 0.385700 82 94 98
-0.194582 -0.052382 0.048455 109 120 120
0.115082 -0.017769 0.006906 100 111 109
-0.209617 0.154606 0.022965 118 128 116
-0.247759 -0.087307 0.293172 47 61 63
-0.373537 -0.087397 0.366455 117 153 163
-0.099467 -0.107346 0.015900 109 124 123
-0.240523 -0.042577 0.422364 118 168 176
-0.020710 0.011796 0.006507 111 126 121
-0.100978 -0.147275 -0.002736 124 141 142
-0.333095 -0.089293 -0.001735 131 142 142
0.126524 0.234673 0.010023 124 132 129
0.298525 0.300459 0.012904 136 143 137
0.213365 0.006689 0.007010 53 64 62
-0.177855 0.351495 -0.003561 128 141 136
-0.159379 0.136778 0.016231 116 120 99
-0.357738 0.259997 -0.004313 145 102 106
0.238989 0.138187 -0.000493 130 138 135
0.173481 0.332637 0.000815 131 137 135
0.285862 0.201691 0.012876 134 138 133
0.258745 0.083632 0.012243 125 132 126
0.072694 -0.133954 0.021016 83 98 93
-0.011870 0.241798 0.000199 109 121 113
-0.031678 0.014343 0.005144 106 124 120
-0.097811 0.068682 -0.001414 91 111 96
-0.113043 -0.084290 0.007451 100 113 112
-0.501371 0.010234 0.434407 136 139 138
-0.046792 0.287787 -0.003756 118 130 122
0.322478 0.346111 0.006213 130 138 135
0.198944 -0.084141 0.015036 127 134 128
-0.097525 -0.136115 0.002567 116 133 134
-0.490911 0.018719 0.440890 116 116 118
0.248279 -0.042276 0.010683 114 126 118
-0.213206 -0.075935 0.268644 25 33 32
0.194755 0.205692 0.008589 130 138 137
-0.281640 0.298548 0.004970 131 143 135
-0.497033 -0.024556 0.413932 74 53 62
0.001862 0.163847 0.006270 91 103 95
-0.016958 0.058264 0.008394 100 114 105
-0.337689 -0.079971 0.382064 84 95 93
-0.074350 0.365975 -0.000216 132 144 136
-0.091898 -0.069531 0.019395 97 115 111
-0.061089 -0.197363 0.008293 122 137 136
0.393804 0.181863 0.016940 138 139 135
0.096137 0.191076 0.011953 115 128 123
-0.371251 -0.057093 0.380634 138 174 182
-0.213739 -0.057664 0.406243 122 163 167
0.064693 -0.011480 0.000539 90 101 97
0.028498 0.170738 0.002584 102 118 109
0.276383 0.384042 0.013607 131 135 128
-0.299736 0.397566 -0.001360 138 141 140
-0.394136 -0.067946 0.363834 140 170 173
-0.125007 -0.000841 0.001788 93 108 103
-0.276082 -0.085804 -0.000542 109 122 117
-0.303325 -0.074033 0.387003 44 56 58
-0.197558 0.138649 0.028051 64 73 66
0.005435 0.156987 0.006498 91 103 95
-0.181247 0.034637 -0.001104 92 108 99
0.243478 0.337181 0.002904 133 140 134
0.013091 0.143500 0.002665 101 115 106
0.178797 0.051333 0.007957 86 94 93
0.243099 0.168485 0.006016 126 132 130
-0.086149 0.015725 0.010711 91 109 103
0.193043 0.074514 0.008158 118 129 125
-0.122191 -0.144468 0.000116 112 130 128
0.207288 0.232295 0.011433 126 135 128
-0.198913 -0.028620 0.040623 111 122 118
-0.272517 -0.082576 0.001072 39 50 50
-0.313475 -0.053869 0.388349 83 91 88
0.395345 0.129371 0.022345 138 142 137
-0.500506 -0.010202 0.434852 120 123 124
-0.070675 -0.128088 0.024797 39 92 125
0.037544 -0.153537 0.033977 79 132 165
0.320690 0.133209 -0.002472 130 138 135
0.312860 0.028778 0.013773 74 73 77
0.165459 -0.195339 0.014088 130 133 132
0.176816 0.122737 0.002515 118 127 120
0.222939 0.301134 -0.000172 131 132 128
-0.029871 -0.103802 0.010891 21 66 95
-0.232972 -0.087126 0.078535 104 119 114
-0.467343 0.023719 0.430710 114 117 116
-0.133590 0.379109 -0.001465 119 125 125
0.219762 0.193075 0.014529 126 137 133
0.065368 -0.066691 0.023411 84 102 100
0.204314 -0.097339 0.021197 123 131 128
-0.166668 -0.089421 0.005598 117 127 130
-0.158429 0.283338 0.014971 127 129 113
0.332457 0.163144 0.000796 135 141 139
-0.230258 -0.058707 0.421795 116 166 176
0.003543 -0.103026 0.014500 38 89 121
-0.419946 -0.019096 0.400117 30 36 38
-0.342445 0.052930 0.385302 92 98 96
-0.137961 -0.023483 -0.001432 51 62 60
-0.008245 -0.091744 0.013868 19 72 101
0.252388 -0.056940 0.008398 121 135 126
0.203781 0.050781 0.013996 119 127 124
-0.040229 0.052458 0.011587 99 120 109
0.087881 0.165338 0.012955 110 121 117
0.196814 -0.180253 0.008847 137 141 134
0.089939 -0.048136 -0.001394 100 106 108
0.228965 0.035274 0.011976 124 130 128
-0.276324 0.399339 0.000194 139 146 140
0.013668 -0.123516 0.009691 49 102 133
-0.218042 -0.106781 0.148198 29 39 44
-0.097625 -0.162924 -0.004399 80 92 94
-0.060119 0.130832 0.004418 94 106 96
-0.245481 -0.089623 0.314234 95 113 107
0.293093 0.303277 0.005219 138 145 139
0.328406 0.376023 0.014806 140 141 135
0.120909 0.124311 0.007023 109 121 113
0.169641 0.176181 0.007309 123 131 128
-0.293311 -0.098007 0.369533 25 28 31
0.023136 -0.199043 0.007929 121 136 135
-0.311820 0.047336 0.371514 78 92 96
0.282429 0.034020 0.010851 125 133 130
-0.248413 0.231586 0.004626 61 72 68
-0.205940 -0.070484 0.276926 25 35 42
0.020042 0.043516 0.009302 67 85 79
0.222126 0.280339 0.001157 128 141 138
-0.097937 0.355455 0.002980 135 147 139
0.066751 -0.056407 0.010586 84 104 101
0.251364 0.320665 -0.002332 123 125 131
0.108327 0.143478 0.000105 106 120 111
0.200035 0.363362 0.001601 129 140 136
-0.306027 -0.064674 0.390172 78 91 90
0.047009 0.115985 0.000844 102 115 110
0.079651 -0.128577 0.014908 82 90 91
-0.379023 0.014479 0.390539 62 68 70
0.049749 0.000422 0.005615 91 107 98
-0.269921 -0.108752 -0.004412 117 130 125
-0.135730 0.373397 -0.000880 70 78 77
0.236796 -0.134075 0.009521 123 135 127
0.011578 -0.066450 0.048331 46 106 137
0.189053 -0.132149 0.008930 122 128 126
0.197782 0.008339 0.002878 119 127 124
0.289673 0.357753 0.007300 139 140 136
-0.031713 -0.056422 0.030684 44 102 134
0.358381 0.106213 0.015929 136 139 138
-0.260783 -0.067579 0.417817 123 171 179
-0.343787 -0.053286 0.384366 89 100 96
0.283878 0.047649 0.012827 132 133 129
0.214704 0.220098 0.015917 131 136 141
-0.016369 -0.189442 0.011168 109 126 129
0.217816 0.214844 0.016878 130 133 132
-0.319869 0.034385 0.378476 93 99 97
-0.028504 0.054066 0.008287 103 121 115
0.113431 0.385113 0.005717 122 133 129
-0.089173 0.190438 0.021330 139 133 107
0.340997 0.218272 0.013485 136 140 135
-0.507113 -0.010737 0.435500 116 115 115
0.241968 -0.084432 0.016241 127 133 131
0.307759 0.336636 0.001343 140 141 137
0.294494 0.376253 0.013856 144 144 140
-0.403286 -0.067818 0.358091 154 160 158
0.134882 0.101625 0.004622 108 120 112
-0.229493 -0.104510 0.222833 18 28 31
-0.341660 -0.034164 0.381196 83 94 92
0.214126 -0.172857 0.007312 127 134 126
-0.132198 0.217816 0.017286 116 108 84
-0.236659 -0.077206 0.418501 112 163 175
0.330975 -0.001067 0.002650 134 138 133
-0.373198 0.035320 0.393802 103 109 109
0.300549 -0.043330 0.014028 136 136 136
-0.298746 -0.103107 -0.004889 57 68 66
0.012438 0.361549 0.000428 124 136 128
0.331678 -0.098452 0.008096 138 139 133
0.298421 -0.198693 0.005636 140 141 137
-0.039771 0.260629 0.000372 93 104 102
0.245358 0.045362 0.012769 98 106 107
0.301238 -0.102719 0.009575 133 137 132
-0.020986 -0.066170 0.026480 36 99 129
0.027461 -0.147408 0.024378 74 127 158
0.371247 0.008232 0.014855 135 139 132
-0.460769 0.001825 0.411895 53 53 53
-0.515540 0.013977 0.446743 133 137 132
0.193972 -0.032418 0.004752 120 133 130
0.078127 0.154713 0.007705 104 119 114
0.312903 0.021962 0.010601 129 135 135
0.013712 0.064492 0.008939 96 110 99
-0.165239 0.146543 0.018388 96 89 60
0.195824 0.058099 0.011637 117 128 124
-0.011143 -0.063446 0.034676 39 103 135
-0.249271 -0.039834 0.420058 126 171 180
0.360974 0.007385 0.011934 140 141 137
-0.251236 -0.116341 0.002569 117 130 125
-0.494368 -0.006932 0.434358 147 144 139
-0.215046 -0.110813 0.219245 19 27 28
-0.313420 -0.088543 0.377726 67 80 77
-0.192927 0.050407 -0.004058 103 117 108
0.008582 -0.145633 0.011374 60 113 146
-0.153201 0.062601 0.014996 95 114 104
-0.506522 0.030748 0.446004 160 157 154
-0.170117 0.060164 0.011127 107 120 115
-0.201494 0.144860 0.028613 90 100 88
0.335566 0.250453 0.026090 135 138 141
0.057616 0.204001 0.009045 110 121 117
0.367957 0.314098 0.012590 142 143 139
0.100248 0.175684 0.014847 113 127 118
0.083174 -0.130194 0.014265 27 38 38
-0.455104 0.010636 0.418380 80 75 83
-0.097539 -0.151013 -0.002162 119 133 135
0.373692 -0.029338 0.013993 146 147 143
0.262562 0.372515 0.004500 133 142 135
-0.101995 -0.056623 0.009640 99 117 113
0.079833 0.132376 -0.000434 106 120 111
-0.207985 0.124772 -0.003012 113 121 110
-0.549708 0.045775 0.005841 100 107 101
-0.343768 0.055313 0.386371 96 104 101
0.287938 0.292148 0.003188 134 140 138
-0.130438 0.073219 0.006303 56 69 66
0.177883 0.003539 0.004438 113 121 118
-0.264811 -0.062819 0.416597 125 170 179
-0.010667 0.370628 0.001728 125 137 129
-0.259778 -0.062795 0.418972 125 173 181
0.395418 0.043554 0.023225 140 141 137
0.039983 0.127208 0.000333 99 114 109
0.155376 0.290895 0.006198 124 132 131
0.210831 0.126709 -0.004508 124 133 126
-0.004349 -0.064174 0.036756 39 101 134
0.153806 -0.144742 0.008590 47 55 56
-0.316327 -0.094964 0.365818 53 65 57
0.102738 0.288490 -0.002079 121 129 126
-0.387715 0.018561 0.397686 135 143 140
0.227159 0.283887 -0.000345 133 141 138
0.006924 0.227834 0.007526 87 93 91
0.358370 0.107965 0.016744 64 67 68
0.292910 -0.072736 0.021066 135 136 132
-0.055170 0.151729 -0.001148 91 103 93
0.275027 -0.155877 0.017115 137 141 136
0.303351 -0.002220 0.010081 130 133 132
-0.101442 -0.169386 0.000198 114 128 130
-0.389705 -0.075728 0.362556 130 164 170
0.381768 0.129463 0.021964 139 139 139
0.390715 0.047835 0.022864 140 140 140
0.049759 0.062528 0.009148 25 43 37
-0.330773 0.382407 -0.002764 149 152 153
0.382601 -0.146819 0.010339 137 140 139
-0.258645 -0.048976 0.416613 125 170 179
0.214784 0.227504 0.011643 60 72 76
0.116133 0.270534 0.006531 103 111 112
-0.024273 -0.030215 0.022150 85 119 129
-0.348216 -0.084057 0.376523 82 95 92
-0.036319 0.194554 0.003927 90 104 93
-0.222151 -0.108863 0.222139 86 97 95
0.104446 -0.089380 0.007445 47 66 66
-0.499072 0.023410 0.446130 139 139 135
-0.366070 -0.065167 0.382554 130 162 173
