ply
format ascii 1.0
element vertex 1216
property float x
property float y
property float z
property uchar red
property uchar green
property uchar blue
end_header
0.311447 0.025160 0.035651 131 135 130
-0.506276 -0.077211 0.000040 77 84 78
-0.266137 0.289912 -0.010838 107 119 111
0.177171 -0.189386 0.046978 98 109 107
-0.289875 -0.186045 0.026063 131 140 133
-0.239030 -0.071904 0.420977 119 167 175
0.378470 0.369337 0.021041 136 137 133
-0.025351 0.323239 0.003079 128 140 132
-0.063434 -0.234478 0.042672 123 134 132
0.350778 -0.035165 0.038854 142 143 139
-0.208899 0.137535 0.029864 105 98 65
0.060426 -0.044609 0.030459 101 113 105
-0.188208 0.157401 0.033807 107 97 67
0.129909 -0.081030 0.032896 111 122 120
0.028338 0.121082 0.023923 102 114 104
0.071101 -0.087959 0.031020 114 128 119
-0.337159 -0.135163 0.017207 133 145 137
0.022865 -0.218556 0.043976 102 119 120
0.307517 0.075457 0.033752 131 132 126
-0.248681 -0.232086 0.031600 134 142 139
0.037088 0.240619 0.013988 113 126 121
-0.312106 -0.289949 0.027191 140 144 137
-0.520433 -0.078858 -0.000746 82 89 83
-0.216408 -0.082091 0.108396 24 32 29
0.008949 0.179111 0.019094 93 111 107
0.057264 0.146134 0.022666 106 120 109
-0.122869 -0.115865 0.031525 113 128 123
-0.216726 0.299665 -0.009680 128 142 133
0.006364 -0.281659 0.049792 112 123 121
-0.081427 0.157781 0.011640 84 97 84
-0.218727 -0.077335 0.202971 52 67 62
0.146977 0.152220 0.025114 116 125 116
0.396523 0.342693 0.022545 110 110 106
0.149669 0.239549 0.017617 124 132 129
0.211115 -0.254287 0.052122 87 81 85
-0.195295 -0.260234 0.035943 55 63 64
-0.216183 0.141067 0.038926 114 107 76
-0.236152 0.260077 -0.009645 63 76 71
-0.347255 -0.065749 0.368403 90 99 92
-0.246159 0.307974 -0.011385 130 142 132
-0.332663 -0.255186 0.026509 145 149 142
-0.227864 0.148649 0.070289 127 117 89
0.006897 0.083741 0.025458 100 116 107
-0.443859 -0.021950 0.021188 114 126 118
-0.008577 0.179752 0.017721 107 120 115
-0.172639 0.121643 0.019781 73 67 41
0.351359 0.049738 0.035953 139 140 136
-0.094920 0.389108 -0.006826 128 137 128
-0.329773 -0.161806 0.018282 128 137 130
0.033750 0.195905 0.018155 108 120 112
-0.521856 0.066129 0.314782 119 120 116
0.274848 -0.266894 0.051044 138 139 128
-0.131286 0.189198 0.066282 135 133 110
0.213018 -0.186074 0.047237 106 120 109
-0.425793 0.078345 0.332946 113 121 118
-0.325251 0.028813 0.346874 39 52 49
0.382743 0.102885 0.035164 143 144 140
-0.111196 -0.004285 0.029434 87 101 90
0.377334 0.286138 0.024239 137 141 134
-0.308667 -0.032535 0.364102 39 51 55
-0.522640 0.064550 0.043835 140 144 139
-0.493895 0.086371 0.332339 112 120 121
0.311158 0.236332 0.025420 132 139 133
-0.206026 -0.061730 0.197241 8 16 13
0.323517 -0.180488 0.045281 136 140 133
0.071728 0.068627 0.027254 99 113 104
0.003357 -0.095804 0.031992 43 61 57
0.304214 0.175976 0.029287 131 142 140
0.054821 -0.115347 0.030927 107 125 123
-0.032280 -0.171931 0.038036 52 64 66
0.173561 0.042771 0.030884 92 100 97
-0.094425 -0.234057 0.040716 128 137 130
-0.376796 -0.064323 0.365304 132 168 176
0.399271 -0.146691 0.042207 143 144 138
0.134275 0.177877 0.023258 96 108 100
-0.079886 0.141546 0.012832 89 102 87
-0.187935 0.318803 -0.007841 82 95 92
0.215915 -0.281337 0.054365 131 132 128
-0.037656 -0.178781 0.038138 112 133 122
-0.219236 0.244218 -0.007196 122 135 122
-0.106437 -0.270734 0.041204 133 142 135
0.121556 0.354261 0.005311 65 76 74
-0.289083 -0.294955 0.029447 54 60 58
0.031904 -0.178298 0.076093 37 94 129
-0.363087 -0.023945 0.022235 113 126 121
-0.161603 -0.042535 0.027768 101 115 106
0.067039 0.125392 0.024595 103 117 108
-0.076355 0.280383 0.002962 118 132 123
-0.006483 0.079696 0.024929 100 116 105
-0.225536 -0.098153 0.387206 54 72 68
-0.043559 -0.041033 0.030045 116 134 128
0.138372 -0.296473 0.054212 108 119 115
-0.050177 -0.194336 0.039624 115 130 125
-0.042993 0.062570 0.025263 33 44 42
-0.118207 0.023760 0.028758 33 45 37
0.032820 -0.253247 0.048074 49 54 61
0.297704 -0.111201 0.042333 95 104 97
0.027142 -0.059702 0.029884 87 107 100
-0.245367 -0.200243 0.029149 130 139 132
-0.341941 -0.289090 0.021504 156 163 155
0.188027 0.395813 0.003636 72 80 77
0.288344 0.073452 0.033288 129 133 126
0.080547 0.299424 0.010375 116 125 116
0.226066 -0.034983 0.037063 124 133 126
0.301440 0.073299 0.033786 120 128 127
-0.519333 0.079183 0.327672 122 125 126
-0.090059 0.124457 0.015818 93 103 91
0.235274 0.248282 0.020351 132 139 133
-0.211780 0.351185 -0.010723 133 145 135
0.051253 -0.263019 0.049557 33 41 40
-0.211830 -0.067223 0.410875 119 165 169
0.329966 0.094729 0.033615 77 85 86
-0.332261 -0.299047 0.026416 151 155 148
-0.053664 -0.023417 0.029176 109 125 116
0.307265 0.094935 0.032878 128 129 123
-0.546825 -0.096747 -0.009012 76 83 75
-0.077295 0.166969 0.011359 24 36 28
0.029330 0.162403 0.021017 101 117 108
-0.075152 0.243607 0.003714 37 52 49
0.084751 -0.181256 0.034410 24 69 96
-0.056312 -0.141522 0.034523 123 136 131
-0.192541 -0.240850 0.034711 125 136 132
0.330649 -0.054491 0.039208 58 64 62
0.161881 -0.299612 0.054357 121 122 116
-0.334561 -0.273985 0.025170 151 152 146
0.098929 -0.169875 0.036910 42 93 127
0.187080 -0.231445 0.050348 97 108 106
0.035018 -0.193379 0.070528 39 92 125
-0.484393 -0.021025 0.023255 71 79 76
-0.059069 -0.075339 0.030959 114 129 124
-0.327947 -0.062152 0.367321 84 95 91
-0.197134 0.177220 0.066647 125 117 91
-0.004313 0.051873 0.026568 97 111 100
0.334739 -0.212981 0.047598 145 145 141
0.013533 0.188819 0.018164 103 117 106
-0.357733 -0.005725 0.020565 29 36 42
-0.541780 -0.112642 -0.017517 77 88 84
0.216422 0.357422 0.009779 63 69 67
-0.129267 0.009640 0.028965 90 106 95
-0.312062 -0.250241 0.025453 139 140 134
-0.426000 -0.028372 0.018096 127 135 132
0.182797 -0.278014 0.053468 117 124 118
0.063797 0.041264 0.028255 97 111 100
0.300793 -0.131182 0.043206 105 111 109
-0.264932 -0.052176 0.022038 13 28 25
-0.231194 0.235169 -0.008204 119 126 118
-0.003074 -0.187880 0.040735 109 122 121
0.302004 -0.232845 0.048489 132 133 127
-0.276163 0.009864 0.031207 104 120 111
-0.139905 0.288881 -0.003429 131 143 135
-0.462125 0.043673 0.306649 60 64 59
0.050098 0.252989 0.013553 74 82 81
-0.237486 0.242064 -0.007890 96 109 108
0.290581 -0.214672 0.047914 114 110 111
0.107856 0.323810 0.008267 121 130 123
-0.336776 -0.004932 0.365148 79 87 86
0.205152 0.279007 0.017241 127 135 132
-0.084761 0.107885 0.018556 96 108 98
-0.311805 -0.014065 0.355701 59 72 67
0.396580 0.051605 0.036984 137 138 134
0.082176 0.164506 0.022120 116 131 126
-0.056991 -0.013803 0.029410 123 138 133
-0.301919 -0.057821 0.021620 114 126 116
0.084702 -0.098383 0.029263 103 120 121
-0.202887 -0.071697 0.332131 116 127 125
-0.208813 0.154417 0.042378 119 109 77
0.045595 -0.241837 0.079944 41 92 122
0.279411 -0.211364 0.047959 139 139 133
-0.312064 0.065630 0.331535 54 64 71
0.298824 -0.098020 0.040929 61 56 64
0.341936 -0.279811 0.052404 143 143 139
0.048381 -0.144543 0.081287 45 101 131
-0.392175 0.005858 0.034487 131 144 139
-0.118922 0.091152 0.069670 118 118 87
0.115933 -0.029206 0.030977 108 120 112
0.335857 0.037283 0.036091 133 137 130
-0.130689 -0.296969 0.041090 138 146 143
0.319102 0.077420 0.034197 135 136 132
-0.545097 -0.077387 0.000254 78 81 80
0.240752 -0.173879 0.046081 130 135 125
0.039567 -0.250084 0.048099 101 113 115
0.376151 0.173145 0.031442 138 139 135
-0.092170 -0.137666 0.033196 113 128 125
-0.285328 -0.203172 0.027384 128 140 132
-0.086008 -0.286707 0.043733 131 131 131
-0.107678 -0.142898 0.032966 124 137 132
-0.064531 0.198147 0.008999 95 109 98
0.087305 -0.192890 0.033272 25 70 99
-0.067089 0.390926 -0.005225 122 136 125
0.189837 -0.135757 0.040114 92 99 103
-0.122706 -0.293911 0.040955 129 136 130
0.262896 -0.062109 0.038724 127 134 126
0.282702 0.318877 0.018348 137 138 134
0.331286 0.051978 0.035300 71 72 68
-0.138387 -0.040772 0.028387 66 79 76
0.229899 -0.168552 0.045344 116 120 115
0.016148 -0.240057 0.045977 107 120 119
-0.517371 -0.060656 0.006513 80 87 79
-0.162350 0.043563 0.029061 101 114 99
-0.253036 0.321685 -0.013097 117 129 121
-0.501888 0.058146 0.311972 67 67 69
0.093344 0.000386 0.030132 101 115 106
-0.283618 -0.100200 0.020963 115 129 120
-0.013070 0.241742 0.011373 100 112 104
0.048667 0.260644 0.012861 109 121 111
-0.239750 -0.088118 0.291785 31 38 42
-0.301810 -0.059680 0.021551 114 126 116
-0.123950 -0.015922 0.029064 63 77 68
-0.140195 -0.179568 0.034377 116 132 121
0.021039 -0.117991 0.033462 107 122 119
0.005135 -0.005820 0.029774 93 107 98
-0.175256 -0.085797 0.028131 105 121 112
0.309472 0.248943 0.024293 127 135 132
-0.158329 0.265719 -0.005766 123 135 125
-0.003563 -0.120114 0.034394 109 124 119
-0.067700 0.049856 0.025621 100 114 103
0.234192 -0.209798 0.048506 115 118 117
-0.265380 -0.075368 0.023934 80 96 87
-0.367841 0.033067 0.344538 82 91 84
0.374222 -0.298728 0.054279 143 143 143
-0.015634 0.271885 0.009390 118 132 123
0.328626 -0.099766 0.040896 126 125 129
0.362144 0.240761 0.026802 135 139 134
-0.102125 -0.212148 0.037536 126 133 141
-0.134732 0.009706 0.028743 86 105 93
0.045394 0.045128 0.028496 27 46 36
0.278789 -0.214689 0.048035 120 116 117
0.129094 0.272673 0.014426 124 133 126
-0.316894 0.062124 0.334076 85 92 86
0.259269 -0.182708 0.047340 139 141 130
0.372512 -0.197613 0.046022 141 141 135
-0.346747 0.085079 0.348399 83 93 96
0.300324 0.132306 0.031582 71 79 80
-0.152770 0.399777 -0.011402 116 124 121
0.096262 -0.227330 0.038413 33 77 109
0.243750 0.052619 0.032744 118 130 122
-0.342433 -0.063186 0.368997 87 98 94
-0.367763 -0.071890 0.002113 111 124 119
-0.116481 -0.164114 0.034209 118 132 123
-0.153608 0.133794 0.029639 95 91 66
-0.461841 -0.094964 -0.008203 77 88 84
-0.226737 -0.067089 0.027216 100 117 103
-0.107937 -0.158935 0.034239 125 140 135
0.232286 -0.052475 0.037922 125 132 124
0.031463 -0.186319 0.075212 39 95 127
0.019260 0.070794 0.026350 95 114 102
0.305066 -0.152667 0.044437 135 139 132
0.235433 -0.239586 0.050301 118 115 112
-0.497799 -0.063906 0.005192 77 86 79
-0.290187 0.307800 -0.015535 134 143 136
-0.131501 -0.110321 0.031004 112 127 122
-0.199566 0.152660 0.034205 113 103 71
-0.343626 -0.271680 0.020520 168 168 168
-0.178536 0.017235 0.029177 96 110 99
-0.306638 -0.048987 0.367272 27 37 40
-0.313806 -0.228925 0.024172 136 143 137
0.115077 0.394102 0.001019 83 94 90
0.142177 -0.255842 0.052680 40 52 54
-0.319682 -0.058792 0.366539 75 88 83
-0.549887 -0.054478 0.078912 76 77 68
-0.474797 0.035351 0.046770 121 129 126
-0.057564 -0.212783 0.040337 122 133 131
0.131458 -0.082916 0.033000 112 120 117
0.127658 -0.140418 0.090613 89 132 153
-0.288668 -0.001885 0.026287 107 123 114
0.022402 -0.177211 0.084586 54 105 137
-0.274003 -0.170586 0.025660 122 133 129
0.150710 0.070204 0.029419 110 122 114
-0.035861 -0.143454 0.035226 111 124 119
-0.319266 -0.075463 0.360382 72 83 81
-0.063091 -0.226190 0.041777 124 137 132
-0.509448 0.046719 0.043341 131 135 130
0.119350 0.332528 0.006946 58 64 62
-0.212702 -0.225855 0.032837 132 140 137
0.137372 -0.165975 0.073862 89 135 171
0.382081 -0.015621 0.038884 147 147 141
0.385331 0.124867 0.034525 139 140 134
-0.050045 0.273848 0.005866 116 130 121
-0.368615 0.042025 0.345621 78 87 80
0.304398 0.101225 0.033061 128 132 127
0.273078 0.283166 0.019545 138 138 138
-0.248349 -0.078337 0.417939 117 169 176
-0.263213 -0.091504 0.405000 84 128 131
0.374163 0.213070 0.029868 128 135 129
0.224615 -0.298236 0.054023 127 131 124
-0.032187 0.093202 0.022926 97 111 100
0.199058 -0.268538 0.052518 115 122 116
0.298851 -0.197950 0.047572 58 61 62
0.280024 -0.257338 0.050639 129 130 126
-0.184913 0.257818 -0.008992 125 137 129
-0.079375 -0.222681 0.040653 119 131 123
0.366112 -0.202746 0.046451 139 139 133
-0.312231 -0.266475 0.027250 142 143 137
-0.244233 -0.254930 0.033333 138 145 139
-0.337626 -0.031802 0.032688 122 123 117
0.370643 -0.084965 0.040964 146 146 140
-0.071959 0.215540 0.007034 102 118 109
-0.166798 0.293335 -0.006802 131 143 135
-0.510947 0.067222 0.318312 55 54 58
0.041822 -0.161021 0.073882 41 94 125
-0.202168 -0.059374 0.071699 30 41 39
0.290287 0.241953 0.023707 136 140 135
0.022443 -0.166531 0.037159 100 123 128
-0.455544 0.016592 0.036105 117 125 122
0.366911 0.062218 0.036029 97 96 98
-0.065782 -0.065674 0.029949 110 128 124
-0.324578 -0.034174 0.366642 73 87 78
0.321701 -0.218058 0.048191 130 126 119
0.335332 0.349243 0.019474 137 138 134
0.367561 0.366914 0.020605 139 140 136
-0.524579 0.108487 0.338987 148 144 137
-0.534731 0.025399 0.071396 77 78 72
-0.057364 -0.166512 0.036927 119 134 129
0.225386 0.235896 0.020927 133 140 134
-0.025954 -0.084726 0.031608 103 121 117
-0.039586 0.010627 0.027783 109 123 112
-0.413651 0.039686 0.051056 110 124 115
-0.067851 -0.176830 0.037114 115 130 125
-0.326218 -0.201804 0.021309 105 112 106
0.206144 -0.274850 0.052763 56 56 52
0.086977 0.280675 0.012663 123 134 132
0.116003 0.261161 0.013289 78 84 86
-0.200527 0.032310 0.035425 100 112 104
-0.498825 0.060342 0.313771 91 92 88
0.123819 -0.176739 0.057138 87 135 166
-0.090586 -0.143075 0.033664 116 129 124
0.348235 0.201517 0.029371 136 140 135
-0.204216 0.298948 -0.008416 131 145 136
-0.293165 -0.052341 0.386016 124 157 159
0.256027 0.084162 0.032444 128 132 127
0.258661 -0.186122 0.047439 138 139 133
-0.468664 -0.022229 0.021614 100 108 105
-0.034858 -0.156111 0.036834 108 123 120
-0.236638 -0.036697 0.428597 113 148 149
-0.017710 0.231260 0.012854 111 127 118
0.227198 -0.274908 0.052810 129 133 128
-0.182259 0.172876 0.056075 123 116 85
-0.254369 -0.029638 0.032947 101 116 111
0.141927 -0.037383 0.032444 51 62 60
-0.198976 -0.062593 0.337359 78 86 83
-0.394695 -0.108801 -0.017176 124 135 133
-0.004592 -0.161562 0.037881 113 128 125
-0.335572 -0.082208 0.356756 66 79 74
0.160828 -0.111461 0.036522 110 121 117
-0.528106 0.111966 0.036237 150 156 154
-0.388332 -0.033323 0.016366 123 136 133
-0.079135 -0.099574 0.031758 111 124 119
-0.076416 0.131157 0.015769 88 102 93
0.218056 0.106801 0.029302 127 135 132
-0.258544 -0.069975 0.024540 104 118 109
-0.049917 -0.019524 0.029187 104 120 111
-0.456286 0.042085 0.306628 50 58 57
-0.026208 -0.121954 0.034431 112 127 122
-0.495357 -0.112920 -0.016336 79 86 80
-0.325266 -0.212051 0.022357 76 84 81
-0.318349 0.006844 0.351657 50 60 63
0.141135 0.219289 0.019666 99 113 104
-0.372555 -0.011697 0.025405 119 130 128
-0.194804 -0.216123 0.033299 126 134 131
-0.357399 0.029967 -0.016178 8 16 15
0.131837 0.207225 0.020180 117 128 124
-0.549613 0.017674 0.138015 110 137 148
0.183026 0.057562 0.030205 115 127 117
0.045070 -0.277219 0.050509 114 122 121
-0.025242 -0.249645 0.046281 117 128 128
-0.063959 -0.206101 0.040054 119 130 126
-0.357406 -0.086961 0.351866 102 139 142
-0.293096 -0.074601 0.375236 67 80 79
0.214476 0.329668 0.012644 61 69 68
0.365762 -0.204417 0.046436 140 140 134
-0.252363 -0.194983 0.028153 131 140 133
-0.545025 -0.009450 0.054821 50 47 42
-0.147221 -0.075001 0.029232 106 122 113
-0.013753 -0.086669 0.031999 22 40 34
-0.439137 0.041898 0.312370 69 75 73
-0.151954 0.171330 0.051866 133 126 95
0.202621 -0.159561 0.043892 115 119 112
-0.076896 0.054007 0.025414 104 120 109
0.131473 0.118167 0.026903 110 119 112
-0.021202 -0.125567 0.034604 112 127 122
0.094639 -0.104057 0.029910 101 126 133
-0.504858 0.083527 0.331356 130 141 141
-0.269420 -0.036103 0.422695 123 151 155
0.165136 -0.129865 0.038061 102 113 111
-0.429650 -0.015343 0.024167 122 133 129
0.135534 0.068302 0.028824 104 116 106
0.276228 -0.289131 0.053685 138 139 128
0.004923 -0.193074 0.041352 106 121 120
0.322335 -0.003580 0.037592 132 133 127
-0.145054 -0.270325 0.039184 137 145 142
0.131914 0.122531 0.026867 110 119 112
-0.212620 -0.084602 0.390131 65 89 89
-0.211488 0.257304 -0.008673 125 137 127
-0.226345 -0.082394 0.080235 100 115 112
0.107452 -0.005512 0.030236 109 118 111
0.100328 -0.135853 0.075318 60 116 146
-0.528914 0.083957 0.330314 136 136 136
-0.208080 0.372802 -0.011752 135 144 135
0.324308 0.368848 0.017261 139 140 134
0.380648 0.047394 0.036961 138 138 138
0.379761 0.125096 0.034018 140 141 135
0.093681 -0.176197 0.034722 25 70 99
0.353792 0.220547 0.028759 78 77 79
0.235393 0.357275 0.010335 135 139 134
0.104328 -0.073160 0.031464 114 125 121
-0.045691 0.281371 0.005662 124 133 126
0.253929 0.115649 0.029439 128 137 130
-0.413846 0.002917 0.031952 119 130 126
0.278632 -0.154583 0.044977 137 139 130
-0.136726 -0.121217 0.031371 53 71 67
0.212989 -0.234749 0.050506 104 110 108
0.209118 0.263587 0.018551 53 60 64
-0.303616 -0.294752 0.028243 140 144 137
0.181294 -0.196123 0.047057 102 110 107
-0.255903 0.246469 -0.007607 126 138 128
0.395266 0.347703 0.022660 138 139 133
0.033621 -0.069147 0.030071 101 117 108
-0.377206 0.056893 0.345241 84 91 85
-0.022897 0.128718 0.021089 94 108 97
-0.107075 -0.210487 0.037512 76 88 92
-0.188220 -0.285586 0.037835 61 72 70
0.026683 0.043130 0.028142 93 109 100
0.040925 -0.235977 0.081975 40 88 121
0.061166 0.053945 0.027440 92 108 97
0.198290 -0.214762 0.048657 89 95 97
0.091683 -0.225474 0.037369 29 71 101
0.086999 -0.089596 0.030524 115 128 123
-0.198645 -0.064399 0.025175 107 122 117
-0.327068 0.097408 0.341419 134 168 174
-0.050460 -0.080994 0.031299 114 129 124
-0.358034 0.023238 0.022355 31 39 40
-0.155686 -0.126267 0.030261 113 126 121
-0.345281 -0.080523 0.358846 73 84 80
-0.227690 -0.141063 0.025981 115 126 122
0.128534 -0.202397 0.059896 94 140 172
-0.433666 -0.094624 -0.009088 86 94 91
-0.141979 0.306886 -0.004347 124 138 127
0.172667 -0.270147 0.053153 106 112 110
0.084983 -0.151637 0.046233 32 83 117
-0.423353 0.087806 0.336365 133 137 132
-0.314471 0.052275 0.021481 117 131 122
-0.503625 0.066542 0.048264 137 145 142
0.191005 -0.150149 0.041244 104 113 106
-0.463088 -0.114850 -0.015883 80 87 81
-0.018939 -0.201417 0.041306 115 128 125
0.075988 0.247877 0.014506 116 125 118
0.249875 -0.180696 0.046066 130 134 129
-0.080627 0.119334 0.017402 97 110 97
-0.426378 0.090757 0.336944 135 136 132
-0.368491 0.068643 0.347514 87 94 86
-0.004292 -0.044826 0.030380 94 109 104
0.099244 0.387540 0.002332 127 131 124
-0.220246 -0.155582 0.027886 120 133 130
0.117021 0.089711 0.027809 105 117 109
-0.290899 -0.065165 0.021228 110 124 113
-0.273327 -0.095011 0.021946 111 125 116
0.055707 0.176093 0.021143 103 115 105
-0.337717 -0.061516 0.368622 87 98 94
-0.007872 0.156416 0.019158 102 116 107
0.016312 -0.257899 0.047676 110 123 118
0.190349 -0.061349 0.035950 115 127 119
-0.242089 0.256736 -0.008343 125 139 130
-0.335546 -0.014682 0.366244 76 87 83
0.383574 0.180229 0.031084 69 72 73
0.349845 0.348918 0.020182 139 141 132
-0.045811 0.331988 0.001108 124 138 129
-0.083744 -0.073486 0.030764 106 121 116
0.246643 -0.020960 0.036076 112 120 117
0.040952 0.085579 0.026496 100 114 105
0.293333 0.202537 0.026780 133 140 134
-0.175346 -0.290304 0.038187 133 142 135
-0.253990 -0.284916 0.034402 78 80 86
-0.025043 -0.163210 0.037536 109 124 121
0.320795 0.225606 0.027603 138 139 133
0.073599 -0.263307 0.051009 104 116 118
-0.516840 0.075814 0.325298 93 97 90
-0.143573 -0.165608 0.033279 118 133 128
-0.470316 -0.030472 0.018072 90 97 91
-0.283707 -0.252592 0.029460 139 146 140
0.120897 0.272620 0.014356 126 133 125
0.068563 0.031058 0.028388 96 110 101
0.145790 0.226224 0.019903 94 105 101
0.227879 0.186846 0.025039 127 135 132
-0.337794 -0.079362 0.359443 72 85 80
0.332995 0.382407 0.016792 134 138 131
0.384191 0.028766 0.037575 140 140 134
-0.545283 -0.008718 0.075064 66 67 61
-0.060039 -0.272979 0.044861 127 135 132
-0.042974 0.297378 0.003944 79 91 83
0.270684 0.069256 0.033059 121 132 130
-0.001421 -0.165075 0.038130 118 133 132
0.098019 -0.287090 0.053647 116 127 125
-0.330343 -0.110243 0.017910 124 133 126
0.322381 -0.177117 0.045462 80 79 79
-0.489549 -0.024481 0.022200 105 114 107
-0.401509 0.022034 0.318459 37 36 40
-0.425128 0.044507 0.318785 100 113 110
-0.240144 0.018838 0.358731 100 113 110
0.003656 0.220769 0.014942 92 107 102
-0.098921 -0.130593 0.033164 99 106 100
-0.489746 -0.017791 0.024753 85 94 87
0.200288 -0.249534 0.052353 106 109 108
0.245035 -0.196299 0.047745 138 139 133
0.393144 0.379970 0.021071 141 141 137
-0.064827 -0.088574 0.031791 116 130 121
0.238374 0.203649 0.024039 77 84 76
-0.397798 0.070354 0.335197 45 52 56
0.275569 0.031516 0.034559 125 132 124
-0.235875 -0.103946 0.376911 48 63 58
0.280111 -0.120399 0.042855 132 133 129
-0.472401 0.105500 0.339363 156 151 147
0.352129 -0.211247 0.047199 139 139 133
0.211551 -0.036689 0.036353 124 132 129
0.102611 -0.035151 0.031231 107 118 114
0.250910 -0.228079 0.049404 141 141 135
0.102307 -0.001610 0.030284 101 115 106
-0.487373 0.064341 0.320474 156 159 158
-0.332580 -0.127979 0.017033 125 136 132
-0.434731 -0.116398 -0.016739 95 103 100
-0.341590 0.087336 0.347741 114 137 142
-0.321772 -0.037058 0.366588 74 90 81
0.394423 0.321662 0.023528 143 144 140
-0.327405 0.074026 0.343123 89 100 96
0.171245 0.206396 0.022194 121 130 123
0.109225 -0.225894 0.047429 76 122 156
-0.534962 -0.047930 0.013061 82 84 75
-0.320664 0.098075 0.338357 134 170 176
-0.244439 -0.184882 0.028278 123 134 130
-0.381261 -0.023473 0.020846 120 133 128
-0.312533 -0.136098 0.020585 122 135 132
-0.489569 -0.022844 0.022927 105 114 107
-0.074836 -0.129100 0.034239 36 44 45
-0.372180 -0.051125 0.007769 114 127 122
-0.342017 -0.265796 0.023408 166 167 156
0.066867 0.123195 0.024629 104 118 109
-0.026719 -0.131104 0.035260 115 128 123
0.127467 -0.204921 0.056517 93 140 169
-0.251534 0.337131 -0.013321 134 143 136
0.023069 -0.038868 0.030076 94 110 101
0.097843 0.143951 0.023261 114 128 119
-0.313578 -0.086200 0.345224 51 63 55
0.306940 0.387235 0.013485 96 99 98
-0.428430 0.042877 0.316155 84 95 91
-0.236922 0.343722 -0.011545 142 154 146
0.010053 0.103579 0.024120 107 120 115
-0.015919 0.187587 0.015915 115 129 120
0.392736 0.006678 0.037642 111 108 103
0.350432 -0.029084 0.038121 140 141 135
-0.298719 -0.081857 0.020949 110 123 118
0.391752 -0.112273 0.040600 141 138 133
-0.103925 -0.121491 0.032460 119 137 133
-0.548761 -0.108542 0.056021 69 73 66
-0.044882 -0.293263 0.045806 118 127 120
0.015028 -0.173656 0.038159 29 46 49
-0.512034 0.096420 0.336929 67 69 75
0.200347 0.158855 0.026074 129 136 130
-0.423422 -0.069845 0.001192 110 119 112
0.316454 -0.005580 0.037588 133 134 128
0.234353 0.203582 0.024079 128 135 127
-0.183394 0.294076 -0.008181 130 142 134
0.240615 0.009228 0.034480 120 129 120
0.334723 0.311898 0.022046 138 139 135
-0.204125 -0.053488 0.178251 19 27 26
0.098112 -0.044738 0.031181 112 124 116
0.395720 0.020805 0.037451 99 98 102
-0.046267 -0.250926 0.044746 46 52 54
-0.486442 0.028524 0.039929 121 128 122
0.064833 0.283873 0.011171 121 130 123
-0.206364 0.170683 0.066430 125 118 89
-0.357628 0.057049 0.347727 85 92 86
0.091992 0.045224 0.028916 100 112 102
-0.268770 -0.062093 0.422258 123 169 175
-0.333216 -0.032491 0.368654 77 89 81
0.011584 0.008521 0.028679 90 104 93
-0.140229 -0.299964 0.040852 133 141 138
-0.387148 0.066713 0.342879 85 94 87
0.086325 0.125506 0.024683 106 119 114
0.263835 0.073523 0.032794 122 129 123
0.240846 0.000786 0.035639 123 132 123
0.233059 -0.270135 0.052221 130 131 125
0.360210 0.161716 0.031479 136 137 133
-0.056256 0.156281 0.014689 92 102 90
0.371536 -0.289461 0.054132 139 134 130
-0.097315 0.243135 0.000349 116 128 120
-0.162085 -0.177333 0.032206 121 137 128
-0.057435 -0.168265 0.037066 116 132 123
0.102918 0.195515 0.019965 114 123 116
-0.161422 -0.063288 0.027648 104 119 114
0.231204 -0.262208 0.051893 130 131 122
-0.191329 -0.290149 0.037401 127 136 129
-0.414208 -0.105734 -0.015148 116 127 125
-0.300259 0.013261 0.027644 106 121 116
0.317915 0.320512 0.020219 140 141 135
-0.338505 -0.087064 0.352346 58 72 63
-0.064397 0.038947 0.027153 103 117 108
-0.525850 0.107033 0.338598 150 146 139
-0.170289 -0.063040 0.026877 15 30 25
-0.051956 0.120420 0.019874 91 104 91
-0.261365 -0.075803 0.418003 120 169 172
-0.293035 -0.021057 0.025464 107 119 109
0.247881 -0.270099 0.051785 141 141 137
-0.368271 -0.053302 0.008545 114 127 122
0.335895 0.000369 0.037768 134 138 133
0.033385 0.191033 0.018619 105 117 109
-0.159658 -0.258958 0.037344 131 142 138
0.180979 0.342082 0.008985 135 142 134
0.338265 -0.219673 0.047959 143 141 133
0.226645 0.326987 0.013075 133 140 132
-0.092156 0.038832 0.027034 96 108 98
-0.277700 0.311622 -0.013589 132 141 132
0.391894 0.182499 0.031230 129 132 131
0.286363 -0.226386 0.048914 138 138 134
0.118125 0.173334 0.023019 109 121 113
-0.200823 0.334700 -0.009023 76 90 81
0.241615 0.174666 0.026637 122 125 126
0.113380 -0.035252 0.031607 108 121 120
0.285757 -0.186148 0.047553 139 140 136
0.202102 -0.002840 0.034401 110 113 114
-0.242462 0.320847 -0.011723 109 121 113
0.351310 -0.221349 0.048042 142 143 137
0.374605 0.293640 0.024019 134 133 135
-0.536584 -0.033595 0.020478 89 96 88
0.229358 -0.003081 0.035298 123 131 128
-0.013236 -0.292170 0.048346 81 96 95
-0.241404 -0.101261 0.024560 106 124 118
-0.094819 -0.003908 0.028726 93 107 98
-0.103369 -0.188482 0.036228 101 116 111
0.323095 0.270683 0.024434 138 139 135
0.305879 -0.265511 0.051820 140 138 130
-0.047980 0.124743 0.019985 70 82 72
0.063332 0.148581 0.022351 104 118 109
-0.391144 0.033118 0.044156 131 144 141
-0.215815 -0.135951 0.026675 114 129 124
-0.391321 0.070922 0.339240 88 97 90
0.395118 -0.162767 0.043415 127 123 128
0.330897 0.371166 0.017758 138 142 135
-0.003902 0.228280 0.014071 110 124 113
0.144940 0.269599 0.015663 119 127 124
-0.175435 -0.284176 0.038552 137 148 144
-0.293540 -0.134736 0.022100 75 81 79
0.319541 -0.109094 0.041541 140 140 136
0.012315 -0.164853 0.037312 107 125 123
-0.129309 0.181450 0.060989 132 126 100
0.018449 -0.270705 0.049077 116 124 123
0.320778 -0.214706 0.047964 89 80 85
0.293856 -0.247563 0.049445 138 139 133
-0.109169 0.272643 -0.000651 79 94 89
-0.060872 0.316744 0.000936 127 141 130
0.259679 0.250279 0.021384 133 139 137
0.004511 0.169895 0.019315 99 115 106
-0.224468 0.147907 0.064339 127 117 87
0.139637 -0.056714 0.033116 56 64 63
-0.167524 0.009831 0.028049 98 107 98
0.312304 -0.273462 0.052262 145 142 137
0.060035 -0.193387 0.042639 30 75 104
-0.209514 -0.062638 0.412486 134 154 149
0.140434 -0.096081 0.033850 46 56 59
-0.220089 -0.291377 0.035722 133 144 140
-0.016731 -0.271822 0.046785 116 127 123
-0.270106 -0.010060 0.027343 98 117 107
0.015994 0.049562 0.027385 63 82 70
0.318440 0.347209 0.018448 121 129 128
-0.440225 -0.033340 0.015868 117 125 122
-0.318110 -0.065120 0.365042 73 88 83
-0.232155 -0.070172 0.420427 110 160 168
0.203993 -0.014869 0.035007 60 71 71
0.257460 0.056722 0.032993 116 127 123
-0.339731 -0.270768 0.024821 159 160 154
-0.509954 0.030415 0.039817 127 131 126
-0.168828 -0.177248 0.031858 115 130 125
-0.156778 0.349494 -0.007400 134 143 134
-0.113177 -0.295546 0.041501 131 139 136
-0.096966 0.267324 0.000237 114 127 114
0.244738 0.071546 0.032283 127 134 126
0.174454 0.080550 0.030050 128 134 132
0.178574 -0.242923 0.051384 98 104 102
-0.273316 -0.060079 0.022922 109 121 113
-0.270045 0.249505 -0.005123 139 148 139
-0.463731 -0.088395 -0.005438 77 88 84
0.001311 -0.149235 0.037262 113 128 125
-0.002155 -0.005842 0.029742 95 111 102
0.234103 0.294551 0.016614 134 141 135
-0.366463 -0.051720 0.009454 109 122 119
0.222937 0.113549 0.028845 126 134 131
0.112618 0.137021 0.024058 114 114 114
0.240638 0.323852 0.014173 133 137 132
0.088563 -0.050526 0.031274 108 121 116
0.379733 0.051651 0.036655 136 139 138
-0.300035 -0.021540 0.026590 108 122 111
0.234093 0.136108 0.027626 128 135 129
0.187263 0.251297 0.018553 126 134 131
0.318695 0.233763 0.025868 136 140 135
-0.112053 -0.212044 0.037086 120 135 130
-0.166904 -0.048065 0.027247 100 115 110
-0.317873 0.008632 0.028974 116 130 121
-0.244958 -0.085155 0.413370 104 152 160
0.104781 -0.104590 0.031651 99 126 135
0.338515 0.060372 0.035154 64 70 68
0.239272 -0.021057 0.036237 96 105 98
-0.252441 0.358833 -0.014818 133 142 135
-0.374939 -0.004116 0.025913 119 130 126
-0.149248 -0.006180 0.028826 95 111 100
0.003191 -0.172075 0.038653 109 121 125
0.393921 0.308705 0.024118 139 140 134
0.012800 -0.198355 0.042456 107 122 121
-0.221935 -0.077695 0.412391 106 156 164
-0.087498 -0.219259 0.039972 119 130 126
0.349822 -0.023178 0.037907 131 138 130
-0.173611 0.344472 -0.007880 131 143 133
0.325153 0.315026 0.020999 139 140 136
-0.260212 -0.040275 0.427237 130 169 176
-0.203842 -0.046054 0.353181 35 38 41
0.093819 0.103276 0.025961 110 124 115
0.050377 -0.147078 0.078365 40 96 126
-0.129872 -0.135476 0.031548 109 127 121
0.365557 0.028740 0.037390 137 139 128
0.265917 -0.202946 0.047524 139 139 139
-0.202803 0.329425 -0.008807 91 102 98
0.223850 0.158942 0.026303 132 139 133
-0.501737 0.044397 0.044118 126 133 127
-0.163554 -0.025205 0.027596 93 112 100
0.047137 0.321080 0.007423 122 134 124
-0.048716 -0.081054 0.031490 113 128 123
-0.205237 -0.200735 0.031252 123 134 130
0.065061 0.146233 0.022614 108 120 112
-0.318784 -0.121706 0.020105 122 134 124
0.287913 0.239576 0.023666 136 140 133
-0.294006 -0.271389 0.028126 139 148 141
-0.458044 -0.104892 -0.012089 75 86 82
-0.398430 0.051398 0.328814 42 47 54
0.211805 -0.260616 0.052056 125 122 117
0.365275 0.208333 0.029861 86 87 83
0.335836 0.134855 0.031497 125 133 132
0.240219 -0.036926 0.037266 123 132 125
0.048051 -0.203493 0.057621 35 83 116
0.243170 -0.224788 0.049319 134 141 135
-0.057438 -0.125405 0.033865 116 132 123
0.077940 -0.007686 0.030385 28 44 35
0.140412 -0.270014 0.052784 103 111 108
0.172429 -0.115273 0.037240 96 102 104
0.162798 -0.270201 0.053632 113 117 112
0.011470 -0.257866 0.047537 114 129 126
0.098649 0.173672 0.022121 114 123 116
0.300171 -0.298457 0.053943 130 130 132
-0.050540 -0.237901 0.043603 119 130 126
0.250016 -0.241226 0.050335 138 138 134
0.193561 0.238539 0.019949 130 139 132
-0.283271 -0.209823 0.027337 123 139 130
0.152248 0.312368 0.011017 125 137 129
0.101444 0.365253 0.004094 128 135 129
0.336114 0.341410 0.019699 127 131 126
0.353834 -0.239467 0.048778 140 141 137
-0.155504 0.132263 0.028446 94 90 65
-0.362003 0.018389 0.028756 111 124 121
-0.089189 -0.286664 0.043491 117 117 117
-0.336359 0.371470 -0.019354 139 147 146
-0.152089 0.246110 -0.005234 130 133 112
-0.337661 0.045047 0.346516 86 95 88
-0.402630 -0.041447 0.012337 125 138 133
0.296329 -0.044971 0.038851 134 140 138
-0.401341 0.042946 0.324089 28 36 37
0.180277 -0.223090 0.049319 93 106 93
-0.391869 -0.084116 0.336959 110 136 134
0.016399 0.203120 0.017365 111 123 113
0.109667 0.016595 0.029701 30 43 40
-0.066052 0.282635 0.003442 120 134 123
-0.290012 0.342285 -0.017604 137 146 137
0.198152 -0.103041 0.038818 119 128 119
-0.546693 0.060554 0.302511 75 76 72
-0.320791 0.000386 0.029820 116 128 120
-0.297146 -0.274391 0.027236 143 147 142
-0.471593 0.016481 0.036149 121 127 125
0.009016 0.308468 0.006819 107 118 116
0.148837 0.070223 0.029355 109 121 113
0.148144 -0.031401 0.031990 113 122 115
0.199231 0.208432 0.023127 127 136 129
-0.256566 0.306124 -0.012514 132 141 134
0.204938 0.149676 0.026614 63 71 68
-0.351365 0.048997 0.347637 85 92 86
0.045843 0.175935 0.021247 108 123 109
-0.256886 0.227437 -0.003905 123 137 128
-0.330829 -0.149410 0.017646 128 140 132
-0.097280 -0.041036 0.029500 99 118 108
0.338185 -0.268675 0.051441 144 144 138
-0.291890 -0.011111 0.024905 105 116 112
0.155030 -0.238798 0.055184 97 112 111
-0.315368 -0.084361 0.350079 52 64 56
-0.013067 -0.161505 0.037645 44 55 51
-0.259871 -0.149639 0.025139 130 141 137
-0.340034 -0.026934 0.369135 76 88 80
-0.543439 -0.033837 0.021030 93 97 90
0.179159 -0.239630 0.050954 99 105 103
0.243204 0.367963 0.010078 134 141 135
0.256701 0.097811 0.030684 123 127 120
-0.312686 -0.053009 0.366605 76 89 84
-0.303133 -0.168313 0.023444 94 107 102
0.038530 -0.025084 0.029506 93 107 96
-0.108396 0.068299 0.025383 94 111 97
-0.446671 0.071963 0.329641 132 140 137
-0.546110 -0.008653 0.087695 76 77 71
-0.068200 -0.084760 0.031367 116 130 121
0.024605 0.010674 0.028465 92 106 97
-0.243669 -0.076241 0.419062 117 169 176
-0.243318 -0.103394 0.375674 45 60 55
0.184092 0.383618 0.005621 129 133 128
0.268562 0.045901 0.034246 108 115 109
-0.449249 -0.018683 0.022626 115 126 122
0.014896 0.062098 0.027051 30 43 40
0.087288 -0.168000 0.036299 24 68 100
-0.545895 -0.004469 0.038570 95 104 97
-0.527760 0.010338 0.036012 118 125 119
-0.133083 -0.061779 0.028929 105 121 112
0.145765 -0.249772 0.054184 90 99 109
-0.016940 -0.110998 0.033899 105 121 112
-0.115768 -0.101089 0.030557 109 127 121
-0.540867 0.102428 0.038122 156 163 157
0.351375 -0.163070 0.044452 144 144 138
0.227111 -0.017146 0.036065 125 131 129
-0.500833 0.088818 0.333532 59 61 67
0.108296 -0.149667 0.063895 67 123 155
-0.317460 -0.225500 0.023455 140 143 142
-0.331945 -0.211997 0.022132 142 150 147
0.069508 0.176255 0.021096 104 118 107
0.042156 0.229845 0.016111 110 124 113
-0.134618 0.061037 0.027170 90 98 85
-0.197684 0.151422 0.032567 108 98 66
0.168809 -0.208377 0.049743 83 109 125
0.281011 0.119348 0.031046 135 136 132
-0.444687 0.087208 0.334452 133 136 135
0.068461 -0.151581 0.052199 31 87 117
0.047475 -0.188734 0.058162 37 85 116
0.232615 0.191712 0.024637 130 138 135
0.038407 0.024723 0.028601 92 108 99
0.294376 -0.065951 0.039242 127 131 126
0.258064 -0.290667 0.054013 134 134 130
0.102495 -0.203675 0.036225 52 100 133
0.285447 -0.065941 0.039133 125 134 125
-0.369874 0.006252 0.029285 93 98 103
0.010908 0.305729 0.007200 62 70 69
0.103768 -0.291792 0.054250 79 75 78
-0.543490 -0.035394 0.020117 93 97 90
0.114690 0.139084 0.024342 79 85 83
0.194434 0.115741 0.028355 124 132 129
0.227670 0.046149 0.033161 121 128 122
-0.366490 0.076537 0.348187 87 94 88
-0.223123 -0.212429 0.031556 121 134 129
-0.523440 0.053461 0.300844 58 61 60
0.174631 -0.287457 0.054739 47 47 47
-0.262583 -0.070434 0.420386 123 169 175
0.216045 -0.097981 0.040199 64 72 71
0.201196 0.165627 0.026006 123 131 128
-0.240650 -0.076683 0.242153 37 50 45
-0.231636 -0.126925 0.026086 32 42 47
-0.133198 -0.100983 0.030107 105 123 117
-0.159353 0.137688 0.030378 93 89 64
0.266415 -0.242790 0.049958 143 144 138
-0.228517 -0.076833 0.231804 13 24 20
0.061248 0.315589 0.008330 117 129 121
-0.197117 -0.252260 0.035795 68 81 78
-0.046384 0.026504 0.028037 65 84 72
0.129129 0.078923 0.028438 105 117 109
-0.326270 0.024343 0.346365 62 71 64
-0.125697 -0.265749 0.039766 131 143 135
0.192218 0.364002 0.007474 133 137 130
0.144116 -0.202413 0.081053 91 142 176
0.073634 0.134511 0.024014 98 114 103
-0.088488 0.286422 0.001093 120 134 125
0.181133 0.014210 0.031469 112 124 116
0.158137 0.147696 0.025440 119 128 121
-0.328023 -0.046897 0.368364 86 97 93
0.335692 -0.090579 0.040906 139 139 133
0.338443 -0.211324 0.047597 137 141 136
0.296756 0.121520 0.031290 133 137 132
-0.330144 -0.158172 0.017695 132 139 133
-0.523042 0.061330 0.309366 83 90 84
-0.343339 -0.037462 0.371956 82 93 89
0.126549 -0.175781 0.059986 85 133 168
-0.035116 -0.127367 0.034593 111 126 121
-0.543367 -0.080570 -0.001404 78 82 77
0.218832 -0.229818 0.050137 110 116 114
0.071095 0.334257 0.007151 121 130 121
-0.316996 -0.121818 0.020485 122 134 126
-0.282653 -0.268568 0.030071 140 144 139
-0.429021 0.033618 0.304743 46 54 53
0.274984 -0.208030 0.047900 138 138 132
-0.270029 -0.060780 0.422321 122 168 174
-0.028097 -0.015796 0.029844 92 105 102
-0.206649 -0.084801 0.369275 64 82 76
-0.248907 0.377584 -0.015368 138 145 137
-0.216107 -0.267963 0.035224 138 145 139
0.294404 0.351192 0.016107 137 141 134
0.284986 0.097385 0.031931 131 138 130
0.355587 -0.232825 0.048047 141 141 137
-0.217361 0.249328 -0.007641 127 137 125
0.008569 -0.121731 0.033895 108 123 118
0.342354 0.180469 0.029995 79 79 79
0.083760 0.077115 0.027193 100 116 107
0.041448 0.169056 0.021360 106 120 111
0.302360 -0.189402 0.047016 135 136 132
0.333375 -0.211327 0.047625 136 139 140
-0.421882 0.087667 0.336582 133 137 132
0.236620 -0.268554 0.052096 52 55 56
-0.324131 0.047757 0.340387 88 96 93
0.235603 -0.211454 0.048505 59 62 61
-0.458992 0.009921 0.033334 117 125 122
0.005446 -0.296952 0.049389 112 120 117
0.245454 -0.079420 0.039960 129 133 128
-0.359871 -0.034526 0.014785 33 39 41
-0.306714 -0.120088 0.020754 119 130 126
0.067238 0.060115 0.027594 34 45 43
-0.438740 -0.099774 -0.010511 84 92 89
-0.142049 0.035774 0.028622 34 47 34
-0.284886 -0.005641 0.025938 108 122 113
-0.165412 -0.019328 0.027407 88 109 96
0.093210 -0.215094 0.035081 29 71 101
-0.036568 0.208144 0.012061 107 121 112
0.002904 -0.044763 0.030286 93 108 103
-0.425981 -0.034863 0.014977 130 141 137
0.213628 -0.278039 0.053126 128 129 125
0.197799 0.154301 0.026188 128 137 130
-0.540295 0.033929 0.120513 88 96 97
-0.429349 -0.049702 0.008554 125 136 132
0.007464 0.062271 0.026588 62 77 76
-0.339526 -0.012108 0.366891 76 87 83
-0.234841 -0.282020 0.035475 139 146 140
0.054090 -0.100987 0.031438 104 119 114
-0.494529 -0.045861 0.013008 83 90 84
-0.347667 0.080160 0.348184 89 93 88
-0.143581 -0.158564 0.032754 120 133 128
0.101680 0.087642 0.027485 105 117 109
-0.485701 -0.052233 0.009732 82 89 83
-0.278276 -0.129621 0.022909 114 125 123
0.396299 -0.067707 0.039830 146 146 146
-0.006287 -0.161552 0.037837 111 129 123
-0.230051 -0.056582 0.425107 114 164 172
0.062029 0.203025 0.018294 112 124 116
-0.246950 -0.021493 0.041379 34 40 42
-0.546611 -0.026548 0.077562 70 70 64
-0.314190 -0.282259 0.027825 145 149 142
0.124280 -0.019329 0.030655 83 97 88
-0.535663 0.013433 0.068082 72 76 69
0.126499 0.178069 0.022805 114 126 116
-0.285127 -0.231428 0.028455 133 145 137
-0.145318 -0.137055 0.030833 113 129 120
0.084065 -0.040895 0.030996 104 117 112
0.025010 -0.269154 0.049058 114 125 125
-0.276587 -0.182783 0.026613 130 141 137
-0.115191 -0.196917 0.036378 120 133 128
0.192380 0.057519 0.030424 128 136 133
-0.158490 0.019792 0.028158 94 107 94
-0.100839 -0.228955 0.039551 126 134 133
-0.309923 -0.235607 0.024950 136 143 137
0.017590 0.047102 0.028280 91 110 100
0.238069 -0.028883 0.036389 123 132 125
-0.279250 -0.082221 0.022181 111 123 115
0.019118 -0.208868 0.081257 88 129 151
-0.246568 -0.095074 0.404424 81 120 127
-0.064679 -0.136080 0.033938 109 129 122
-0.010055 -0.267178 0.047000 35 41 41
-0.251624 0.339651 -0.013268 135 144 137
-0.457295 -0.063415 0.004153 80 92 84
0.202980 0.263536 0.018517 69 84 81
0.009682 0.128199 0.022549 99 118 108
0.199187 -0.257444 0.052158 103 106 105
0.027448 -0.185843 0.079858 41 97 129
0.110404 -0.067291 0.030811 49 62 57
0.068303 0.162202 0.022001 109 123 112
-0.136588 0.141585 0.039294 125 124 96
-0.076498 0.128730 0.016205 89 103 94
0.378138 -0.265644 0.051683 150 150 146
0.248731 -0.120378 0.042600 127 134 128
-0.374624 0.059673 0.346026 85 92 86
-0.235822 -0.077616 0.247890 29 41 33
-0.237105 -0.103887 0.376773 48 63 58
-0.335882 0.039113 0.345723 83 95 87
-0.215961 -0.180154 0.029801 125 136 132
0.093679 -0.154535 0.044197 40 96 128
0.213169 0.278656 0.017898 135 138 139
0.297901 -0.212879 0.047249 122 128 128
0.099780 0.087633 0.027476 105 117 109
0.136005 -0.277913 0.053571 115 121 119
0.059588 0.222365 0.017092 70 85 80
-0.009794 -0.163299 0.037911 120 135 132
-0.479922 0.043947 0.295454 34 34 36
-0.340227 -0.025250 0.030609 130 134 129
0.363530 0.198969 0.030025 138 142 135
-0.090332 -0.200739 0.038446 118 131 126
-0.050545 -0.202812 0.040175 118 131 126
-0.174754 -0.227889 0.034626 128 139 135
0.279292 0.088206 0.033156 126 135 126
-0.417987 -0.087707 -0.007227 103 111 108
-0.119343 -0.275295 0.040576 133 139 137
-0.363924 0.023503 0.030658 114 127 124
-0.188177 0.159999 0.036921 112 102 74
0.046488 0.207790 0.017810 112 123 119
-0.383164 0.024278 0.338078 46 55 48
0.276412 -0.249405 0.050921 138 139 133
-0.028929 0.045219 0.027298 103 117 108
0.335625 -0.298568 0.053961 138 139 130
-0.051239 0.295404 0.003069 118 132 123
-0.487572 -0.042453 0.014161 83 90 84
-0.536245 -0.021085 0.027621 96 100 95
-0.131651 0.288694 -0.003006 124 136 126
-0.035575 -0.138023 0.034689 104 120 111
-0.331326 -0.236978 0.023765 143 150 142
-0.304594 -0.057680 0.367365 108 118 121
-0.255804 -0.043558 0.029502 104 116 108
0.365646 0.170585 0.031781 103 106 107
0.374692 0.166144 0.031824 137 141 136
-0.263641 0.281762 -0.009691 70 81 79
-0.019066 -0.118279 0.034163 108 123 118
0.176100 -0.074567 0.036106 110 121 117
0.064568 0.006424 0.029579 92 111 101
-0.335488 -0.009509 0.034642 121 131 117
0.101912 0.205218 0.019169 117 126 119
0.314984 0.075346 0.034083 135 136 132
-0.098179 -0.092019 0.030860 49 55 53
-0.431088 -0.051384 0.007921 124 132 131
0.036099 0.016857 0.028180 86 105 93
-0.056964 0.247052 0.006096 114 127 122
0.023362 -0.209582 0.084384 46 99 130
-0.255325 -0.041907 0.427706 124 168 173
-0.545977 0.086877 0.330671 138 138 134
0.106649 -0.013466 0.030456 102 114 106
-0.311503 -0.006811 0.028438 109 123 114
-0.174750 0.266286 -0.006914 124 139 125
0.307745 0.206834 0.027559 131 132 128
-0.073540 -0.086678 0.031552 116 132 123
-0.254576 -0.275396 0.033185 139 145 143
0.161315 -0.080033 0.035657 114 123 116
-0.368624 -0.058704 0.370813 79 108 116
-0.222520 -0.185211 0.029646 125 137 127
-0.295468 -0.274465 0.027701 142 146 141
0.196899 -0.289054 0.054715 129 130 126
-0.208736 -0.074022 0.274588 20 31 31
-0.041612 -0.037172 0.029977 109 127 121
-0.322671 -0.091487 0.341396 47 58 56
-0.201562 -0.071198 0.356679 51 66 61
-0.277301 -0.116963 0.022468 117 129 121
-0.541727 -0.101399 -0.011901 79 85 83
0.279119 0.130630 0.030314 130 134 129
0.274657 0.280506 0.019881 73 73 69
0.334824 0.022776 0.036773 140 140 140
-0.163052 -0.244462 0.036596 138 149 145
0.216898 -0.231455 0.050216 108 114 112
-0.530559 0.022851 0.038777 89 93 88
-0.368771 -0.104234 -0.019802 32 40 39
-0.226459 -0.077618 0.414600 109 157 165
0.095227 0.390386 0.001995 79 87 84
0.225306 0.346202 0.011173 108 109 105
-0.064249 -0.071583 0.030817 110 128 124
0.271760 0.167433 0.027923 125 131 131
-0.087847 -0.232491 0.040939 122 134 126
0.372133 -0.052810 0.040197 142 144 135
0.158125 -0.023607 0.031988 111 123 115
0.295991 -0.163267 0.045059 137 137 131
-0.208924 -0.074299 0.026686 105 120 115
-0.078299 0.369042 -0.004325 131 140 133
-0.244011 -0.079410 0.025078 109 123 114
0.247517 0.288936 0.017839 128 134 132
-0.381908 -0.045146 0.369513 125 161 171
0.262741 -0.182663 0.047157 139 141 130
-0.040642 0.117658 0.021159 90 104 93
0.085497 -0.157241 0.041374 27 75 108
0.350020 -0.182436 0.046285 134 142 129
-0.092016 -0.128896 0.033461 113 127 118
0.113935 0.302221 0.010542 116 130 121
0.081548 -0.213491 0.035401 29 71 99
-0.123049 0.343326 -0.005371 131 143 133
0.176845 -0.108043 0.037273 111 124 119
0.057531 0.079293 0.026662 101 115 106
0.353780 0.024819 0.036960 136 140 133
-0.222396 0.351709 -0.011630 134 144 132
-0.388837 0.026165 0.332556 47 55 52
0.293447 -0.023097 0.037078 126 133 127
-0.525138 0.022780 0.039006 145 146 140
-0.075703 -0.211000 0.039783 41 47 49
0.022371 -0.145279 0.035705 111 126 125
-0.131569 -0.126703 0.031855 115 127 119
-0.489619 0.076154 0.327711 126 129 130
0.028998 0.391024 -0.000104 74 89 84
-0.309403 0.038299 0.025311 118 130 122
-0.035608 0.326318 0.002123 125 137 129
-0.319235 -0.090726 0.339862 47 58 56
0.026535 -0.013562 0.029775 94 110 101
0.326189 -0.228027 0.048729 138 139 133
0.156118 -0.246510 0.053663 94 106 108
0.173196 -0.043785 0.034472 75 81 79
-0.010353 0.147034 0.019984 100 119 109
-0.297278 0.319442 -0.017890 131 139 136
-0.545863 -0.041241 0.077589 56 57 48
0.010125 -0.013716 0.029965 89 103 94
-0.275039 0.384576 -0.018117 138 145 137
0.116895 0.331516 0.008285 124 131 125
-0.222772 -0.178350 0.029386 121 132 130
0.109534 0.240085 0.016086 119 128 121
0.317206 0.386512 0.014605 93 92 99
-0.322992 -0.200148 0.021401 135 141 139
0.174404 -0.113471 0.037258 56 64 65
-0.428479 0.036507 0.308039 53 64 60
-0.362666 -0.052597 0.372786 95 106 102
0.012971 -0.108827 0.032938 104 122 116
-0.475704 0.050555 0.311230 80 87 81
-0.384772 -0.049436 0.008254 121 134 129
-0.439789 -0.056539 0.006308 100 108 105
0.283440 0.310905 0.018996 137 138 134
-0.189734 -0.221089 0.033438 124 137 132
-0.047922 0.276295 0.005892 118 132 123
0.339967 0.351841 0.019523 140 141 135
-0.266839 -0.231836 0.030436 135 143 140
0.128875 0.343364 0.006269 118 127 120
-0.231033 -0.089300 0.150211 22 30 29
0.156786 0.249273 0.017453 126 134 131
-0.465806 0.035281 0.047040 118 126 123
0.232090 0.111174 0.029391 125 132 126
0.255029 -0.241206 0.050192 139 139 135
0.242937 -0.278051 0.052721 136 140 133
0.269101 -0.246033 0.050078 83 89 89
0.316776 0.201965 0.028107 139 140 136
-0.289218 0.326780 -0.017357 74 85 83
-0.121042 -0.106553 0.030586 111 126 121
0.184806 -0.100770 0.037333 108 119 117
-0.186345 0.053226 0.034178 97 110 97
0.191302 -0.102876 0.038256 115 127 117
0.085343 0.283810 0.011635 67 78 76
0.032151 0.041148 0.028084 94 110 101
0.238297 -0.259041 0.051786 121 124 125
0.323597 0.273282 0.024194 139 140 136
0.339677 -0.036978 0.038448 137 138 134
0.164439 -0.290567 0.055203 118 125 119
-0.352854 0.050528 0.347759 84 91 85
0.319063 -0.229705 0.048992 140 140 134
0.191756 -0.290616 0.055001 124 128 123
0.364499 0.068642 0.035643 138 144 146
0.302878 -0.284601 0.053935 138 135 132
-0.265009 -0.206877 0.029024 51 57 55
0.181069 0.177121 0.025311 112 123 123
-0.252074 -0.135286 0.024199 114 128 119
-0.453231 -0.006806 0.026762 118 126 123
-0.488467 -0.007483 0.027975 94 105 101
-0.098137 0.140948 0.029433 98 106 91
0.148844 -0.182135 0.084803 89 140 174
0.282062 0.351726 0.015162 137 137 137
-0.199073 -0.066285 0.306345 106 121 118
0.059621 -0.054234 0.030753 99 114 109
-0.082115 -0.261582 0.042609 125 136 132
-0.058512 0.147082 0.015171 68 81 78
-0.520416 0.006858 0.035113 70 74 69
-0.058236 0.271849 0.005071 114 129 126
-0.084451 0.049744 0.025632 92 108 97
-0.059335 0.180028 0.012564 80 97 83
-0.543352 0.045696 0.127001 150 162 166
-0.479040 0.056860 0.316795 109 117 114
-0.455433 0.009956 0.033298 117 125 122
-0.099571 0.232401 0.002203 55 66 66
-0.388180 -0.062176 0.361147 136 170 176
-0.026083 -0.180786 0.039380 111 126 123
-0.170843 -0.152854 0.030813 122 133 131
-0.022953 -0.268605 0.046314 116 127 125
-0.098401 -0.190314 0.036843 122 136 127
0.329963 -0.211344 0.047715 61 61 57
-0.299385 -0.034494 0.025299 109 123 114
-0.309957 0.015634 0.335364 70 79 72
0.117553 0.202755 0.019678 115 126 122
0.265610 -0.015252 0.036650 80 80 80
-0.299147 -0.290130 0.028244 137 141 134
0.213931 -0.079042 0.038601 118 125 119
0.113258 0.051708 0.028522 100 111 107
0.384038 -0.114245 0.041064 140 140 134
-0.375645 -0.064247 0.001836 116 129 124
-0.029981 0.267733 0.008086 63 81 77
0.260460 0.242707 0.022025 135 138 137
-0.066505 0.338129 -0.000714 126 138 128
-0.188254 -0.284033 0.037801 142 149 141
-0.116034 0.055210 0.026680 93 106 93
0.160515 -0.045517 0.033874 114 122 119
0.073743 -0.290091 0.053650 116 125 118
-0.324414 -0.026359 0.028744 108 122 113
0.249966 -0.032952 0.037045 126 132 130
0.049776 0.302076 0.009568 113 122 115
-0.535086 0.028472 0.077164 79 80 76
0.002198 -0.138189 0.035437 105 123 117
-0.054063 -0.127242 0.034072 116 132 123
-0.531035 -0.093391 -0.007763 80 87 81
0.205918 0.156601 0.026199 58 69 67
-0.336846 -0.042381 0.370489 82 93 89
0.095950 -0.126476 0.083943 70 115 142
-0.254855 -0.093921 0.404645 78 119 123
-0.484356 0.064022 0.320993 159 162 161
-0.205017 -0.047799 0.128229 12 18 18
-0.402541 0.081512 0.338379 130 133 132
-0.351757 0.104686 0.347244 139 168 176
0.096389 -0.142211 0.067763 60 116 148
0.335000 0.301651 0.022455 93 99 99
0.162344 0.042727 0.030829 116 125 116
0.303686 -0.015478 0.037637 128 131 130
-0.424489 0.058418 0.327802 131 137 135
0.191437 -0.167981 0.043072 106 112 110
-0.310006 -0.099739 0.019343 116 128 120
0.373369 -0.194185 0.045776 142 143 139
0.247068 0.050402 0.033120 122 129 123
-0.519973 0.073739 0.323374 130 131 127
0.208582 -0.044478 0.036657 121 132 128
0.057495 -0.059728 0.030240 97 111 102
-0.282484 -0.018782 0.024741 99 120 109
0.218117 0.082444 0.031111 123 132 125
-0.162151 -0.170453 0.032047 76 90 94
0.254608 -0.260566 0.051254 136 137 131
0.199284 0.136200 0.026912 124 133 124
-0.096923 -0.198901 0.037712 121 134 129
0.010255 -0.011717 0.029861 90 104 95
-0.456178 0.091505 0.335371 137 138 134
0.068445 -0.259664 0.084179 64 111 136
0.098480 -0.134541 0.076653 61 114 145
0.223805 0.145207 0.026975 128 136 133
0.344639 0.399266 0.015734 125 125 121
