ply
format ascii 1.0
element vertex 1213
property float x
property float y
property float z
property uchar red
property uchar green
property uchar blue
end_header
0.266746 -0.053868 0.021335 80 80 82
0.354315 -0.177793 0.027432 143 144 135
-0.113456 -0.114837 0.010462 116 129 124
-0.361422 -0.096273 0.376081 112 146 156
-0.166164 0.469252 0.012544 111 112 108
-0.076644 0.100365 0.008229 60 72 64
0.286528 0.156310 0.020151 136 140 133
-0.273854 -0.067962 0.013331 110 122 114
-0.324599 -0.001928 0.388955 32 38 38
-0.497123 -0.015769 0.417936 78 75 72
0.289530 -0.209385 0.023288 133 133 133
-0.215441 -0.232704 0.008824 133 142 135
0.149217 -0.113497 0.019578 84 103 107
-0.169836 0.404446 0.012411 138 147 138
0.204976 0.367126 0.017203 133 140 134
-0.191799 -0.078949 0.007693 108 121 116
-0.058162 0.369718 0.012140 133 140 134
0.283961 -0.260680 0.022797 141 136 134
-0.200423 0.192469 0.034716 120 109 75
0.306555 -0.254409 0.023937 140 137 132
-0.095910 0.096068 0.007942 104 118 107
-0.159785 -0.055034 0.010002 107 120 115
0.375968 0.203200 0.030857 139 139 139
-0.160328 -0.199322 0.009661 126 138 130
-0.042911 0.521116 0.010481 137 141 134
-0.407292 0.032237 0.414281 136 137 133
-0.241638 0.220833 0.010605 131 139 126
-0.266896 -0.209228 0.008770 125 136 132
-0.307891 0.044416 0.362049 73 83 86
-0.118435 0.473950 0.011297 141 145 138
0.151399 0.043775 0.014998 112 119 111
-0.298136 -0.289505 0.011985 137 142 132
-0.331113 0.301631 0.003191 117 122 112
-0.208591 -0.178477 0.008758 124 135 131
-0.324046 -0.020949 0.388559 83 91 88
-0.073981 0.055200 0.009709 102 115 112
-0.240870 -0.099782 0.353983 49 62 57
-0.450007 -0.002893 0.412556 126 126 126
-0.197665 -0.132514 0.008537 116 131 126
0.252589 0.005796 0.019213 128 134 132
-0.163339 -0.237974 0.010052 140 146 144
0.333319 -0.028505 0.026568 131 134 135
0.238792 -0.232290 0.020664 137 138 134
-0.331250 0.025032 0.032114 137 146 139
0.034431 -0.067419 0.014455 103 117 108
-0.213675 -0.180239 0.008888 128 136 133
-0.304757 0.067417 0.258828 14 17 16
0.107310 -0.158982 0.034981 76 129 162
-0.477224 -0.011446 0.416127 81 85 80
0.152854 0.145259 0.013809 72 83 79
-0.179029 0.460500 0.012857 97 104 98
0.099042 0.224201 0.011137 74 82 79
-0.373201 -0.084482 0.387468 132 168 176
0.244515 -0.169649 0.022614 118 114 115
0.170922 -0.138838 0.019704 97 109 111
0.377364 -0.247023 0.027703 147 142 140
-0.199176 0.019762 0.013975 94 110 99
0.029413 -0.236219 0.016763 104 118 122
0.328387 -0.218198 0.024922 143 145 136
0.112220 0.214571 0.011746 116 128 120
0.110791 -0.151386 0.045422 74 127 160
-0.056924 -0.000373 0.011149 115 129 120
-0.216585 0.411593 0.012484 134 143 136
-0.165382 -0.204412 0.009618 54 53 60
-0.328908 -0.005201 0.384695 67 76 67
-0.321906 0.037475 0.382979 90 99 92
-0.301217 0.048994 0.338983 84 92 81
0.344899 -0.201554 0.026140 142 139 136
-0.021594 -0.144875 0.015009 113 126 123
-0.278220 -0.098983 0.371732 45 61 52
0.148501 0.347422 0.014937 123 127 122
-0.147229 -0.031734 0.009710 102 118 109
-0.397635 0.043182 0.410057 152 153 147
0.255898 -0.260410 0.021527 145 142 139
0.185674 0.125134 0.014720 125 134 127
0.235540 0.308596 0.017845 135 142 134
0.216220 -0.250140 0.019166 48 50 60
0.025590 0.108433 0.010862 53 66 65
-0.237278 -0.044399 0.429778 122 166 171
-0.056740 -0.256807 0.013597 126 137 133
0.333190 0.460607 0.026250 139 139 141
-0.158270 -0.242966 0.010287 76 87 87
0.119239 -0.296065 0.016171 119 123 118
0.360655 0.260718 0.029126 117 116 118
0.343915 -0.169063 0.027322 139 139 135
-0.306635 0.011948 0.360929 70 82 74
-0.434552 -0.011724 0.381385 33 39 41
-0.091416 0.395476 0.011966 138 142 135
-0.293345 -0.241075 0.010198 47 46 46
-0.301839 -0.016702 0.028965 111 125 116
0.151888 0.191096 0.012850 117 128 124
0.110226 -0.252923 0.017519 97 118 126
0.260843 -0.010680 0.020534 131 137 135
-0.496164 0.064342 0.417046 153 152 152
-0.215413 0.366589 0.013161 141 148 140
-0.150533 0.348747 0.010890 132 141 134
-0.250196 -0.087145 0.009402 109 122 117
0.234650 -0.000571 0.019849 125 132 126
0.053562 0.175874 0.009858 104 120 111
-0.361491 0.024752 0.400196 89 93 88
-0.043492 0.503495 0.011080 110 116 114
0.264360 -0.113866 0.021463 135 136 132
-0.457123 -0.012483 0.398254 34 40 40
0.385215 0.151996 0.033258 142 143 139
-0.131331 -0.189237 0.010426 123 136 133
-0.051267 0.312816 0.010113 124 133 124
0.376908 -0.215658 0.028653 141 142 131
-0.079005 -0.283880 0.012377 122 118 123
-0.220884 0.414062 0.012631 138 142 135
-0.254306 -0.258936 0.009415 141 147 145
-0.315314 -0.239090 0.008511 141 145 140
-0.134660 -0.131237 0.010638 117 137 134
0.089476 -0.189215 0.024823 26 71 100
0.256529 0.328081 0.019058 137 141 134
-0.233956 -0.061242 0.430525 119 168 173
0.180567 -0.213503 0.019213 90 98 99
-0.288264 -0.067611 0.400639 123 165 166
-0.126920 0.525145 0.010587 141 141 137
-0.303735 -0.104479 0.011281 121 130 123
0.019958 -0.255592 0.015101 117 128 124
-0.187069 0.058957 0.009040 106 120 109
-0.448224 0.010961 0.424258 135 138 139
-0.324874 -0.094352 0.378216 65 78 73
0.110033 -0.069429 0.015436 110 122 114
-0.243523 -0.240985 0.009231 143 144 140
-0.282977 -0.221109 0.009512 135 142 136
0.285130 -0.263898 0.022635 143 140 135
0.106700 -0.209076 0.030292 63 111 142
0.145022 0.127285 0.014181 43 54 50
-0.014672 0.348107 0.010924 130 139 130
-0.060674 -0.002349 0.011061 111 127 118
-0.194639 -0.110797 0.008729 115 128 123
0.097324 0.499355 0.012279 135 133 125
-0.152431 -0.081658 0.010484 113 126 121
0.317152 0.179985 0.022724 135 136 132
0.243419 0.422297 0.018295 80 83 84
0.202385 0.362185 0.016845 135 139 134
0.088076 -0.276904 0.016135 119 127 124
-0.198689 -0.069345 0.339096 77 86 79
-0.310200 -0.097105 0.364652 51 63 55
-0.266523 -0.100948 0.375896 50 64 55
-0.346988 -0.082878 0.392561 88 99 97
0.184668 0.292784 0.014701 131 136 126
-0.287545 -0.227838 0.009921 137 146 137
0.289414 0.227771 0.019969 137 141 136
-0.064886 0.529014 0.010789 140 144 137
-0.297350 -0.183417 0.007769 134 143 136
0.018046 -0.145777 0.018422 107 122 119
0.093916 0.186844 0.011307 74 82 83
-0.125638 -0.079823 0.010811 109 124 119
-0.068137 0.061571 0.009551 103 118 104
0.148463 0.532273 0.014797 137 138 127
-0.284054 -0.175082 0.009038 134 141 135
-0.073938 0.315346 0.009649 53 64 62
0.243123 0.030227 0.018866 110 118 117
-0.318584 -0.032869 0.391447 74 85 81
0.132430 -0.294627 0.016933 121 125 118
0.335841 -0.096467 0.025159 136 133 130
-0.167599 -0.299246 0.011364 135 141 139
0.163830 0.120819 0.014255 118 127 120
0.184704 0.235411 0.013596 126 137 135
-0.470611 0.018725 0.435375 115 118 119
0.253340 -0.082248 0.021013 133 134 130
0.220347 -0.299922 0.019198 88 87 87
0.043414 -0.018675 0.013407 89 108 98
-0.136409 -0.124101 0.010925 39 51 55
-0.279762 -0.039239 0.022917 110 124 115
-0.205300 0.285481 0.011020 128 140 130
-0.073404 -0.258301 0.013026 125 133 130
0.365163 -0.139320 0.028529 144 144 138
0.375099 0.266569 0.031421 141 141 135
0.342966 -0.005053 0.027117 135 139 134
-0.154633 0.335679 0.011298 131 143 133
-0.213196 -0.121474 0.243024 13 21 20
-0.154295 -0.068185 0.009596 110 123 118
-0.117174 0.194885 0.039546 142 136 110
-0.262552 0.297883 0.013265 118 129 125
-0.076163 -0.031967 0.011054 43 56 51
0.260324 -0.202264 0.021878 142 143 139
0.285749 0.019130 0.021474 136 138 129
-0.458463 -0.019607 0.391096 88 91 90
-0.340810 -0.050405 0.398927 91 98 92
-0.494455 0.043002 0.438208 161 153 150
0.355437 -0.110116 0.027655 147 144 139
-0.285215 -0.098126 0.358586 46 60 51
-0.157844 -0.073878 0.009648 114 127 122
0.000467 0.267012 0.009706 103 116 113
0.360000 -0.233744 0.027362 143 143 137
-0.334938 0.005429 0.391280 83 92 85
-0.328429 -0.022372 0.390761 82 90 87
0.304791 0.424390 0.023487 143 144 138
0.006596 -0.255548 0.015005 112 120 117
0.157591 -0.074174 0.018621 119 126 120
0.142381 -0.019399 0.016315 107 116 107
0.056332 0.376837 0.011873 67 70 69
-0.090794 0.435467 0.012033 137 146 139
-0.074182 0.122320 0.007793 94 107 94
0.095120 -0.199627 0.025681 43 88 117
-0.367262 -0.060484 0.399001 137 162 169
0.360395 -0.271303 0.027551 149 144 142
-0.207095 -0.056780 0.397591 119 131 121
-0.070732 0.183179 0.007029 92 100 87
-0.465080 0.019387 0.434588 106 109 108
-0.311633 0.330069 0.009105 141 145 138
0.104270 0.214766 0.011296 117 126 119
0.163771 -0.124517 0.019994 101 114 113
-0.089917 -0.172175 0.011457 117 130 125
-0.231153 -0.258960 0.009247 146 153 147
-0.273549 -0.114767 0.009320 118 130 122
0.107173 -0.133016 0.082956 67 120 151
0.367555 -0.253524 0.027587 146 143 138
-0.340584 0.090529 0.368018 134 167 171
0.064866 0.118993 0.012065 106 120 111
-0.061606 0.155815 0.007506 100 108 95
0.227483 0.065794 0.017973 58 64 64
0.298901 0.174012 0.020973 138 139 133
-0.219299 0.435196 0.013017 143 147 140
-0.310980 0.042869 0.366507 86 95 88
0.135023 -0.051031 0.017572 92 95 96
-0.497593 0.002947 0.442514 139 139 135
-0.281415 -0.219413 0.009373 135 143 140
-0.025104 -0.184964 0.014146 118 131 128
-0.232025 -0.081065 0.427781 111 161 169
0.348007 -0.245055 0.026171 143 140 137
-0.212495 -0.087955 0.335596 158 173 170
0.300502 -0.001566 0.023015 131 132 126
-0.299811 -0.058444 0.394097 139 150 148
-0.127482 0.379836 0.011159 131 140 133
-0.027408 0.345012 0.011404 120 133 130
-0.268774 -0.080636 0.428773 125 171 177
-0.208176 -0.130859 0.008993 118 132 123
0.223588 0.052861 0.018741 124 133 126
0.204045 0.513964 0.017146 143 144 135
-0.101030 0.010185 0.009341 102 116 105
-0.425448 -0.000059 0.350922 38 39 35
-0.111102 -0.214944 0.011256 127 135 132
0.257489 -0.078523 0.021143 131 135 130
-0.340556 -0.082339 0.011042 128 132 125
0.220823 0.085312 0.016924 126 135 128
-0.288710 0.205790 0.065484 91 99 96
-0.197047 -0.076312 0.314695 27 41 43
-0.087751 0.361654 0.011978 135 147 137
0.200431 -0.076276 0.019607 120 126 124
0.226115 -0.228722 0.019530 113 117 112
-0.250119 -0.009010 0.052849 107 118 114
0.244252 -0.240590 0.020696 138 139 133
-0.318256 -0.098787 0.010588 121 130 123
-0.280039 -0.267225 0.011260 142 149 143
-0.208400 0.519942 0.011449 145 149 142
-0.322073 -0.047807 0.397225 72 83 79
0.397759 0.097392 0.033599 141 140 142
-0.005748 0.023947 0.011446 99 114 100
-0.432930 0.017724 0.419252 119 125 125
0.144737 0.469197 0.015720 136 138 129
0.379718 -0.243764 0.027817 147 144 139
0.329880 0.237136 0.024509 143 144 140
-0.025857 -0.235772 0.014828 118 131 128
-0.298694 -0.000778 0.346747 83 102 102
0.006293 0.392366 0.011158 135 139 132
-0.335605 -0.029087 0.394419 83 91 88
0.397530 0.023970 0.034895 68 66 73
0.281350 0.467491 0.020446 103 107 102
-0.437562 0.022825 0.422409 116 119 120
0.257136 -0.070729 0.020431 135 139 134
0.158260 -0.083614 0.018752 120 128 125
0.036673 -0.210400 0.044271 43 91 124
-0.177624 0.234991 0.043834 133 123 91
-0.203446 -0.061633 0.373544 25 33 30
-0.283239 -0.083185 0.401708 105 142 145
-0.054163 -0.133530 0.012712 117 137 130
0.123691 0.011193 0.014425 109 118 109
0.163831 0.172716 0.013184 121 130 123
-0.026362 -0.210687 0.014711 113 131 125
0.196599 -0.117233 0.020130 114 123 116
0.053168 -0.101691 0.016434 60 80 77
0.041682 0.175856 0.009695 107 121 110
-0.097459 -0.107591 0.010808 116 129 124
0.271804 -0.091479 0.020800 89 95 95
-0.153360 0.095384 0.008453 104 119 105
0.310218 0.024351 0.023772 82 82 82
-0.185473 0.075718 0.009074 105 118 105
-0.244743 0.177734 0.028566 52 60 59
0.272609 0.465447 0.019437 143 143 137
-0.292663 -0.067715 0.395827 85 107 110
-0.294903 0.536828 0.009978 148 153 143
-0.308368 -0.083964 0.387469 75 86 82
0.050095 -0.048622 0.015433 77 86 77
-0.366339 -0.060001 0.398175 75 100 107
0.211682 -0.097142 0.020638 53 59 61
-0.210365 -0.085946 0.368731 65 83 79
-0.229952 -0.097163 0.351574 52 65 60
0.197247 -0.059212 0.019592 115 127 119
0.183595 -0.068460 0.018725 119 122 121
-0.092257 -0.014260 0.010729 100 116 107
-0.237452 -0.042570 0.429068 123 164 170
0.061819 0.427581 0.011557 131 140 133
0.136155 0.492659 0.014257 133 135 126
-0.269145 -0.257470 0.010535 140 147 139
-0.155446 0.125101 0.005441 99 105 88
-0.032808 0.308036 0.010166 126 138 128
-0.408099 -0.000020 0.395891 126 130 125
-0.320045 0.017415 0.382793 93 102 95
0.121609 -0.152851 0.063089 68 125 160
-0.205340 -0.123067 0.231393 26 37 33
-0.306483 0.349849 0.009844 140 147 141
-0.349012 -0.094435 0.383401 72 93 99
0.133164 0.031439 0.014734 106 115 106
0.298934 -0.214455 0.023250 131 135 130
-0.187607 -0.109076 0.009128 115 128 123
-0.149214 0.009521 0.010329 103 117 108
-0.276892 0.477992 0.009796 144 149 139
-0.247740 -0.291073 0.010803 139 146 140
0.264616 0.537232 0.018087 142 140 130
0.148929 -0.055133 0.018437 119 125 125
-0.149888 0.178097 0.014344 104 98 74
0.053474 0.364178 0.011387 125 133 132
0.043686 0.009633 0.012386 95 111 102
-0.222246 -0.077925 0.422385 119 165 171
-0.080891 -0.156284 0.011098 125 139 130
0.280899 -0.240950 0.022329 65 70 75
0.143596 -0.100597 0.019406 111 124 121
-0.223193 -0.093453 0.256070 13 21 20
0.376470 -0.132571 0.030048 66 60 64
0.391282 0.079317 0.031425 139 139 135
0.017432 -0.129470 0.017684 64 72 71
0.013830 0.330821 0.010762 123 132 125
0.021324 0.478912 0.011637 130 134 127
-0.293516 0.298185 0.008776 135 145 133
0.135720 -0.195958 0.060589 96 144 179
-0.196742 -0.071910 0.323810 40 51 60
-0.266651 -0.147067 0.009226 125 134 127
-0.368597 -0.041897 0.384030 80 83 82
-0.260740 -0.291076 0.011125 74 77 76
-0.341585 -0.198832 0.000182 155 159 152
0.351188 -0.186264 0.026703 141 141 135
0.120214 0.383834 0.014194 59 67 68
-0.014119 0.257839 0.008708 112 124 114
-0.271275 -0.081087 0.427192 126 170 175
-0.309829 -0.067132 0.394510 81 92 88
-0.026260 0.206153 0.007909 94 106 96
-0.102822 0.510139 0.011909 144 148 141
0.376864 -0.225545 0.027851 145 146 142
-0.217445 -0.059717 0.006566 104 118 109
-0.079787 0.048914 0.009751 106 122 113
0.189640 0.209177 0.014236 133 137 130
0.252630 0.395130 0.019119 138 138 138
-0.029511 0.344927 0.011478 120 133 130
0.243830 -0.000684 0.020229 124 130 128
-0.344515 0.101270 0.360647 133 162 163
0.070887 0.003142 0.013814 103 115 105
0.333889 0.263044 0.025190 120 123 124
-0.319892 0.015861 0.382821 93 102 95
-0.000375 0.291676 0.009365 121 130 121
-0.343138 -0.295551 0.011365 168 169 160
0.075682 -0.026912 0.014725 104 118 109
0.338995 -0.038125 0.026356 139 145 145
0.111772 -0.289659 0.015729 98 108 111
-0.252794 -0.055729 0.016314 107 120 115
-0.389005 -0.006335 0.385397 72 83 81
-0.131127 0.237021 0.065704 142 134 108
-0.139953 -0.010170 0.009854 10 30 27
0.303375 -0.168336 0.024410 139 140 134
0.023629 0.397920 0.011150 77 81 76
0.012880 0.482569 0.010478 135 139 132
0.113100 -0.136828 0.084278 73 121 152
-0.257308 0.538183 0.012384 130 130 130
0.202348 -0.276040 0.019104 132 133 129
-0.326057 -0.212000 0.006169 95 98 97
-0.180419 0.404061 0.012679 139 146 138
-0.331012 0.038752 0.389811 85 94 87
-0.049626 0.164403 0.008420 96 106 94
-0.289784 0.007188 0.037212 113 128 114
-0.018429 0.203538 0.008520 97 109 99
-0.299273 -0.090032 0.012168 123 134 132
-0.097332 0.173408 0.063843 142 139 107
-0.105731 -0.064426 0.010111 72 85 82
0.095490 0.504819 0.012460 136 137 133
0.257772 0.214535 0.018059 134 138 133
-0.282149 -0.206062 0.009812 125 140 135
-0.029082 -0.080292 0.012970 113 126 121
0.122109 -0.201142 0.039824 89 137 170
-0.319278 -0.210536 0.007193 142 143 139
0.319876 0.235419 0.023323 142 143 139
-0.331569 -0.088977 0.008716 125 136 136
-0.219668 -0.095938 0.401362 84 124 126
0.317628 0.184208 0.023308 94 94 94
-0.319191 -0.068891 0.395033 88 96 93
-0.169622 -0.269081 0.011140 140 147 141
0.367105 -0.298509 0.029053 146 143 138
0.251870 -0.297022 0.020351 107 107 109
0.313076 0.254947 0.022526 136 139 138
-0.333670 -0.115329 0.004819 130 139 132
-0.093473 0.185223 0.066205 134 130 103
0.236458 0.201539 0.016111 133 140 132
-0.338867 -0.072645 0.015449 121 131 119
-0.245874 -0.027688 0.051977 30 40 43
-0.009444 0.139830 0.009008 100 116 107
0.116949 0.396600 0.014627 126 135 128
-0.176805 -0.234531 0.009427 133 142 135
-0.019590 0.046868 0.010498 102 118 109
0.122707 0.439463 0.014756 88 92 87
-0.243398 -0.056615 0.431691 123 171 179
0.096139 0.542543 0.012008 82 81 83
-0.303627 -0.075081 0.391474 39 52 49
-0.361536 -0.001544 0.392270 68 75 69
-0.201034 -0.064338 0.009025 69 84 79
0.373915 -0.238846 0.027994 113 107 111
-0.172984 0.144263 0.014437 90 84 58
-0.173300 -0.121989 0.009718 116 127 123
0.130920 -0.206311 0.055368 95 141 173
0.180973 -0.139278 0.021302 48 56 57
0.129638 0.052169 0.014495 102 116 105
0.198136 -0.167640 0.021524 106 113 107
-0.096998 -0.079706 0.010692 114 126 118
-0.239795 -0.287830 0.009951 139 146 140
0.088544 0.355855 0.012821 100 111 109
-0.048081 0.279089 0.008960 117 131 120
0.355905 -0.059972 0.028458 137 141 134
-0.329047 0.307014 0.006122 65 65 67
-0.113340 0.119766 0.074418 114 114 94
-0.319751 0.397006 0.008883 143 145 134
-0.098782 -0.186085 0.011637 122 135 132
0.355937 -0.291996 0.027627 143 141 133
0.278483 0.261810 0.018839 133 139 139
0.231778 0.211033 0.015726 132 139 133
0.189785 0.094680 0.014867 122 134 126
0.100212 0.287096 0.010701 123 132 125
-0.151297 0.060682 0.010289 100 114 103
-0.122527 0.128871 0.007104 95 100 86
-0.308286 0.458357 0.009558 143 145 136
-0.312093 -0.017431 0.380760 125 131 131
-0.216997 0.143445 0.023086 69 73 66
-0.094834 0.452086 0.011590 134 143 134
0.124408 0.019153 0.014746 106 115 106
-0.072409 0.115729 0.007899 96 109 96
-0.230862 0.465063 0.012883 135 141 139
-0.273522 0.502294 0.010819 132 134 125
-0.006659 -0.125282 0.015589 114 127 124
-0.125376 0.232363 0.065906 142 137 108
-0.228764 -0.096856 0.350949 52 65 60
0.056720 -0.206806 0.027719 32 78 110
-0.288769 -0.183518 0.008190 134 138 133
0.221015 0.449955 0.017217 135 135 135
-0.405255 0.014052 0.408126 136 139 140
-0.439197 0.046114 0.421612 154 151 148
0.397826 -0.091610 0.033404 91 85 89
-0.264941 -0.273615 0.010952 140 147 141
0.378187 0.109494 0.030704 142 143 139
-0.311747 -0.198605 0.006809 135 142 136
0.252990 0.333071 0.019087 138 142 137
-0.063403 -0.093003 0.011627 121 132 128
-0.135837 0.449292 0.010842 142 145 144
-0.076125 -0.030066 0.011179 40 51 47
-0.059562 0.229600 0.007314 85 93 90
0.330959 -0.280533 0.025576 143 140 135
0.107518 -0.212859 0.032334 70 118 151
-0.167901 0.226721 0.028247 125 115 83
-0.107830 -0.224951 0.010982 130 139 132
-0.350805 -0.085736 0.390188 91 102 102
0.067392 -0.239770 0.044054 35 86 118
-0.399962 0.043952 0.411045 151 152 146
0.105130 0.407553 0.013967 130 139 132
-0.312018 0.482465 0.007158 144 148 141
-0.023410 -0.253886 0.015168 117 125 122
0.118755 -0.192052 0.036896 81 129 160
-0.307875 -0.049916 0.020636 39 45 43
0.157041 -0.003567 0.016540 113 122 115
0.256649 0.248270 0.017099 139 139 139
0.278265 -0.236033 0.022589 129 129 125
0.009103 -0.295549 0.014863 117 126 119
0.268257 0.531274 0.018356 146 144 134
-0.344595 -0.082871 0.392583 87 98 94
-0.107100 -0.027927 0.010368 33 52 42
0.389076 -0.195686 0.030274 144 144 138
0.209460 0.206934 0.014430 112 116 111
-0.324538 -0.272880 0.007064 73 72 72
-0.298015 0.034521 0.042375 118 134 125
0.003140 -0.286014 0.014606 84 78 82
-0.392393 0.012136 0.404665 128 134 132
-0.272883 -0.127420 0.009257 118 127 120
-0.482649 0.000519 0.432142 137 137 133
0.008509 0.532640 0.011502 136 137 131
0.007144 -0.156081 0.017223 121 136 133
0.223966 -0.230488 0.020052 112 116 111
0.310302 0.490987 0.022842 141 139 129
0.308809 0.508913 0.021724 146 144 136
0.085962 0.465314 0.012626 129 133 128
-0.230374 0.153031 0.029233 120 125 115
0.189470 -0.183001 0.020319 107 113 111
-0.315558 -0.235794 0.008490 140 144 139
0.046312 0.021598 0.012820 95 109 100
-0.181884 0.511146 0.012290 144 148 141
0.231836 0.398159 0.018231 137 138 132
-0.221401 -0.107644 0.253695 54 65 63
-0.376533 -0.089245 0.386106 128 160 167
-0.431126 0.022076 0.419460 114 120 122
0.296518 -0.199188 0.023297 147 144 139
-0.067475 0.420102 0.011551 129 132 131
0.271792 -0.284587 0.021660 145 142 137
-0.090941 0.160244 0.007146 96 104 91
0.136706 0.011135 0.014720 111 118 112
-0.231087 -0.173193 0.008442 37 48 46
-0.303187 -0.005789 0.364663 67 80 75
0.116225 0.362707 0.014512 125 133 130
0.066942 0.473744 0.012107 135 136 130
0.278356 -0.038416 0.021406 127 136 129
-0.198870 -0.225927 0.008039 90 99 92
0.359364 0.083388 0.027048 135 139 132
-0.188600 -0.147110 0.009628 123 134 130
-0.022346 0.368095 0.011574 132 139 131
0.073986 0.265323 0.009926 67 73 71
0.023744 0.526779 0.011933 133 134 128
-0.043037 0.025880 0.011209 113 131 127
-0.074277 0.403592 0.012064 141 148 140
-0.199259 -0.075120 0.324314 137 150 149
0.241685 0.072095 0.018207 78 84 82
-0.273454 0.356591 0.011687 140 147 139
0.370808 -0.024357 0.031314 136 142 140
-0.348279 -0.000325 0.390657 98 105 99
-0.197115 -0.082654 0.280287 20 31 29
0.001787 0.387029 0.011168 128 139 135
0.012644 -0.266818 0.014470 114 122 121
0.185685 0.174654 0.014119 130 139 130
0.102725 -0.129796 0.089115 71 119 150
-0.194871 0.502244 0.012489 75 74 78
-0.046962 -0.218855 0.013621 121 129 126
0.025518 0.238859 0.009145 116 125 116
-0.326080 0.461316 0.005761 77 81 76
0.394836 0.432482 0.034910 150 145 141
0.123082 -0.044979 0.016711 109 122 117
-0.364386 0.028951 0.400693 86 94 91
0.102646 0.152231 0.012521 112 124 116
-0.496809 -0.009304 0.427428 107 111 104
0.075328 -0.129032 0.069780 54 105 137
0.118005 -0.023407 0.016242 112 118 116
0.137116 0.266667 0.012670 110 118 115
-0.151721 -0.216496 0.010822 133 142 135
-0.219204 -0.114436 0.008537 119 130 126
0.214582 -0.213671 0.019868 83 92 85
0.151067 0.200815 0.012046 119 131 121
0.270719 0.040168 0.019951 127 134 128
-0.039140 0.501041 0.010756 97 97 93
0.373620 0.478819 0.031528 105 102 99
0.246388 -0.124992 0.022027 125 126 122
0.134113 -0.267378 0.016203 117 125 122
0.001935 0.135012 0.009900 103 117 106
-0.202161 -0.115276 0.242716 20 26 26
-0.337976 -0.216411 0.003131 157 158 152
-0.358596 -0.095824 0.377942 108 142 152
-0.302764 -0.179846 0.007266 132 141 134
0.106087 0.525654 0.011739 137 138 132
0.000017 0.442872 0.011487 131 140 131
0.008490 0.262649 0.009136 115 127 119
0.215840 -0.205190 0.019823 53 56 55
-0.290649 -0.180134 0.008468 132 139 133
0.239236 0.067940 0.018046 88 90 96
0.184723 0.273508 0.014198 130 139 132
-0.296673 -0.287881 0.011578 137 142 132
0.013361 -0.138462 0.017737 113 128 125
0.309276 0.229179 0.021806 137 138 134
-0.283442 0.304343 0.010721 124 136 126
-0.242083 -0.114368 0.008182 117 129 121
-0.269481 -0.089389 0.010431 108 122 113
-0.351860 -0.095870 0.380835 115 147 156
-0.149498 0.084428 0.009090 106 120 109
-0.372525 -0.090186 0.382717 126 158 167
0.189118 -0.264625 0.018440 112 116 111
0.267819 -0.082198 0.020980 134 138 133
-0.014780 0.448901 0.010511 133 140 132
0.301996 -0.110507 0.022686 136 136 130
-0.283718 -0.017346 0.030754 103 121 117
-0.444919 -0.009890 0.392209 54 65 61
0.176471 -0.144897 0.022230 104 112 109
-0.033886 -0.109933 0.012839 115 130 127
0.359248 0.518336 0.028018 150 148 140
-0.249703 -0.048556 0.431808 128 172 179
0.262960 -0.078476 0.021048 130 134 129
-0.276987 -0.000378 0.396525 39 47 44
-0.176756 -0.001096 0.011496 97 113 102
0.272934 -0.095250 0.020959 129 132 131
0.387119 -0.253789 0.028899 146 143 138
0.294271 -0.294395 0.023369 141 142 133
0.308497 0.124599 0.021700 133 137 132
-0.261258 -0.089708 0.428633 127 171 178
-0.121154 -0.201295 0.010780 125 134 125
0.136027 -0.264223 0.016683 114 122 119
0.369187 0.217953 0.029431 132 127 125
0.244738 -0.191989 0.021857 126 130 125
-0.460820 0.015830 0.431513 75 74 81
0.223250 0.023804 0.019293 118 131 128
0.378788 -0.066596 0.031267 146 146 142
0.190788 -0.275956 0.018742 121 122 116
-0.318280 0.477256 0.006634 147 148 142
-0.253981 -0.232599 0.008571 136 142 140
0.304795 0.511760 0.021638 147 144 139
-0.003928 -0.139688 0.015669 111 129 125
-0.358195 -0.007441 0.387651 44 50 48
-0.118088 -0.238304 0.011449 131 139 136
-0.187301 0.305312 0.011137 79 87 84
0.116411 0.545243 0.012649 131 134 133
-0.457190 0.143836 0.099089 69 81 73
-0.069853 0.140083 0.007599 91 104 89
0.153062 0.090902 0.013313 112 124 116
-0.217177 -0.090489 0.322685 90 104 95
-0.407660 0.012806 0.407724 129 135 135
0.028655 -0.096119 0.016178 103 121 115
-0.225549 -0.051378 0.425655 123 164 170
0.025821 -0.134918 0.017918 105 122 123
-0.161691 -0.234732 0.010376 134 137 136
-0.230959 0.264393 0.013041 68 76 77
0.067543 0.385050 0.011624 121 129 126
0.219412 0.531564 0.017031 127 127 121
-0.215541 -0.229404 0.008919 132 140 137
-0.154747 0.007454 0.010406 101 115 106
0.388821 0.385105 0.034342 146 146 142
0.273681 -0.160996 0.023124 137 138 134
-0.012268 0.405623 0.010759 132 139 133
0.277452 -0.202329 0.022125 117 117 111
-0.024577 0.538538 0.010683 136 138 127
0.008390 0.437433 0.011660 132 139 131
0.039002 0.519255 0.011080 134 138 131
-0.266351 0.486008 0.010380 141 146 136
-0.328019 -0.003948 0.389696 38 41 40
0.013830 0.038496 0.011191 96 108 100
-0.046248 0.089735 0.008480 33 47 38
-0.364858 0.034519 0.401495 92 96 89
-0.213770 -0.283185 0.010147 91 93 99
-0.251625 -0.136140 0.008438 121 132 128
0.381439 0.280678 0.032175 144 144 138
0.075331 0.201359 0.009872 115 127 119
-0.357038 -0.077769 0.393065 100 111 111
-0.096358 -0.145689 0.011235 119 130 126
-0.427798 0.022656 0.418727 116 119 120
-0.184327 0.009590 0.009742 99 115 104
0.026120 -0.182459 0.059746 47 98 132
-0.238301 -0.247441 0.008595 137 146 139
0.232313 0.279944 0.016365 133 140 132
0.081655 0.043845 0.013924 36 49 44
-0.309680 0.370157 0.010070 141 148 140
-0.194996 0.215786 0.037586 122 110 79
0.378428 -0.096271 0.030553 148 144 137
0.370602 0.107866 0.029580 135 142 136
-0.306940 -0.167792 0.007673 125 137 129
-0.469493 0.018839 0.435243 114 117 118
-0.204924 -0.067642 0.387038 79 92 87
-0.155353 -0.178791 0.010056 125 139 130
-0.182773 -0.272251 0.011112 140 146 144
0.112900 0.114557 0.012934 46 52 50
-0.106407 0.219276 0.068770 139 139 119
0.263975 -0.242432 0.021567 142 138 139
-0.327982 0.072227 0.368269 136 169 173
0.222426 0.282540 0.015973 136 140 133
-0.315262 -0.098773 0.356635 47 59 51
0.209552 0.277718 0.015633 129 133 128
-0.046749 0.467288 0.010860 135 142 136
0.251584 -0.057711 0.021230 127 134 128
-0.333278 0.013208 0.391000 85 92 86
0.115209 0.118862 0.013079 108 119 119
-0.439717 -0.009963 0.385522 43 51 50
0.089167 -0.284765 0.015277 121 127 125
-0.306759 -0.000108 0.391063 32 38 40
-0.260341 -0.136108 0.008291 121 132 128
0.369924 -0.028346 0.031529 135 141 139
0.283870 0.453799 0.020399 111 117 115
-0.055526 -0.014309 0.011258 110 129 117
-0.139912 -0.134806 0.010519 116 130 121
-0.206880 -0.105973 0.264456 14 22 21
0.055792 0.152838 0.010692 107 121 110
-0.015018 -0.188513 0.014581 113 126 123
0.001738 0.025710 0.012160 94 110 101
0.343940 -0.070574 0.026156 138 142 135
-0.495851 0.033464 0.444623 159 151 148
-0.244312 -0.060726 0.431744 125 171 177
-0.141547 -0.239764 0.010626 130 139 132
0.242330 0.117363 0.017847 103 114 112
0.186143 0.096757 0.014956 122 134 126
-0.026112 0.495726 0.010660 131 138 130
0.040588 0.395616 0.011056 132 139 133
0.198077 0.070742 0.016031 125 132 126
0.367348 -0.033872 0.030720 92 88 89
-0.352488 0.030667 0.398519 87 94 88
-0.098228 -0.043580 0.010778 108 122 113
0.070271 -0.291117 0.015719 100 113 110
0.130892 -0.224872 0.065960 94 138 172
0.242988 -0.113871 0.021354 109 109 105
0.228819 -0.126481 0.020845 124 128 121
0.365397 0.021799 0.030253 49 51 57
0.204658 -0.198439 0.020158 108 114 112
-0.305889 0.036478 0.038044 122 136 125
-0.089393 -0.055239 0.011222 109 122 117
-0.333338 -0.119058 0.005123 131 140 133
-0.245944 -0.185467 0.009127 128 140 132
-0.448236 0.009886 0.423704 131 134 135
0.271737 -0.227455 0.021289 141 138 135
0.258038 -0.028506 0.020758 129 136 130
-0.163925 -0.180447 0.009742 122 135 130
0.126074 -0.069722 0.016416 114 122 119
-0.255414 0.374538 0.012137 140 142 133
-0.306901 0.050834 0.355194 130 153 158
-0.045037 0.523987 0.010427 137 141 134
0.017876 -0.175627 0.018455 111 128 129
-0.111798 0.213175 0.057238 146 139 108
0.311644 0.471038 0.023346 132 133 127
-0.260118 -0.101996 0.009505 113 122 113
0.118025 0.409750 0.014797 134 141 133
0.213409 0.441372 0.017531 132 141 134
-0.202427 -0.065357 0.367267 64 78 69
-0.241376 0.456860 0.012646 139 146 140
0.148065 -0.173843 0.096957 103 127 141
0.109007 0.350323 0.013734 128 135 129
-0.434469 0.000180 0.406149 136 142 140
0.215501 0.477639 0.017029 138 139 133
0.367696 0.032275 0.029584 133 144 142
-0.157964 -0.280355 0.011499 137 140 139
0.232277 -0.162203 0.020914 115 122 114
-0.124763 0.172335 0.028333 124 118 92
-0.063782 -0.045542 0.011205 119 131 123
0.040150 0.152996 0.010161 105 117 107
0.354842 -0.113695 0.027396 148 145 140
0.039163 -0.026610 0.013563 93 109 100
0.097357 0.528314 0.011792 132 132 132
-0.379561 0.035466 0.408347 142 146 141
0.118746 -0.141129 0.092922 75 123 156
-0.135958 0.304781 0.009342 75 75 79
0.365871 0.496334 0.030538 135 132 129
0.045997 -0.287713 0.014518 52 59 63
-0.048924 -0.035888 0.011412 116 130 121
0.305927 0.260120 0.021858 73 72 79
0.341100 -0.187665 0.025345 66 67 63
0.327298 0.048665 0.024688 137 137 131
-0.105117 0.298362 0.008478 49 63 52
-0.004785 0.333404 0.010342 124 133 126
0.378968 -0.128984 0.030098 141 141 135
-0.315608 0.055445 0.369115 142 170 174
0.258691 0.296129 0.018343 135 142 136
-0.254161 -0.028883 0.035874 107 122 117
0.274760 -0.255768 0.022716 139 139 133
0.074718 -0.227271 0.029990 32 78 112
-0.368152 0.017200 0.399996 84 90 88
0.034677 -0.260485 0.015017 117 128 124
-0.316806 -0.086174 0.386339 79 90 86
0.152727 -0.098748 0.019464 112 123 119
0.047841 -0.216702 0.035030 40 86 120
0.384068 -0.197158 0.029253 146 146 140
-0.140168 0.519530 0.010201 142 146 139
0.018324 -0.173075 0.081389 55 108 139
-0.242241 -0.056581 0.431654 123 171 179
0.345634 -0.223489 0.026111 139 139 135
0.127399 -0.296138 0.016543 120 123 122
0.240453 -0.220694 0.021149 133 137 132
0.231119 -0.122860 0.020876 127 131 126
-0.165258 -0.049143 0.009555 102 117 114
-0.123398 -0.006227 0.010095 97 111 102
-0.260510 -0.080257 0.430566 125 171 177
0.305947 0.219983 0.021409 57 63 61
0.191581 0.209058 0.014462 134 138 131
-0.455543 -0.010734 0.400089 60 63 64
-0.009738 0.174002 0.008130 105 116 112
-0.303571 -0.237728 0.009945 147 151 146
-0.237426 -0.084634 0.429338 117 165 173
-0.084126 -0.218587 0.012496 126 137 133
-0.034990 -0.214022 0.014571 111 126 123
0.321523 -0.098068 0.024280 135 139 132
0.018304 -0.224674 0.017242 108 119 119
-0.479362 -0.005108 0.425827 145 145 141
-0.084471 -0.233607 0.012583 125 133 130
-0.242829 -0.292587 0.010238 140 144 139
-0.030907 -0.039966 0.012120 115 129 120
0.203634 0.488917 0.016683 135 140 130
-0.309735 0.058470 0.358199 133 168 171
-0.112245 -0.165034 0.010845 49 63 67
-0.274376 0.377182 0.011705 136 143 135
-0.228886 -0.075471 0.427357 114 164 172
0.172336 -0.278964 0.017741 124 128 123
0.399881 0.141932 0.035621 128 131 130
0.088498 0.035614 0.013995 101 113 105
0.349350 0.536892 0.026383 83 74 81
-0.009893 -0.186992 0.015430 109 121 123
-0.076009 -0.230396 0.013076 125 136 132
-0.318818 -0.148117 0.006397 132 139 133
-0.129230 -0.083605 0.010893 117 130 125
-0.195480 -0.066878 0.325583 32 50 48
-0.226990 0.154883 0.022199 119 127 114
0.203556 -0.279244 0.019087 132 132 126
-0.148720 -0.118758 0.011190 116 129 124
0.337221 -0.168914 0.026727 143 143 137
0.076796 0.099237 0.012704 100 116 107
0.201198 0.204665 0.014196 131 138 132
0.004910 0.316385 0.009670 121 133 125
-0.271327 -0.007318 0.034799 106 122 113
-0.380584 -0.095866 0.349684 101 126 133
-0.111579 -0.253218 0.012273 131 140 133
0.299863 -0.141482 0.023247 135 136 130
0.337011 0.310984 0.026826 117 117 119
0.397947 -0.035530 0.035324 139 138 140
-0.448144 0.028007 0.429323 147 144 141
0.288052 0.349347 0.021835 141 141 137
0.041554 -0.114568 0.016472 111 126 121
-0.010590 -0.265178 0.014651 121 129 128
-0.152375 0.297087 0.009427 131 141 129
-0.183576 -0.231208 0.009437 133 141 138
0.007730 -0.265212 0.014594 114 122 121
0.362168 0.296266 0.030552 103 109 111
0.214291 0.065973 0.017416 57 60 63
-0.191581 0.004976 0.011099 96 115 103
-0.112005 -0.290117 0.012361 133 141 138
-0.248274 -0.279971 0.010559 145 149 144
-0.239281 -0.298900 0.010471 149 150 146
-0.314624 -0.158694 0.006331 128 136 133
0.130449 -0.283496 0.016745 119 126 120
0.084041 0.163775 0.011680 112 123 119
0.006311 0.108464 0.010515 46 59 56
-0.078520 0.023925 0.010582 73 89 78
0.125398 -0.007163 0.015232 110 119 112
0.127986 -0.201670 0.049484 94 142 173
-0.324206 -0.119730 0.007428 127 130 129
-0.098211 0.074160 0.009171 101 117 106
-0.308521 -0.069527 0.393857 80 91 87
0.352471 -0.160391 0.027699 150 145 143
-0.112577 -0.027924 0.010304 104 118 109
-0.308787 -0.072634 0.015672 119 128 121
-0.312397 0.302276 0.006128 138 145 137
-0.452933 -0.003923 0.414017 92 91 95
-0.067228 -0.274432 0.012999 139 145 143
0.355718 0.483829 0.028658 147 147 141
0.380819 0.198277 0.031446 140 140 140
0.048451 0.282103 0.009879 119 128 121
0.151940 -0.193620 0.091590 102 135 160
0.330442 -0.233283 0.025174 144 144 138
0.312309 0.488610 0.022402 140 141 130
0.175079 0.067102 0.014515 49 55 55
-0.479842 0.048833 0.429147 155 150 146
-0.101640 -0.150858 0.010615 121 134 129
-0.229067 -0.181818 0.008263 136 139 140
0.146498 0.486637 0.014928 133 135 126
0.021770 0.403178 0.011165 132 139 133
0.171232 -0.094840 0.018969 109 122 119
0.041767 -0.158756 0.046854 41 97 127
-0.299144 0.533764 0.010091 150 152 141
0.135393 0.533198 0.013530 133 138 126
-0.265669 0.233973 0.015298 56 65 58
-0.347644 0.014652 0.395291 86 90 85
-0.475334 -0.011865 0.414631 84 88 83
-0.019208 -0.061293 0.012778 105 121 112
-0.140128 0.366127 0.011865 133 142 133
-0.047966 -0.201834 0.013028 117 130 127
-0.125722 0.290421 0.008882 126 139 126
0.029508 -0.109134 0.016569 113 126 123
0.371473 -0.176349 0.028625 82 85 84
-0.040063 0.342191 0.011530 60 63 66
-0.332181 0.451868 0.003875 150 152 143
0.091748 0.093005 0.012501 107 121 110
0.082995 0.547729 0.012404 134 135 126
-0.183066 0.172359 0.015874 82 75 46
-0.282972 -0.163049 0.009669 56 61 66
-0.333227 -0.120824 0.004961 142 148 146
0.354385 0.450031 0.029410 144 144 138
-0.059237 -0.128075 0.012522 67 87 82
0.278036 0.039918 0.020596 126 133 127
-0.159014 0.104643 0.070865 119 120 93
-0.187804 -0.187295 0.009531 125 137 129
-0.339390 0.523106 -0.000931 164 166 155
0.341178 -0.140508 0.026307 124 124 126
0.199682 -0.053615 0.020007 63 69 67
0.291258 0.007013 0.021550 135 139 134
-0.309020 -0.275132 0.011210 148 148 142
-0.310646 0.002424 0.391706 45 53 54
-0.447051 -0.007680 0.397822 81 82 78
0.340923 0.116453 0.025179 136 137 131
-0.310351 -0.258914 0.010029 141 145 138
0.242793 0.484040 0.016657 140 141 135
-0.169773 0.240302 0.053358 133 126 95
0.341700 0.502289 0.026576 146 143 138
-0.330165 -0.112161 0.006417 80 91 87
-0.243834 -0.195657 0.008719 129 140 136
-0.349469 -0.081651 0.392778 91 102 100
0.026631 -0.075172 0.014950 101 116 111
-0.023094 0.011764 0.011306 111 125 116
0.067180 -0.040692 0.015033 105 117 109
0.216465 -0.174495 0.021033 100 103 104
0.117986 0.434193 0.014476 132 133 129
0.097130 -0.133262 0.060923 63 119 151
0.319757 0.344410 0.025599 142 144 135
0.068126 0.110377 0.011935 104 118 109
0.164726 0.110176 0.013771 117 125 122
-0.183890 -0.118448 0.009964 115 128 123
0.031873 0.512640 0.011928 127 135 124
-0.294088 0.030291 0.042953 85 103 101
0.361599 -0.069246 0.027913 144 144 138
-0.322277 -0.174115 0.005072 135 139 132
0.251647 0.182696 0.017055 139 148 141
0.368071 0.137932 0.030424 135 138 141
-0.009899 0.052999 0.010832 103 117 108
-0.215449 0.451763 0.012742 141 151 139
0.257647 0.534535 0.017734 139 136 133
0.066378 0.400472 0.012105 128 137 128
-0.295873 0.346794 0.010720 57 63 65
0.072268 0.301276 0.011117 111 123 115
-0.116866 -0.098509 0.011089 116 127 123
-0.038488 0.257978 0.008065 104 123 113
-0.004212 0.128457 0.009698 104 118 109
0.353695 -0.189831 0.027229 143 143 137
-0.001099 0.113115 0.009810 104 120 111
0.396612 0.371489 0.035275 132 131 131
0.300006 0.016729 0.022514 130 134 127
-0.341520 0.013974 0.394179 86 90 85
-0.185907 -0.197511 0.009248 126 134 131
0.283244 -0.115989 0.022539 137 138 134
0.111756 0.025009 0.015144 73 86 83
-0.160338 -0.197741 0.010220 128 137 130
-0.307837 -0.292455 0.010774 143 144 138
0.176888 0.183953 0.013692 72 78 80
0.224768 0.021680 0.019520 113 126 121
-0.331027 0.028563 0.391012 86 93 87
0.248359 0.028061 0.019205 88 91 92
0.097262 0.050029 0.014193 102 114 104
0.106343 0.262560 0.011016 116 127 123
-0.239799 0.408672 0.012355 141 148 140
0.101797 -0.128942 0.086372 68 119 151
-0.044870 -0.119109 0.012926 115 128 123
0.321995 0.018001 0.024518 135 140 130
-0.044070 -0.230610 0.013961 118 129 125
-0.249272 -0.148791 0.009097 123 132 125
0.381553 0.141323 0.032474 115 118 119
0.086863 0.037807 0.013669 100 114 105
-0.071720 -0.072156 0.010842 114 129 124
-0.078874 -0.142312 0.011985 120 133 128
0.372965 0.042116 0.030530 141 141 137
0.034196 0.395588 0.010966 131 138 132
-0.311625 -0.176250 0.006710 133 140 134
0.189272 0.415301 0.015942 126 133 127
-0.243651 0.459904 0.012244 140 147 141
0.260034 -0.214156 0.021989 133 133 133
0.341857 -0.153197 0.027159 140 141 137
0.225572 -0.298360 0.019154 131 131 125
0.380414 -0.171551 0.030300 70 64 68
0.193285 -0.193313 0.020224 106 114 115
-0.131741 0.363977 0.011466 133 142 135
-0.037176 -0.266611 0.013899 41 44 47
-0.179120 -0.292913 0.011218 138 144 142
-0.113116 0.100339 0.007742 103 113 101
-0.060629 -0.060935 0.011399 116 130 119
0.204492 0.324349 0.016283 135 139 134
0.054100 -0.289347 0.014695 96 107 107
-0.086949 0.067737 0.009550 99 114 98
0.109625 -0.152367 0.042674 75 128 161
-0.322938 0.215206 0.053885 77 84 76
-0.469594 -0.004865 0.423565 141 141 137
0.070130 -0.126135 0.088148 63 108 137
-0.302640 -0.295699 0.011510 150 151 145
-0.298170 -0.074196 0.014868 107 118 114
-0.033802 0.067938 0.009869 71 89 83
-0.163000 -0.096428 0.010048 115 128 123
0.135891 -0.265812 0.016499 116 124 121
-0.323035 -0.015099 0.383955 122 133 133
0.316754 -0.234822 0.024651 140 140 134
0.335326 0.541976 0.023764 142 139 134
0.086552 0.269992 0.010429 114 122 119
-0.306777 0.001072 0.391548 39 45 47
-0.098673 0.488314 0.011200 132 132 132
-0.192793 -0.074880 0.289751 26 37 35
-0.327335 -0.087920 0.386913 80 91 87
0.341155 -0.085565 0.026002 140 144 139
-0.037673 0.065853 0.009780 99 118 108
0.107671 -0.248334 0.064009 79 130 162
0.355302 -0.153517 0.028384 149 146 141
-0.093193 0.142394 0.007064 97 107 91
0.127081 -0.075657 0.017195 116 124 121
-0.163624 -0.209646 0.010337 129 135 135
0.160711 -0.266030 0.017508 116 117 113
0.360658 -0.013908 0.029612 124 124 120
-0.202627 -0.270470 0.010262 142 145 144
-0.483679 -0.000763 0.431898 144 144 138
-0.106106 -0.092701 0.010392 27 42 41
-0.318683 -0.047199 0.396253 71 79 76
0.176929 -0.005905 0.017612 46 57 55
0.125128 0.415784 0.014086 128 129 125
-0.188201 0.494324 0.012056 136 144 133
-0.275983 -0.047841 0.020478 118 130 122
0.319589 0.184180 0.023389 94 94 94
-0.450400 -0.004535 0.410657 115 114 116
0.289833 0.285564 0.019929 143 144 138
0.095403 0.050087 0.014043 102 114 106
-0.218847 -0.071354 0.007283 109 122 117
-0.145647 0.062835 0.010230 100 114 103
-0.001802 0.402532 0.011508 131 138 132
0.060357 -0.184616 0.027092 28 72 104
0.156667 -0.111529 0.019171 110 123 120
-0.008434 -0.159159 0.015494 42 59 60
-0.349829 0.080146 0.363917 148 174 174
0.133834 0.073485 0.013827 110 119 110
-0.213614 0.377381 0.012627 133 140 132
-0.430114 0.023534 0.419535 119 122 125
0.271747 -0.254101 0.022540 134 134 128
-0.341632 0.039776 0.394686 90 97 89
-0.103526 -0.033771 0.010398 103 122 112
0.226332 -0.070768 0.020281 125 132 126
-0.064587 -0.131584 0.012156 109 129 122
-0.328355 -0.163425 0.004215 36 41 48
-0.335442 -0.054730 0.399214 85 94 87
0.261090 -0.219115 0.021537 139 140 136
0.268020 -0.217540 0.022021 143 143 139
-0.007732 0.219753 0.008893 105 124 112
0.260833 0.376727 0.019315 133 140 132
0.383962 0.237760 0.031786 141 141 137
-0.024703 -0.063177 0.012675 108 124 115
0.058505 -0.184780 0.027781 30 76 108
0.207871 -0.284035 0.019023 130 131 127
-0.265142 -0.053059 0.019280 15 33 29
0.342120 0.090545 0.025268 135 140 130
-0.199292 -0.137847 0.008348 79 94 89
0.317006 -0.259464 0.024837 139 140 134
0.057420 -0.026768 0.014161 101 115 106
0.175331 -0.117209 0.019928 106 114 113
0.220486 0.248996 0.015352 134 138 131
-0.138120 -0.021983 0.009853 85 100 95
-0.183139 0.300721 0.010712 129 142 127
-0.240451 -0.195616 0.008530 128 139 135
0.316214 0.443397 0.023636 139 140 136
-0.271614 -0.074934 0.428049 127 171 176
0.088600 -0.153719 0.028342 26 72 106
0.375936 -0.245412 0.027880 144 143 143
-0.116161 0.483295 0.010201 135 142 134
-0.127469 -0.090944 0.010549 106 126 123
0.170008 0.249658 0.013448 128 137 130
0.204003 -0.276050 0.019143 132 133 129
-0.233487 -0.036827 0.424459 125 145 140
0.126883 0.487021 0.014094 134 132 124
0.275164 0.312832 0.019640 103 107 102
0.326581 0.023879 0.025047 86 90 85
-0.379396 -0.005525 0.388921 36 43 49
-0.353403 0.053749 0.394701 111 119 120
-0.318253 -0.223984 0.007413 139 146 140
-0.232185 0.370772 0.014100 130 131 127
-0.278528 -0.062354 0.427111 129 170 176
0.085352 0.427087 0.012622 126 133 125
-0.015695 0.269664 0.009080 117 129 119
-0.229083 -0.069431 0.428489 116 160 167
0.275308 -0.047789 0.020574 70 76 74
-0.002336 -0.141588 0.016082 110 128 124
-0.495187 -0.018515 0.406863 44 47 50
-0.048252 0.146405 0.008563 86 102 93
-0.033436 0.076544 0.009529 108 122 113
0.071897 0.061019 0.012639 92 108 97
-0.263793 -0.098406 0.009767 75 81 81
0.363322 -0.242019 0.027421 148 143 139
-0.113297 -0.096662 0.011123 116 127 123
-0.398018 -0.010681 0.378014 55 61 59
0.115305 0.250036 0.011903 49 57 56
0.372490 -0.004953 0.032005 145 145 139
-0.041287 0.370078 0.012000 72 79 73
-0.388758 0.032671 0.409895 135 135 135
-0.298727 0.525282 0.009979 151 152 141
0.083212 -0.257544 0.016252 108 121 120
-0.140075 0.307066 0.009545 86 92 90
-0.033063 0.185201 0.008103 87 100 87
0.268242 0.095724 0.018196 127 131 126
0.181672 0.209274 0.013942 129 132 131
0.103431 -0.251941 0.066592 75 126 158
-0.203105 -0.080405 0.323077 98 116 112
-0.268555 -0.109334 0.009472 116 130 121
0.066767 -0.255755 0.015498 100 118 116
0.044220 0.419902 0.010731 124 136 128
-0.119053 0.379870 0.011279 132 140 137
-0.324167 -0.172305 0.004784 134 138 133
-0.288238 -0.267221 0.011361 140 147 141
-0.230619 -0.271921 0.009729 151 155 150
-0.185399 0.315089 0.011401 136 143 135
0.395959 -0.177098 0.031661 144 144 138
0.308304 -0.041096 0.023669 131 134 133
-0.071420 0.008056 0.009975 108 122 113
-0.481127 -0.004832 0.427474 148 147 147
0.314029 0.196371 0.022114 140 140 136
0.373679 0.082437 0.029159 137 141 136
-0.225610 -0.093038 0.279568 11 22 20
-0.191364 -0.069583 0.294573 34 42 39
0.079923 -0.061913 0.015412 111 123 115
-0.029704 0.276977 0.008811 121 130 121
0.236268 -0.292167 0.019826 120 124 117
0.084299 -0.134896 0.048698 53 106 139
0.368545 0.360731 0.031987 117 117 119
-0.246194 -0.097406 0.426226 106 152 158
-0.017287 -0.298549 0.014403 119 125 123
0.326851 -0.088750 0.024245 140 140 134
0.144405 0.120810 0.013975 53 65 57
0.042578 0.189644 0.009606 110 121 117
0.208267 0.230385 0.014450 131 138 132
0.296078 0.495326 0.020844 141 140 125
-0.020701 -0.200406 0.014201 120 133 130
-0.329663 0.050003 0.030409 104 113 106
-0.175541 0.045217 0.012024 101 117 108
-0.167492 -0.008713 0.010828 72 80 81
-0.335312 -0.187367 0.002591 140 147 141
0.238609 0.248693 0.016134 135 139 134
-0.187226 0.300502 0.010946 130 140 126
0.113542 0.060801 0.013671 47 47 47
0.297970 0.155846 0.021153 136 140 133
-0.198163 -0.075681 0.319463 26 36 39
-0.394873 -0.007170 0.381948 69 77 76
-0.285539 0.525340 0.010188 149 150 144
0.095840 0.424178 0.013090 117 125 122
-0.316294 -0.065338 0.016195 119 128 121
0.059631 0.361612 0.011479 123 134 130
-0.319372 -0.009370 0.379670 50 55 60
-0.341361 -0.111036 0.002661 132 139 133
-0.419182 0.015820 0.411730 132 138 136
0.205741 0.297479 0.015447 134 138 133
0.355117 0.375538 0.029314 116 117 113
-0.179582 0.233601 0.042396 131 119 88
0.148619 -0.058814 0.018038 115 121 121
-0.040924 -0.109798 0.012359 86 99 98
0.177208 0.362438 0.016032 129 136 130
0.237559 0.137596 0.016952 126 133 127
0.226192 0.215434 0.016073 132 139 133
-0.498571 0.041471 0.441973 160 152 149
-0.309494 -0.077646 0.391037 78 91 86
0.294534 0.530328 0.019919 143 144 140
-0.235556 -0.099894 0.008841 114 127 126
-0.332028 0.480971 0.002117 153 155 144
-0.110931 -0.045313 0.010126 114 127 122
-0.066276 -0.187992 0.012396 131 139 136
0.366079 -0.088549 0.029540 133 133 129
-0.056947 0.332666 0.010365 127 135 124
-0.270606 0.293729 0.012040 128 137 128
0.185629 -0.157080 0.021433 109 112 111
0.019703 0.405483 0.011560 128 137 130
-0.254055 -0.230953 0.008627 138 144 142
0.055253 0.171397 0.009766 105 121 112
-0.093814 0.001682 0.010577 101 117 108
-0.211645 -0.089292 0.307657 22 35 32
0.204309 -0.047611 0.019401 120 127 121
-0.083157 0.262156 0.008239 105 113 102
-0.061420 -0.298265 0.013280 131 139 136
0.264583 -0.173306 0.023298 123 127 122
-0.456965 -0.016601 0.393293 18 26 27
0.275390 -0.150433 0.023298 129 133 126
-0.366710 -0.067920 0.397481 138 172 178
0.314214 -0.223004 0.023880 140 136 137
-0.273836 -0.099823 0.376268 45 60 55
-0.030306 -0.296910 0.014192 122 128 128
0.132004 0.112280 0.013412 111 123 115
-0.043613 -0.261728 0.013765 121 129 128
-0.228838 0.329796 0.014447 142 149 143
-0.332108 -0.016297 0.388043 95 103 102
-0.109328 -0.206621 0.011814 120 133 130
-0.325337 -0.017775 0.026569 111 122 118
-0.320187 0.368589 0.008556 140 145 135
0.047774 0.238890 0.009487 112 124 114
-0.015301 0.229429 0.008352 114 127 124
0.119065 -0.084870 0.016604 106 121 118
-0.407790 0.028318 0.303006 35 36 27
-0.248073 -0.176723 0.008667 124 138 129
-0.302778 0.011366 0.352189 77 86 79
0.289533 0.084836 0.018871 133 137 132
0.039971 0.538592 0.011965 126 127 121
0.161115 0.370182 0.015762 131 138 132
0.011137 -0.263631 0.014766 116 124 123
-0.117123 0.080867 0.008168 103 117 106
-0.392206 -0.010827 0.380704 53 61 58
0.023920 0.176000 0.009157 106 115 108
-0.315863 -0.210599 0.007479 140 141 137
0.321630 -0.077554 0.024338 139 139 135
0.238512 -0.198822 0.021792 121 125 120
0.115195 -0.272170 0.016207 118 124 124
0.394283 0.454119 0.034977 128 125 122
0.357208 0.339099 0.029994 122 121 121
-0.209630 -0.079194 0.008279 107 123 114
-0.183526 0.229744 0.037613 131 119 88
0.143588 0.025004 0.015557 98 106 105
-0.240756 -0.227739 0.009084 135 142 136
0.109415 0.019082 0.014722 98 110 100
-0.291292 0.463577 0.010207 79 85 87
-0.250868 -0.227620 0.008539 138 144 142
0.160557 0.008877 0.015577 114 123 116
0.103156 -0.128222 0.094976 86 128 156
-0.159384 0.426269 0.012007 142 150 147
-0.236879 -0.240938 0.008904 139 140 136
0.347427 -0.160282 0.027272 147 144 141
-0.262483 0.499390 0.011147 146 142 135
-0.333367 -0.090512 0.007725 122 135 122
0.209708 0.117888 0.016358 77 84 78
-0.238787 -0.062412 0.008610 107 118 114
-0.146592 0.437475 0.011752 140 147 141
0.248173 0.089429 0.017629 127 134 128
0.267114 0.505413 0.018465 139 141 132
-0.232172 0.304914 0.014337 49 57 56
-0.190641 -0.289671 0.010801 135 143 140
-0.339354 -0.028990 0.394199 87 93 91
0.354108 0.344514 0.029493 140 144 137
-0.017476 -0.167794 0.014951 32 49 52
-0.150504 0.340755 0.011365 129 142 137
0.186570 0.452580 0.016660 64 71 65
-0.006231 0.300914 0.010187 118 129 127
-0.171082 -0.016181 0.009730 23 34 30
0.297951 -0.211019 0.022980 63 70 76
-0.332461 0.051844 0.389123 81 92 90
-0.110718 0.371657 0.011971 131 140 133
-0.333343 -0.092287 0.384741 76 89 84
-0.371850 -0.102930 0.355880 96 121 128
-0.057631 0.467134 0.010818 135 142 136
0.129380 -0.226259 0.064908 92 138 172
0.152227 0.103332 0.014247 110 118 115
-0.106870 0.334235 0.010729 128 137 130
0.026804 0.299175 0.009742 116 127 125
-0.031832 -0.102654 0.013089 113 128 123
0.092043 -0.088278 0.015401 120 133 128
0.302580 0.122729 0.021010 133 134 130
0.263452 0.143583 0.018580 135 142 136
0.388050 -0.175177 0.030905 143 140 135
-0.193382 -0.063790 0.209680 61 80 70
-0.221965 0.454444 0.012667 135 145 133
0.262956 0.061485 0.018699 124 133 124
0.049472 0.173658 0.009690 74 88 77
