ply
format ascii 1.0
element vertex 1218
property float x
property float y
property float z
property uchar red
property uchar green
property uchar blue
end_header
0.138917 -0.049042 0.017430 116 125 118
-0.244538 -0.136521 0.009818 118 130 122
0.219158 0.467873 0.015556 67 74 68
0.112051 0.233916 0.010955 121 130 121
0.271582 -0.132367 0.022650 61 61 63
-0.092352 -0.285751 0.014702 127 136 129
0.214592 -0.210577 0.021219 60 58 65
0.365173 -0.000038 0.029665 118 118 114
-0.264262 -0.078284 0.429369 123 172 177
0.305325 0.479780 0.019591 143 143 139
0.084001 -0.132969 0.017639 92 98 98
0.015742 -0.075397 0.015515 97 111 102
-0.485387 0.049087 0.430659 155 150 146
-0.275757 -0.283248 0.011863 80 80 76
0.135477 0.247823 0.011978 123 132 125
-0.192254 0.040817 0.012440 100 114 105
-0.169372 -0.286820 0.012608 128 140 130
0.391931 -0.189003 0.030981 147 144 139
0.352908 0.175918 0.026351 137 137 133
-0.100540 0.337737 0.009539 131 139 138
-0.115885 0.008111 0.009314 76 91 86
0.285046 0.489206 0.018018 84 84 78
0.140566 0.236230 0.011548 121 130 123
0.027128 0.077046 0.013689 94 108 99
0.170309 -0.129816 0.019596 116 119 120
-0.302019 -0.162760 0.008511 88 88 90
-0.440175 0.009770 0.426071 136 139 138
0.191551 0.454224 0.014831 124 136 126
0.391877 -0.271967 0.031336 149 144 140
0.095195 -0.231755 0.018917 128 137 130
-0.378496 0.019572 0.409312 114 125 121
-0.068058 0.298747 0.008610 123 137 126
0.329438 0.069957 0.023848 136 137 131
-0.357832 0.095220 0.359418 150 180 183
0.283709 0.226446 0.018241 107 110 109
0.216524 -0.263677 0.022219 72 72 68
-0.126687 -0.138253 0.041169 52 96 112
-0.328612 0.433557 0.006352 144 147 146
0.157720 -0.090723 0.017653 68 81 80
0.287812 -0.078817 0.022251 135 136 130
0.380959 0.080367 0.029167 143 140 135
0.058929 -0.029058 0.015039 100 109 100
0.109599 -0.090397 0.016305 52 63 61
-0.094421 0.482155 0.011935 133 142 135
-0.083451 0.146028 0.008687 94 109 95
-0.096892 0.462301 0.012428 96 106 109
0.342205 -0.020596 0.026469 140 141 132
0.388510 -0.087498 0.032136 149 146 141
-0.276031 -0.033385 0.027621 108 121 116
0.261551 0.362435 0.017653 139 140 134
-0.351060 -0.098288 0.382963 113 147 155
0.379698 0.349124 0.030628 140 143 142
-0.177985 -0.261175 0.012202 135 144 137
0.059555 0.427128 0.012062 121 129 126
0.358411 -0.056194 0.028579 131 135 130
0.219180 -0.155249 0.021279 136 138 127
-0.110269 0.414815 0.010632 128 140 132
-0.197409 0.294583 0.008657 131 145 134
0.079483 0.084328 0.012581 93 105 97
0.134468 -0.152812 0.018557 131 140 133
0.019060 0.196390 0.009490 49 57 54
0.310995 0.104873 0.021999 58 64 64
0.244136 -0.278283 0.022698 142 139 134
0.245336 -0.219289 0.022461 136 136 136
-0.107564 0.011299 0.078398 19 28 21
0.144480 0.015002 0.015221 84 93 86
-0.266630 -0.245800 0.008867 133 142 133
-0.190889 0.059656 0.007504 95 111 100
0.073719 -0.265907 0.018009 127 131 126
-0.207379 -0.275417 0.011331 141 145 140
0.331226 0.470966 0.023825 144 144 138
0.010947 0.161044 0.011337 102 114 106
0.211301 -0.162211 0.020904 134 141 135
0.125660 0.373378 0.014308 128 132 125
-0.149174 -0.000415 0.010173 92 108 99
-0.130670 0.019980 0.009675 87 102 97
-0.317485 -0.057554 0.397139 83 91 88
-0.170189 0.439233 0.012409 138 145 137
-0.182590 -0.088052 0.012656 103 121 117
0.088384 -0.027146 0.015462 103 117 108
-0.195450 -0.292879 0.011348 55 55 55
-0.419266 -0.004091 0.401802 114 121 115
-0.213375 0.547180 0.012949 143 147 140
0.216356 0.424309 0.015317 82 82 84
-0.364618 -0.089911 0.390177 125 161 169
-0.361432 -0.014835 0.375745 77 89 81
-0.095565 0.004164 0.009401 73 87 76
-0.172405 -0.053625 0.011271 111 127 118
0.318427 0.371865 0.023326 140 141 135
0.118226 -0.058244 0.016171 117 123 121
-0.338661 -0.071966 0.397779 88 99 95
0.132855 0.010948 0.015112 109 118 111
-0.082192 -0.120427 0.017120 74 101 112
-0.022363 0.118433 0.011797 86 98 90
-0.164737 -0.096137 0.014870 107 121 112
-0.254780 0.302366 0.010556 127 141 132
0.014560 -0.229712 0.017501 121 127 125
0.107621 0.305733 0.012498 69 77 78
-0.245165 -0.120503 0.010440 112 123 119
-0.327801 -0.089349 0.389650 78 91 86
-0.098194 0.215015 0.011185 121 135 126
-0.328403 0.362401 0.006389 70 77 71
-0.166067 0.458196 0.012611 67 75 72
-0.282845 -0.222828 0.009771 133 142 135
0.301963 0.049829 0.021845 125 132 124
-0.205434 -0.088756 0.300157 18 29 29
-0.480954 -0.018260 0.415501 71 72 68
-0.199996 0.224575 0.009103 122 135 130
0.022026 0.494883 0.012588 125 132 124
0.186986 -0.055234 0.019071 120 128 115
0.312893 0.139957 0.021900 133 138 128
0.288349 0.000931 0.021676 136 137 128
-0.441373 -0.011415 0.394625 60 63 62
0.183817 -0.094787 0.018895 115 129 120
0.303605 -0.069598 0.023019 134 138 133
-0.359329 -0.061778 0.396532 96 107 103
-0.219630 -0.096842 0.010946 110 124 115
0.369310 -0.073415 0.029109 94 100 102
-0.004039 0.136318 0.011466 101 113 103
-0.093988 0.225165 0.010002 109 124 119
-0.166975 -0.210229 0.013106 64 67 68
-0.309735 -0.051319 0.019278 104 113 106
-0.277186 -0.286421 0.012004 128 135 127
-0.120270 0.193999 0.011119 116 130 121
-0.224616 0.247856 0.009224 131 144 131
0.332045 -0.057174 0.025776 135 136 132
0.155771 0.247772 0.012415 126 133 127
-0.228007 0.438857 0.011700 124 125 121
-0.139945 -0.195417 0.015013 122 135 130
-0.314745 -0.020577 0.024023 112 121 112
-0.337061 0.051660 0.018116 138 148 136
0.158277 -0.211982 0.020096 126 134 133
-0.239407 -0.295780 0.010564 141 147 145
0.095093 -0.052619 0.016287 73 80 74
0.071705 -0.230047 0.018835 127 136 129
-0.135881 0.408714 0.011080 91 98 92
0.379746 -0.245855 0.030298 146 146 140
0.336722 0.357692 0.025293 143 143 139
0.353975 -0.296962 0.029532 145 141 142
-0.138019 0.294833 0.009388 63 72 65
-0.231479 0.274214 0.009226 121 129 126
-0.290243 -0.043080 0.022869 106 121 116
-0.276055 -0.096072 0.395595 59 70 66
-0.049808 0.361291 0.009806 131 139 136
0.061305 0.321556 0.010515 121 130 123
-0.105533 0.010532 0.071609 18 26 23
-0.103981 -0.165497 0.019506 25 37 43
0.198710 0.363401 0.015186 132 139 133
0.357563 0.248229 0.026229 140 140 136
-0.081140 0.265917 0.009876 54 65 63
0.303650 -0.005451 0.022810 115 116 110
0.157353 -0.062504 0.017770 121 133 125
0.004197 0.303397 0.010377 80 91 87
-0.325306 -0.240561 0.007654 65 68 69
0.048436 0.029032 0.014466 55 66 64
0.135099 -0.131339 0.018463 50 58 59
0.117149 -0.231812 0.019056 131 135 130
0.018334 0.152191 0.011248 31 43 35
-0.309349 -0.061795 0.016884 118 127 120
-0.272909 -0.097287 0.415784 87 128 132
-0.309100 -0.061667 0.394697 82 93 89
-0.273921 0.512939 0.011533 150 151 142
0.025777 -0.189141 0.017235 129 135 135
-0.297698 -0.098086 0.372409 18 30 22
0.098801 0.323628 0.011831 126 135 128
-0.243811 -0.062259 0.013479 107 120 115
-0.047519 -0.180416 0.016789 113 126 123
-0.046275 -0.240768 0.015265 124 135 131
-0.311051 -0.065151 0.015712 116 128 120
0.319693 0.100298 0.022634 131 132 123
0.096354 0.291630 0.011198 123 131 128
-0.215345 -0.178891 0.010473 122 133 129
0.231602 -0.295606 0.022064 140 141 132
0.113418 0.274458 0.011511 126 132 130
0.043029 0.140920 0.011884 92 108 97
0.023434 0.170694 0.010463 103 115 105
-0.197740 -0.199423 0.010214 39 50 48
0.166223 0.250253 0.012472 128 135 129
0.069913 0.039476 0.014307 95 109 100
-0.182210 -0.209986 0.012017 126 134 131
-0.033967 0.112957 0.009617 92 106 97
0.238778 -0.258997 0.023017 140 140 136
-0.462491 0.134059 0.094464 81 82 69
0.286622 -0.145238 0.023854 132 133 127
0.349203 0.047929 0.026564 137 141 134
0.307305 0.129043 0.021584 135 135 135
0.169700 -0.094573 0.018136 121 128 120
-0.217580 0.364044 0.009732 137 146 137
0.016986 0.437311 0.011976 131 138 130
0.077559 -0.259508 0.018378 126 133 127
0.303120 -0.278798 0.025136 140 140 134
-0.273634 -0.065448 0.016884 109 120 116
-0.392728 0.030482 -0.003674 78 91 90
0.314194 0.087986 0.021465 134 134 128
0.249235 0.081348 0.016733 124 132 129
-0.102330 -0.164234 0.021368 100 116 126
0.011652 0.413934 0.010837 124 138 129
0.065729 -0.079205 0.016064 111 123 115
-0.433449 -0.008397 0.401386 83 89 87
-0.368544 -0.077499 0.394909 133 167 175
-0.292625 0.211694 0.049339 59 71 63
-0.105423 -0.282504 0.014409 109 112 113
-0.205137 -0.239553 0.010045 130 142 134
-0.227578 -0.120832 0.011640 113 127 118
-0.315394 0.013276 0.036462 111 126 121
0.350966 -0.176167 0.027874 137 139 128
-0.318552 0.034754 0.037270 128 140 130
-0.276168 -0.028178 0.029012 107 123 114
0.102389 0.168822 0.011065 114 126 118
-0.117116 -0.112607 0.015089 99 114 109
0.335269 0.138697 0.024533 63 70 64
0.000794 -0.292617 0.016723 121 126 116
0.329710 -0.109464 0.025401 137 138 134
0.176654 -0.107888 0.019382 123 132 125
-0.349468 -0.029619 0.392700 99 105 103
0.072027 -0.187756 0.018616 124 137 132
0.012934 -0.283141 0.016570 123 127 122
-0.076572 0.286231 0.008737 129 143 134
-0.319648 -0.081287 0.392556 82 93 89
-0.128449 0.122450 0.010826 101 115 106
-0.009753 0.100746 0.012682 69 90 79
-0.012869 -0.037105 0.014986 28 44 35
-0.003878 -0.200833 0.016086 120 126 124
-0.324632 -0.101236 0.370098 51 63 55
0.214599 -0.038094 0.019909 124 132 129
0.270576 -0.018719 0.020970 127 135 124
0.364397 0.315502 0.027991 141 141 135
-0.155112 0.068401 0.011585 90 102 94
0.322295 0.139513 0.022853 128 135 127
0.238512 0.378718 0.016331 133 137 130
0.280480 0.087230 0.018220 130 131 127
-0.121577 -0.248518 0.013515 131 139 136
0.232676 0.280612 0.015397 135 139 134
-0.199861 0.219404 0.009883 121 135 126
-0.264485 -0.155879 0.009134 103 111 108
0.366885 0.202433 0.028200 77 76 78
-0.192814 -0.189492 0.011607 125 133 130
-0.064699 0.546111 0.014118 144 148 141
0.128699 -0.233567 0.019475 131 138 132
0.346452 0.341771 0.026229 137 137 133
-0.189197 -0.278755 0.012030 136 143 137
0.270903 -0.217812 0.023325 140 142 133
0.036668 -0.228031 0.017251 120 127 121
-0.118033 0.543047 0.013183 126 130 125
0.155380 0.464442 0.015036 60 63 64
0.162202 -0.193350 0.020428 129 136 130
-0.335631 -0.063287 0.399564 88 96 93
0.103478 -0.216730 0.018884 134 138 133
0.394854 0.499197 0.031079 146 143 138
-0.332238 -0.114766 0.002957 137 146 137
0.187972 0.209807 0.013185 128 137 130
0.234202 -0.148194 0.021473 135 139 132
0.328249 0.010118 0.024153 136 137 131
0.345867 -0.176106 0.027626 135 133 123
0.131448 -0.035195 0.016546 112 124 116
-0.061792 -0.253843 0.015365 126 137 133
-0.223757 -0.064884 0.425430 96 118 128
-0.088552 0.045161 0.030997 55 72 58
0.237025 0.334498 0.016853 135 142 136
0.060672 0.221974 0.010274 108 116 105
-0.304454 0.070178 0.346568 84 99 98
0.246643 0.089938 0.016594 127 134 128
0.017159 0.274256 0.010074 117 131 122
0.286236 0.044046 0.020704 129 133 126
0.046626 0.390230 0.011314 127 136 129
0.330062 0.083002 0.023140 134 134 128
0.010738 -0.209629 0.017534 104 117 112
0.373490 0.229925 0.029121 137 138 134
-0.061142 0.074648 0.046699 59 62 44
-0.040445 -0.173648 0.017433 18 30 36
-0.019052 -0.090361 0.015244 81 97 88
-0.084015 -0.279475 0.015038 133 139 137
-0.240607 0.431010 0.011156 141 148 140
0.155045 -0.264847 0.020311 105 105 105
-0.227350 -0.079782 0.009882 107 119 109
0.230905 -0.111957 0.021009 133 135 126
-0.115923 0.073518 0.083838 97 110 97
0.180354 0.517804 0.015580 140 142 133
-0.441335 -0.006400 0.411421 117 117 117
-0.208843 0.175164 0.006775 111 123 115
0.286602 0.129944 0.019598 135 139 134
0.088775 0.171171 0.010703 114 123 114
-0.265185 -0.176734 0.008711 133 144 140
0.396786 0.190732 0.032800 67 66 66
0.249608 0.011682 0.019537 124 131 125
-0.189861 -0.068776 0.077561 97 112 107
0.331220 0.242668 0.023333 139 140 136
0.043318 -0.017192 0.014631 84 100 91
0.335880 -0.066580 0.025500 145 145 139
0.159004 -0.136876 0.019061 123 135 127
0.249425 0.098061 0.017555 127 133 131
-0.199524 -0.121134 0.012801 51 62 58
-0.353155 0.051998 0.394933 107 116 109
0.355324 -0.230521 0.027887 147 142 138
0.344125 -0.133458 0.026758 71 77 79
-0.133474 -0.161453 0.037149 81 105 107
-0.140110 0.364601 0.010493 132 141 132
0.381856 0.171138 0.031107 138 139 133
0.167575 0.410689 0.014612 133 133 129
-0.034984 -0.044746 0.014531 106 122 113
0.245796 0.285778 0.015262 90 90 92
0.056766 0.485081 0.011693 133 137 132
0.385419 -0.022748 0.032343 143 144 138
0.141716 -0.090573 0.017078 65 68 69
0.187038 -0.284348 0.021647 68 69 65
-0.338854 0.422067 0.003792 158 159 150
-0.244494 -0.219347 0.008841 133 141 138
0.393609 -0.025131 0.033514 146 138 137
-0.237881 -0.105838 0.391665 51 64 61
-0.021032 0.456617 0.010975 131 135 128
-0.148718 0.432306 0.011431 141 145 140
-0.415552 0.025044 0.423872 137 137 137
0.149763 0.134199 0.013696 111 120 113
0.017861 -0.152440 0.016843 116 128 120
-0.092464 -0.151809 0.033621 15 87 112
0.359468 -0.255473 0.029547 143 140 135
0.068854 0.504101 0.012711 117 121 114
0.194342 -0.144618 0.021287 131 135 130
-0.359980 -0.101009 0.374689 97 136 143
-0.134882 -0.235315 0.013275 121 133 125
0.185275 0.105456 0.014815 91 99 96
0.129778 -0.147507 0.018621 128 136 133
-0.099284 0.005776 0.010292 75 89 78
-0.392825 -0.015457 0.376205 33 34 30
-0.228550 0.245343 0.009358 130 143 130
0.316671 -0.168707 0.025886 142 140 132
0.282180 -0.256181 0.025067 133 133 129
-0.327875 0.213943 0.059195 142 152 140
0.037202 -0.172001 0.017864 115 126 122
0.141567 -0.251821 0.020246 126 130 123
-0.093798 0.531477 0.013726 136 137 131
-0.073827 -0.073544 0.014855 61 79 73
0.243010 0.332036 0.016864 135 139 132
-0.219725 -0.059239 0.420562 119 163 170
0.062131 -0.226443 0.017483 124 127 126
0.364867 0.221881 0.026848 72 75 74
-0.071956 -0.261804 0.014627 136 140 135
-0.222452 0.389709 0.010054 135 145 133
0.121647 -0.023457 0.016409 108 120 112
-0.020404 0.256875 0.010052 116 128 118
0.033265 -0.297480 0.017064 120 127 119
0.316127 -0.172140 0.025653 58 57 59
-0.305070 0.086721 0.342381 93 97 90
-0.323565 0.079899 0.366952 133 167 175
-0.082513 -0.063813 0.013960 107 123 114
-0.149967 0.203120 0.010771 119 131 123
0.396895 0.389625 0.032119 142 143 137
0.114868 0.394785 0.013549 130 134 127
0.297335 0.065072 0.020449 92 95 94
-0.115246 0.320175 0.009130 131 143 135
0.286419 0.390676 0.018745 138 139 135
-0.036554 -0.286048 0.015684 37 32 42
-0.066440 0.281406 0.008814 125 139 128
-0.090262 -0.168792 0.018802 92 111 113
0.296464 0.016923 0.022023 128 136 125
-0.015755 0.544312 0.013972 131 136 126
0.053311 0.229720 0.009082 88 91 94
-0.278974 -0.109641 0.010404 116 128 120
-0.013263 0.107335 0.012399 32 40 39
0.139827 -0.105676 0.017954 123 131 128
0.154749 0.143347 0.013270 112 124 116
-0.047956 0.160893 0.010652 116 128 118
0.008056 0.109634 0.012461 92 107 102
0.066664 0.221853 0.010570 109 118 109
0.138271 -0.293512 0.020302 126 130 123
-0.496730 -0.003435 0.441471 141 137 138
0.397275 -0.031412 0.034685 94 93 95
0.010127 -0.219696 0.017458 119 128 121
-0.031327 0.237427 0.010377 117 131 122
0.321448 -0.225112 0.026011 147 144 141
-0.324960 0.478163 0.005464 74 84 72
-0.086853 -0.130525 0.032991 12 75 103
0.243870 -0.036454 0.021002 128 134 134
-0.316465 -0.028675 0.391730 76 87 85
0.250970 0.094057 0.016993 130 133 132
-0.206819 -0.111747 0.011751 109 122 117
0.192488 0.231116 0.013028 129 135 133
-0.113099 -0.232259 0.014428 132 140 137
0.339466 -0.233767 0.027630 137 138 132
0.006321 0.147609 0.011270 68 81 80
0.165558 0.325802 0.013558 130 139 132
-0.285267 -0.262388 0.011228 143 147 142
-0.133210 -0.240186 0.012865 35 38 37
0.073902 0.064732 0.013673 101 113 103
-0.317919 0.285110 0.002417 138 147 140
0.234118 0.501640 0.015685 118 119 113
-0.230762 0.384809 0.009470 52 60 59
-0.436549 -0.011780 0.379088 34 34 34
-0.302018 0.212473 0.051478 138 145 137
0.154002 0.154605 0.013104 119 126 120
0.372973 0.225629 0.028476 136 136 132
0.288708 -0.103342 0.023212 135 136 132
-0.020569 0.354290 0.009411 131 140 133
-0.228925 0.394852 0.010062 108 115 109
0.247481 0.399645 0.016680 115 111 112
-0.348921 -0.065339 0.398088 98 105 99
0.375988 -0.185279 0.029788 141 142 133
0.248628 0.078838 0.017505 125 133 130
0.187638 0.020344 0.017461 113 127 118
0.160923 0.075804 0.013793 116 125 118
-0.256041 -0.036363 0.030582 100 116 107
0.261159 0.206251 0.016421 135 138 137
-0.020583 -0.227761 0.016251 127 135 134
-0.108073 -0.232301 0.014608 126 137 133
0.020366 -0.141642 0.016360 122 134 126
0.395236 0.358045 0.032652 144 144 140
0.108952 0.033505 0.014386 100 112 102
0.214610 0.526559 0.016118 138 139 133
-0.463727 0.001249 0.429417 80 80 80
-0.164041 -0.140860 0.043987 106 125 129
-0.168708 -0.061383 0.011690 99 113 102
-0.314141 -0.071549 0.394925 79 88 81
0.102639 -0.173926 0.018655 126 138 130
-0.029742 -0.150703 0.023341 91 75 68
-0.125230 -0.298219 0.014549 133 142 135
-0.361549 -0.012803 0.386687 31 39 38
0.169662 0.205641 0.012066 125 133 130
-0.226512 -0.056625 0.425238 121 170 175
0.072370 0.363923 0.012082 127 134 128
-0.074311 0.208897 0.010196 81 91 94
-0.096543 0.323239 0.008716 130 144 135
0.217396 -0.281248 0.021639 58 59 55
-0.104642 0.177947 0.011489 119 128 119
0.289903 -0.242982 0.024349 140 140 134
-0.103290 0.472764 0.012961 141 148 142
0.361962 -0.155281 0.028393 141 141 135
-0.431531 -0.011337 0.383166 44 51 45
-0.258175 -0.278359 0.010592 149 150 146
-0.200148 -0.097023 0.011646 58 71 68
0.098284 0.166647 0.010842 112 124 116
0.272001 0.057493 0.018414 129 129 129
-0.193785 -0.051404 0.312921 102 114 104
-0.166001 -0.294758 0.013005 141 149 146
-0.091934 0.227651 0.009827 62 80 78
0.123688 0.012890 0.015179 103 115 107
-0.116028 -0.004337 0.010415 91 106 101
-0.180378 0.115937 0.010002 101 115 106
0.309466 -0.075564 0.023927 129 132 133
0.015858 0.456808 0.011494 122 134 126
0.104771 0.512616 0.013454 136 138 127
0.388598 -0.147233 0.031422 149 144 140
0.103765 -0.180788 0.018327 131 138 132
0.141440 -0.138435 0.018156 122 136 127
-0.225389 -0.135000 0.010847 113 129 120
-0.259767 -0.249159 0.009319 128 135 129
0.353983 -0.266695 0.029016 146 146 142
0.375321 -0.039686 0.030822 143 144 140
0.171858 -0.118745 0.018962 125 131 129
0.360274 0.520232 0.025985 149 146 141
-0.239184 -0.225994 0.008653 134 141 135
-0.034835 -0.284465 0.015657 75 75 77
0.372882 -0.060785 0.030868 133 140 134
0.034901 -0.005336 0.014588 92 106 97
0.096768 0.150452 0.011610 116 125 118
-0.012112 0.522071 0.013190 133 140 132
-0.022099 0.266259 0.010424 89 102 99
-0.036077 -0.195714 0.016126 125 133 132
-0.197646 -0.126559 0.012843 97 111 117
0.108145 -0.204865 0.018661 132 139 131
-0.233927 -0.270404 0.010348 141 147 145
-0.071396 -0.298470 0.015165 131 137 135
0.006265 -0.200985 0.016750 118 126 123
-0.325615 -0.073816 0.396362 84 95 91
-0.217683 -0.092903 0.254843 10 18 15
0.006759 -0.136148 0.015857 117 129 121
-0.075946 -0.220924 0.015730 126 135 128
0.299381 0.499603 0.019289 131 132 126
-0.175012 0.485845 0.012425 139 146 140
-0.203158 -0.117251 0.011919 109 122 119
-0.183290 0.178369 0.009474 111 125 114
0.081439 -0.180657 0.017783 127 136 129
-0.227830 -0.115140 0.010811 114 128 119
-0.472595 -0.005071 0.427974 162 158 151
-0.278496 -0.183602 0.008539 133 139 137
-0.128305 -0.261520 0.013647 131 139 138
-0.166258 0.050110 0.010486 92 108 99
0.324364 0.236048 0.022427 139 140 136
0.128486 -0.046725 0.016270 117 126 119
0.062314 0.371564 0.012071 124 133 126
0.241887 0.421655 0.015776 129 132 131
0.126593 0.284233 0.011769 126 135 126
0.216718 -0.286000 0.021504 113 110 107
-0.155100 0.066333 0.011532 87 101 90
0.008017 0.254956 0.009824 112 124 114
0.339153 0.031913 0.025478 129 135 133
-0.234939 -0.045362 0.429149 118 164 168
0.331235 0.387220 0.023977 143 143 139
0.012431 0.525470 0.013116 136 137 133
0.012153 -0.242787 0.016789 122 133 129
0.018697 -0.270418 0.016824 122 125 124
-0.041048 0.516060 0.012922 136 140 133
0.211747 -0.006357 0.019113 125 131 131
0.339597 0.270928 0.024373 117 117 119
0.238389 -0.110054 0.020828 130 134 127
-0.367562 -0.100194 0.378417 105 141 149
-0.332219 0.357127 0.006495 143 147 142
-0.381264 -0.089750 0.381740 127 159 166
-0.245959 0.283340 0.009844 133 145 137
0.121518 -0.269373 0.018841 77 80 79
0.170198 -0.225438 0.020164 134 138 133
-0.280184 -0.152397 0.009267 126 135 128
0.272668 0.260442 0.017165 131 135 128
-0.327668 0.277844 0.002153 146 155 148
0.042136 0.214950 0.009936 109 121 113
0.026236 -0.281604 0.016676 42 45 44
0.022416 0.503118 0.012850 120 127 121
0.328716 0.384613 0.023908 141 141 137
-0.019595 -0.171708 0.016640 111 124 119
-0.221783 -0.128113 0.256395 17 28 26
0.032531 0.255461 0.009492 114 128 117
-0.064496 -0.170414 0.018370 95 113 111
-0.267240 -0.068983 0.429389 123 172 177
0.330371 0.106700 0.022934 126 127 123
0.027825 0.147610 0.011607 72 85 82
-0.130588 0.069862 0.013246 32 41 34
-0.337043 -0.099809 0.002070 125 137 129
-0.149791 -0.271131 0.013735 135 143 140
0.388208 -0.017052 0.032827 99 96 93
-0.287948 -0.106019 0.010452 121 128 122
-0.156965 -0.191836 0.014301 120 133 128
-0.252881 -0.254079 0.009442 137 146 139
0.131068 0.198974 0.010923 117 128 126
0.374987 0.431110 0.029741 110 109 111
0.101574 -0.149307 0.018613 128 136 133
-0.265985 -0.090305 0.427266 120 166 170
-0.200410 -0.087140 0.266460 19 27 26
0.117266 0.139169 0.012198 104 118 109
-0.252948 0.416046 0.009573 138 146 135
-0.047702 0.361322 0.009805 128 140 132
-0.217288 -0.170384 0.011157 121 134 129
-0.204134 -0.146120 0.012459 120 134 123
-0.220617 -0.273696 0.010730 143 143 143
0.374359 0.048480 0.030155 140 141 137
-0.184183 0.235920 0.010046 123 137 128
0.180264 -0.227068 0.019904 130 131 127
0.339717 -0.296754 0.028273 144 138 140
0.211621 0.540650 0.016429 112 112 112
0.089078 0.509706 0.013203 137 138 132
0.388130 -0.221231 0.031227 147 142 138
-0.493626 -0.002920 0.440807 133 133 133
-0.103380 0.084281 0.086593 104 117 102
0.195441 -0.124669 0.020672 131 135 130
0.327388 -0.211725 0.026184 72 71 71
-0.116207 0.484434 0.012068 136 143 137
0.369017 -0.025981 0.030464 138 142 137
0.243451 0.021638 0.019849 112 123 119
0.275203 0.356524 0.018897 139 140 136
-0.237116 0.323056 0.009791 135 144 135
-0.320742 0.521580 0.007347 151 151 147
-0.020451 -0.081161 0.015613 110 123 118
0.313107 -0.251467 0.025732 92 87 95
-0.260244 -0.103865 0.403266 74 109 112
-0.066696 -0.190728 0.016792 128 136 133
-0.098990 -0.183831 0.016669 115 130 127
-0.141790 -0.024533 0.011322 103 116 111
0.129351 -0.151101 0.018771 131 139 136
-0.104298 0.203648 0.010682 120 133 128
0.253447 0.462433 0.016139 89 89 93
0.207146 -0.026242 0.019430 135 136 132
0.195486 0.024221 0.017993 116 127 123
-0.134111 0.194117 0.010692 116 130 121
-0.262149 -0.168150 0.009148 77 83 85
0.107655 -0.109067 0.016838 121 129 126
-0.140114 0.369700 0.010586 134 141 133
0.082268 -0.150994 0.018235 126 135 126
0.384810 0.538713 0.028257 133 129 130
0.029603 -0.255983 0.017311 119 126 118
-0.264302 -0.097706 0.419180 98 137 142
-0.294440 -0.079414 0.013780 121 134 129
0.151982 -0.235393 0.020190 79 82 81
-0.215910 -0.085589 0.409693 113 154 160
-0.065605 0.159002 0.009743 105 117 107
-0.214898 -0.297482 0.011007 146 147 143
-0.163719 0.189030 0.011034 88 101 98
-0.276376 -0.219422 0.009392 135 144 137
-0.171774 0.385411 0.009852 76 82 80
-0.080770 0.009312 0.011645 69 84 70
0.147547 0.379269 0.013867 124 131 125
0.119932 0.379091 0.013560 61 60 62
0.078513 -0.173810 0.018170 121 135 124
-0.063976 -0.215913 0.015723 124 136 128
0.301146 -0.199467 0.024532 143 143 137
-0.168215 0.242975 0.010409 134 143 136
0.236906 0.076794 0.017181 121 130 121
0.031208 -0.185648 0.017004 121 129 126
0.041205 -0.187616 0.018045 124 132 129
-0.076665 0.192662 0.010254 51 64 63
-0.072930 -0.235743 0.015057 128 139 135
-0.148673 0.419326 0.010891 136 141 131
-0.210677 0.252915 0.009037 129 141 131
-0.253953 -0.118820 0.010825 118 127 120
0.335845 0.154116 0.024812 71 74 75
-0.120709 0.126785 0.011013 101 115 106
0.266841 0.061578 0.018556 120 129 120
-0.077442 -0.075375 0.014682 118 131 126
0.102378 0.105706 0.013094 51 64 59
-0.409367 0.018315 0.420934 111 117 117
0.158312 -0.264894 0.020557 136 136 130
-0.025486 0.283443 0.010156 126 135 128
0.336048 -0.174225 0.027044 139 139 135
-0.245317 0.379574 0.009212 134 144 132
-0.297581 -0.082667 0.387770 133 139 139
0.033608 0.424445 0.011534 103 111 108
0.306919 0.187603 0.021279 94 94 98
-0.290061 0.438882 0.010431 146 148 139
0.212213 -0.203754 0.021044 133 134 130
-0.380757 0.033928 0.412490 151 155 150
0.201190 0.168641 0.012986 129 136 130
-0.201244 0.493491 0.012720 138 145 137
-0.204169 0.323916 0.009228 132 144 136
-0.235983 0.418340 0.010365 138 147 138
0.143831 -0.206649 0.018949 130 134 127
0.301479 -0.168422 0.024745 139 140 134
-0.216852 -0.116758 0.253988 47 60 55
-0.097331 -0.132903 0.035010 32 93 115
-0.049452 0.172800 0.009551 103 117 106
0.362165 0.196111 0.027144 138 138 132
-0.194540 0.483032 0.012057 134 143 136
-0.153538 0.548836 0.012452 137 141 134
-0.192310 0.043047 0.012049 100 114 105
-0.461848 -0.003449 0.425835 58 58 62
0.347428 -0.048327 0.027911 140 141 137
0.391244 0.538293 0.028837 135 130 128
-0.328959 -0.080801 0.394052 89 97 94
-0.048183 0.213952 0.009999 113 127 118
0.209584 -0.290650 0.020902 104 104 100
0.146806 0.069352 0.013823 85 88 91
0.304902 -0.017727 0.023799 52 51 51
0.179420 -0.100460 0.019221 48 54 52
-0.071938 -0.071447 0.014252 117 130 125
-0.107811 0.451557 0.011950 135 144 137
-0.029846 0.276167 0.009998 125 137 129
-0.053240 0.177435 0.009331 103 117 108
0.048631 0.136618 0.011739 72 81 74
-0.281692 0.306022 0.008393 130 142 134
-0.201395 -0.066942 0.362215 42 60 54
-0.244375 -0.102889 0.366175 45 61 52
0.013060 0.356445 0.010603 125 134 127
-0.110454 -0.002072 0.009812 93 107 98
-0.304886 0.089382 0.327026 89 91 78
-0.267947 0.000020 0.389276 141 151 139
-0.070647 0.473642 0.012618 99 103 98
0.121308 -0.112960 0.017661 124 133 126
-0.011112 0.072860 0.013075 96 110 99
-0.082906 0.080345 0.009716 32 38 19
-0.376400 0.090972 0.342203 98 106 105
-0.140023 0.084982 0.012385 57 75 71
-0.195907 0.121217 0.008011 103 115 105
0.265109 0.451443 0.016350 141 142 133
0.078181 0.416493 0.012292 121 133 125
-0.116357 -0.220682 0.014755 126 137 133
-0.147664 0.100013 0.012074 98 114 103
-0.142023 0.194001 0.010751 125 139 128
0.028644 0.259913 0.009977 110 124 113
0.149068 0.350814 0.013844 126 129 128
-0.445754 -0.016586 0.386535 108 114 116
-0.254479 -0.103091 0.412108 75 114 119
-0.215832 -0.104402 0.011601 108 119 115
0.035263 0.454232 0.011685 124 133 126
0.369021 0.344972 0.029171 141 141 137
-0.240592 0.498641 0.012426 142 143 137
-0.286143 -0.055011 0.405280 131 167 173
-0.405672 -0.007779 0.391924 79 90 86
-0.237689 0.278724 0.009623 132 144 136
-0.092251 -0.141254 0.033427 5 76 108
-0.035456 0.179366 0.010213 102 118 109
0.210160 -0.239120 0.021968 138 139 133
-0.113373 -0.258413 0.014227 133 142 135
-0.218691 -0.058407 0.419178 119 163 168
-0.065661 -0.098104 0.015945 116 130 121
-0.149977 -0.230412 0.013700 130 141 139
0.109258 0.541514 0.013379 89 90 86
0.261830 -0.014896 0.021181 101 107 105
-0.408543 -0.013028 0.383892 49 62 57
-0.074899 0.181556 0.009713 67 80 75
-0.208457 -0.092717 0.268695 15 23 20
0.262547 0.415947 0.016596 133 140 132
0.067483 -0.261042 0.017986 127 130 129
0.151247 -0.127870 0.019027 129 135 133
0.332102 -0.105844 0.025587 139 139 133
-0.311800 0.200551 0.059317 129 158 157
-0.297537 -0.152206 0.008506 143 150 142
0.087125 0.000609 0.015280 100 112 104
0.241052 0.146967 0.016144 53 58 65
-0.343403 -0.057884 0.399706 94 101 95
-0.150365 0.306577 0.010043 71 86 81
0.338106 -0.111410 0.025820 87 82 78
0.112868 0.092975 0.012869 41 48 42
0.322283 0.478687 0.021179 146 144 136
-0.070802 -0.277937 0.015164 138 141 142
-0.243212 0.379543 0.009293 134 144 132
-0.224610 -0.106093 0.011091 114 126 118
0.157621 0.487105 0.014625 125 125 121
-0.366799 0.020385 0.401969 87 90 89
-0.114011 0.010153 0.009261 71 90 80
-0.065833 0.394879 0.009906 133 142 135
-0.475206 0.001190 0.433366 129 132 133
0.289609 0.240296 0.018922 139 140 136
0.299441 0.163132 0.020230 136 137 131
-0.300349 -0.020581 0.374027 83 94 92
-0.455439 -0.008286 0.418257 49 52 55
-0.317748 -0.054786 0.397191 81 89 86
-0.283301 -0.127526 0.009572 118 131 126
0.120682 -0.015441 0.016045 104 115 111
-0.164498 0.531156 0.012603 115 116 110
0.388339 -0.024963 0.033034 145 146 142
-0.217174 -0.089295 0.406585 107 151 156
0.227382 -0.279776 0.022297 147 144 139
0.215476 0.116040 0.015812 128 137 130
-0.136632 -0.291897 0.014455 134 143 136
-0.190967 -0.031091 0.007578 99 113 104
0.031718 0.088000 0.013079 101 115 106
-0.118802 0.019542 0.047086 22 28 26
0.011572 -0.168416 0.017442 39 51 57
-0.192623 0.373791 0.010982 136 144 133
0.288180 -0.214671 0.024324 131 132 126
0.293088 0.134294 0.019814 128 137 130
0.023600 0.173083 0.010257 103 115 105
-0.221869 -0.059376 0.423058 123 167 174
-0.138030 0.279798 0.009863 51 62 58
-0.200880 -0.067049 0.011356 65 78 75
0.286048 0.074327 0.018591 135 136 130
0.176463 0.177719 0.012621 118 125 119
0.112892 -0.225056 0.018587 132 139 131
-0.042153 -0.143574 0.029376 108 38 42
0.234214 -0.101004 0.021299 125 136 132
-0.331665 -0.187682 0.003951 132 141 134
0.233137 -0.108363 0.021262 133 137 132
0.194250 0.360921 0.014962 133 140 134
-0.048096 0.501653 0.013030 105 105 105
-0.198371 0.144068 0.006398 100 116 105
0.257053 0.248936 0.016089 137 141 136
-0.410076 -0.006496 0.394421 88 99 97
-0.112200 0.210255 0.011114 116 130 121
-0.266039 -0.123939 0.009721 26 38 42
0.330699 0.522979 0.022397 149 147 139
-0.093880 0.135898 0.057555 50 44 29
-0.120050 0.021937 0.088512 26 33 27
-0.016102 0.086069 0.011988 100 110 98
-0.032148 -0.183730 0.016218 124 135 133
-0.037164 0.499263 0.012776 62 63 59
0.292868 -0.178750 0.024235 138 140 131
-0.005285 -0.162915 0.016433 117 129 121
-0.325175 -0.010377 0.388167 55 63 62
0.391674 0.337785 0.032399 107 107 107
-0.295872 -0.064622 0.392733 71 88 93
-0.350748 -0.058764 0.398697 98 105 99
0.226648 -0.174663 0.021717 132 133 124
0.347381 0.037683 0.026418 138 139 133
0.006597 0.397913 0.010827 129 136 130
0.082244 -0.189424 0.018391 123 135 127
0.192049 -0.016179 0.018679 119 128 121
-0.199142 -0.077140 0.325445 125 143 137
-0.280556 -0.075700 0.422244 123 167 174
-0.296017 0.343932 0.007755 53 57 52
0.242641 0.144636 0.016351 50 55 64
0.190788 -0.133628 0.020409 122 129 121
-0.085236 0.378911 0.009824 123 135 127
0.197126 0.368470 0.015307 129 136 130
0.217128 -0.059300 0.020020 124 131 123
-0.183766 0.343014 0.011112 125 137 127
-0.266621 -0.078121 0.429047 121 170 175
0.303806 0.027124 0.022025 71 76 81
0.125562 -0.138486 0.018272 125 135 123
0.126729 0.333642 0.012493 125 132 126
0.288987 0.502947 0.018505 86 80 82
-0.197031 -0.082116 0.282436 19 30 26
-0.301395 -0.173112 0.008075 128 137 130
0.057339 0.072937 0.013880 101 113 105
0.251525 0.083564 0.016593 126 132 130
0.359032 -0.252026 0.028440 140 135 131
-0.032211 -0.185428 0.016113 122 133 129
-0.116681 -0.067604 0.013675 105 121 112
0.039055 -0.099869 0.016412 113 122 113
-0.131438 -0.188771 0.015812 121 132 132
-0.314527 0.337635 0.005638 138 143 133
0.375461 -0.195597 0.029906 142 139 134
-0.048368 -0.292403 0.016240 135 136 132
0.273181 0.356676 0.018658 139 140 134
-0.277118 0.436259 0.010596 144 148 141
0.311426 -0.043197 0.024141 131 136 126
0.389162 -0.276742 0.031252 151 146 144
0.387588 -0.209362 0.030694 137 127 127
0.237185 0.091901 0.016812 124 130 128
0.110968 -0.194586 0.018425 130 138 135
0.238554 -0.292535 0.022521 135 137 128
0.391405 -0.125771 0.031496 140 141 137
0.016340 0.085984 0.012627 43 62 52
-0.094495 0.320890 0.008528 132 146 135
-0.180643 0.133460 0.009913 101 115 104
-0.086505 0.088514 0.075115 93 106 91
0.103101 -0.007320 0.015362 104 113 106
-0.147210 -0.042202 0.011771 101 115 106
0.119834 0.429249 0.013955 118 119 113
0.340372 -0.028740 0.027245 135 136 130
-0.126816 -0.290346 0.014404 132 138 136
-0.211821 -0.065796 0.007681 105 120 115
0.046388 -0.187582 0.017897 121 129 126
-0.331242 -0.085338 0.392307 88 96 93
-0.240922 -0.183677 0.008832 123 134 130
-0.043742 -0.036924 0.014194 36 49 44
0.020884 0.229132 0.009448 48 59 57
-0.332474 -0.074484 0.009972 123 135 127
-0.111691 -0.256780 0.014131 131 140 133
-0.218471 0.318654 0.009307 139 148 139
-0.317993 0.039757 0.384266 91 99 96
0.262117 0.106522 0.018087 65 65 65
0.303999 0.060591 0.021144 127 131 124
0.379556 -0.034310 0.031980 142 143 139
0.138769 0.306009 0.012684 76 82 82
0.201385 0.066557 0.016018 56 62 60
0.097884 -0.289972 0.018350 110 117 109
-0.031638 0.283394 0.010115 127 136 129
-0.370836 -0.102552 0.369352 102 134 141
0.224075 0.259264 0.014437 129 136 128
-0.344007 -0.204593 0.003190 145 149 142
-0.126516 0.120568 0.010293 100 114 105
0.394981 0.190929 0.032445 145 144 144
-0.214907 0.516776 0.011661 142 146 141
-0.169550 0.008256 0.008327 100 114 105
0.325298 -0.177514 0.026281 140 141 137
-0.296196 0.346721 0.007426 57 58 54
-0.239676 -0.080332 0.011413 106 119 114
-0.104496 -0.150717 0.035948 40 100 118
0.208043 0.087982 0.015668 93 99 97
0.193598 -0.032030 0.019094 126 129 128
-0.210513 -0.087767 0.401288 71 94 101
-0.081079 -0.293728 0.015121 130 138 135
0.310793 0.212859 0.021660 128 135 129
-0.063139 -0.146166 0.032280 12 51 89
-0.027514 0.133902 0.011484 97 109 99
0.063922 0.010863 0.014477 99 113 104
-0.319676 -0.080149 0.392983 83 94 90
0.206640 0.395125 0.014911 135 139 134
0.229709 0.324792 0.016147 135 142 136
0.025975 -0.236287 0.017157 40 51 49
-0.454482 -0.021067 0.398057 11 14 15
0.146802 0.054099 0.015052 104 115 111
-0.136161 0.141540 0.011956 91 110 100
0.304607 0.031333 0.021763 56 64 63
-0.233217 -0.091135 0.422091 109 149 160
0.020279 -0.247657 0.016427 60 63 66
0.024771 -0.278443 0.016877 123 126 127
0.392876 -0.145258 0.030726 148 143 139
-0.375061 0.030574 0.408841 130 134 129
0.226630 0.168162 0.014231 133 140 132
0.155630 -0.191552 0.020077 127 135 132
-0.243334 -0.099383 0.420197 87 136 141
0.248687 0.091843 0.017095 127 133 131
-0.458685 0.007984 0.430257 55 54 61
0.150464 0.298554 0.012899 112 118 118
0.173363 -0.276260 0.021079 137 137 131
-0.399114 0.016384 0.417598 110 118 117
0.008798 0.492460 0.011881 129 134 124
-0.072020 0.085045 0.074159 88 94 77
0.163485 -0.237144 0.020614 135 136 130
-0.056843 0.501919 0.012556 106 113 107
0.086656 -0.286762 0.018269 121 121 121
0.213781 0.118175 0.015878 124 135 131
-0.174373 0.252889 0.009721 124 138 127
-0.241510 -0.088590 0.272683 39 52 47
-0.244889 -0.076369 0.428661 123 171 179
-0.305021 0.313473 0.004486 139 147 144
-0.166930 0.117332 0.011677 100 114 105
-0.032087 -0.101709 0.015922 115 130 125
-0.216400 0.240952 0.009022 129 141 133
-0.157425 0.455899 0.012271 129 141 131
0.338111 -0.074129 0.025470 67 66 66
0.305388 -0.157728 0.024174 138 138 132
-0.141883 0.058071 0.011537 54 66 58
-0.197389 0.194563 0.008889 116 128 118
0.271010 0.166523 0.017798 133 137 130
-0.152682 -0.034360 0.011438 100 113 108
-0.197393 -0.062609 0.343053 144 159 154
-0.022713 -0.236104 0.016574 125 133 130
0.023235 -0.175357 0.017364 33 44 40
-0.251095 -0.289460 0.010587 136 143 137
0.115947 -0.025412 0.016331 102 113 109
-0.244387 -0.103919 0.376736 47 61 52
0.353002 0.435840 0.026889 150 146 139
-0.352528 -0.004261 0.392024 90 97 91
-0.020069 0.170131 0.010727 99 115 106
-0.183734 -0.219920 0.011346 126 137 133
0.146333 0.389547 0.014118 127 134 126
-0.260299 -0.067903 0.429950 124 173 178
-0.331876 -0.283969 0.006824 128 132 127
0.138960 -0.127796 0.018715 124 132 129
0.307681 0.217767 0.021235 113 121 122
-0.269995 -0.148899 0.009435 125 134 127
0.290041 -0.106899 0.022822 133 134 130
0.299998 0.457608 0.019484 136 137 133
0.259815 0.396719 0.017269 140 140 134
-0.095552 -0.280997 0.014782 136 142 140
0.124219 0.405145 0.014029 125 132 124
0.367553 -0.135797 0.028747 144 145 134
0.091968 0.345633 0.012838 125 136 136
-0.029836 -0.245885 0.016181 47 53 55
0.066238 -0.175570 0.018253 122 134 124
-0.267310 -0.086705 0.427857 120 169 174
0.305285 -0.213160 0.025080 130 132 123
0.261169 0.085363 0.017403 126 132 130
0.070152 0.088391 0.012853 102 116 107
0.108561 -0.009146 0.015029 104 117 112
-0.103402 0.124899 0.057957 43 35 21
-0.215108 -0.185880 0.010859 121 134 129
-0.012678 -0.105195 0.015438 116 127 123
0.014370 -0.096196 0.016315 104 120 111
-0.138064 0.210150 0.010842 82 90 89
-0.157546 -0.112662 0.015027 101 114 109
0.327937 0.447045 0.022785 146 143 138
0.106629 0.291558 0.011490 120 128 125
0.308269 0.258719 0.020386 87 90 91
-0.459588 0.054850 0.000796 114 125 121
0.004615 -0.170062 0.017044 107 125 121
-0.310320 0.455809 0.009299 142 146 139
-0.037789 0.168276 0.009732 101 117 106
-0.067844 0.308471 0.008905 130 141 139
0.109700 0.121286 0.012548 105 117 109
0.357342 0.126251 0.027515 139 140 136
0.100472 -0.196307 0.018491 130 138 135
0.034298 -0.236400 0.017691 123 127 122
-0.151831 -0.196984 0.014433 123 134 130
-0.091884 -0.261794 0.014839 139 146 140
-0.157441 0.458505 0.012425 132 141 132
0.287919 0.511444 0.018511 140 141 137
0.100360 -0.017202 0.015286 102 113 109
-0.340443 0.006942 0.395651 84 93 86
0.123646 -0.218494 0.019196 126 134 131
-0.016143 0.006797 0.013623 106 122 111
0.343432 0.054791 0.025123 133 140 132
0.132032 0.112333 0.013313 110 122 114
0.281167 -0.042492 0.021965 135 140 130
0.240759 0.538887 0.015819 139 140 129
0.288438 0.406177 0.019270 140 141 137
0.127255 -0.216804 0.019127 131 140 133
0.210276 -0.217266 0.020967 133 137 132
0.042796 0.512074 0.012775 132 139 133
0.053149 -0.166794 0.017995 75 81 81
-0.085797 -0.285801 0.014922 121 124 123
-0.200380 -0.087693 0.011435 61 76 75
-0.172127 0.070658 0.011018 29 37 38
0.113216 0.180050 0.011500 93 102 95
0.067188 0.227121 0.009697 90 101 99
-0.122578 0.139703 0.011495 106 120 109
-0.006029 0.060289 0.013113 89 103 92
0.077015 0.224544 0.010212 92 105 100
0.243307 0.317201 0.016457 135 139 134
0.154570 0.086697 0.013186 112 121 114
0.247976 -0.295713 0.022496 139 136 131
0.123164 0.416334 0.013373 113 119 119
-0.006082 -0.298833 0.016368 121 127 127
-0.071646 0.012042 0.014781 69 81 71
-0.479139 0.018884 0.440894 116 116 118
-0.105739 -0.172152 0.018337 102 117 116
-0.302734 -0.003036 0.391033 60 68 65
0.305803 0.155808 0.021347 71 78 72
-0.498905 -0.017583 0.418482 75 76 70
-0.195695 -0.137058 0.011917 115 127 119
0.097392 -0.086686 0.016277 119 131 123
0.162807 0.179990 0.012419 126 127 121
-0.034942 -0.085005 0.015819 114 130 121
-0.143259 -0.235359 0.013575 130 138 135
0.281687 0.374191 0.019627 131 137 135
-0.317389 0.464811 0.008255 136 142 140
-0.239860 -0.088193 0.426229 112 160 168
-0.121611 -0.148297 0.039707 63 110 123
-0.092169 0.088132 0.044227 48 50 32
-0.159912 0.505496 0.012731 143 146 145
0.087017 0.020814 0.015128 96 110 99
0.239880 -0.063392 0.021008 127 131 124
-0.032832 0.053635 0.013614 78 92 83
0.247809 0.370273 0.017313 67 76 69
0.151669 -0.140342 0.018607 132 140 141
0.336300 0.046519 0.024976 57 63 61
-0.302725 0.310495 0.005210 77 86 79
0.328398 -0.088927 0.024791 139 139 133
-0.330088 -0.100295 0.379158 60 71 67
0.200025 0.193452 0.013569 131 137 135
0.025127 -0.224616 0.016905 41 49 46
-0.249118 -0.045056 0.023472 51 64 61
-0.418522 -0.001940 0.405207 131 138 132
0.095447 -0.264411 0.018434 125 132 126
-0.366059 -0.078725 0.394691 130 164 172
-0.310352 0.538748 0.010679 148 153 143
-0.158857 0.064267 0.011428 85 106 95
0.012575 -0.289435 0.016257 109 121 113
0.254677 0.261082 0.015883 125 134 127
0.127430 -0.167152 0.019508 128 137 130
0.171562 0.283607 0.013496 128 135 129
-0.263580 -0.019004 0.035065 19 32 31
0.324077 0.380067 0.022945 91 90 90
0.348024 -0.095096 0.026732 141 137 130
-0.141772 -0.087139 0.015820 40 51 51
0.013499 0.170431 0.010755 101 115 106
0.062214 0.435156 0.012212 131 140 131
-0.198124 -0.087358 0.223413 24 32 31
-0.205560 -0.093257 0.011391 104 119 114
0.016846 0.525394 0.013291 133 134 130
-0.364716 -0.014530 0.372795 70 85 80
0.040313 -0.154306 0.017268 126 137 133
0.306619 -0.277257 0.025447 145 142 137
-0.495660 -0.017521 0.420591 73 73 67
0.300130 0.016850 0.022237 128 135 127
-0.263051 -0.062014 0.017915 109 120 116
0.227980 0.311897 0.016581 135 138 137
0.254636 0.292484 0.016412 134 141 135
0.386223 0.175195 0.031968 133 134 128
-0.208265 -0.083800 0.401494 68 95 104
-0.253670 -0.125910 0.010351 107 120 117
0.286425 0.363549 0.020052 137 141 134
0.160912 -0.189911 0.020400 129 136 130
0.341248 -0.280977 0.028432 132 122 120
-0.179192 -0.078660 0.012485 106 119 114
0.179197 -0.128163 0.020165 104 112 109
-0.305817 -0.060150 0.017589 117 126 117
0.011373 -0.143668 0.017202 116 129 124
0.294578 -0.168378 0.024561 133 137 132
-0.263961 -0.065239 0.429933 125 171 177
-0.135231 -0.147329 0.042403 65 103 115
-0.128383 -0.136528 0.041251 52 91 107
-0.002890 -0.271898 0.016361 129 129 129
-0.127865 0.272489 0.010064 128 142 131
-0.401545 -0.006173 0.394078 96 107 105
-0.080893 0.511594 0.013878 142 143 137
0.077927 0.024710 0.015399 89 107 101
-0.463789 0.000255 0.428773 82 81 81
0.377945 0.277743 0.029314 143 140 135
-0.345351 -0.102111 0.379880 67 96 97
0.392328 0.115391 0.032043 137 137 133
0.311110 0.225253 0.020598 90 101 101
0.091240 0.154907 0.011565 112 121 114
0.149980 0.500704 0.015003 92 92 86
0.095898 0.233962 0.010602 120 129 122
0.130597 0.306294 0.012131 111 119 118
0.185965 0.283623 0.013735 129 136 130
-0.001183 0.118179 0.012599 93 107 98
0.099036 0.175700 0.010904 112 124 116
-0.326778 -0.103907 0.364298 46 57 53
-0.031397 -0.279797 0.016274 125 134 127
-0.088571 -0.167306 0.019798 31 50 54
0.324372 0.152692 0.023194 139 140 134
-0.279298 -0.047010 0.023311 107 121 112
-0.072414 -0.022942 0.013003 102 115 110
-0.299521 -0.118570 0.009743 117 126 117
-0.036087 0.066302 0.013249 64 80 69
0.318577 0.385410 0.022703 134 138 131
-0.309651 -0.068623 0.394702 81 89 86
-0.039262 -0.188971 0.016573 41 52 50
-0.271357 -0.081180 0.013678 111 123 115
-0.440321 0.030199 0.428547 140 141 137
-0.003979 -0.075350 0.015216 98 114 105
0.276480 0.029702 0.020471 125 133 132
0.148052 0.528913 0.015306 137 137 131
-0.039585 -0.279701 0.015765 133 140 134
-0.112946 -0.138982 0.037681 38 91 109
0.055122 0.196987 0.009105 103 117 108
-0.322269 -0.055520 0.398380 81 92 88
0.362175 -0.126877 0.028989 145 142 137
0.334446 -0.053443 0.026056 55 61 61
-0.342448 -0.255117 0.007056 153 157 150
0.155302 0.029118 0.015634 99 112 107
-0.039274 0.361488 0.009749 90 96 96
-0.188545 0.255483 0.009167 128 140 130
0.250058 -0.283064 0.022564 67 63 64
-0.283701 0.346584 0.007845 98 107 100
0.328478 0.053270 0.023729 138 138 132
-0.274214 -0.100980 0.373079 48 60 50
0.249627 -0.263923 0.023279 95 95 99
0.351620 0.349010 0.026875 145 144 144
0.274853 -0.059676 0.021596 58 61 62
0.168248 0.395111 0.014181 129 136 130
0.184450 -0.004080 0.018101 118 125 119
-0.104992 0.082794 0.038162 44 47 31
-0.244331 -0.090745 0.426019 112 160 168
-0.227167 0.485326 0.011947 103 104 100
0.373666 -0.028285 0.031415 138 142 135
0.300938 0.031426 0.021507 130 131 125
-0.032637 0.009125 0.012665 102 118 109
-0.295586 -0.127344 0.008885 43 43 47
-0.197001 -0.296026 0.011433 104 110 108
-0.197055 -0.111136 0.199744 27 36 29
0.223814 -0.135619 0.021227 122 130 119
-0.007175 0.075097 0.012867 95 105 93
-0.156665 0.017975 0.009311 89 103 94
-0.156381 -0.024517 0.011127 99 112 107
-0.119880 0.250643 0.010466 124 136 126
-0.051373 -0.154717 0.031622 102 33 48
0.153607 0.353605 0.013635 131 135 128
0.240907 0.465670 0.015339 114 114 114
-0.330508 -0.069319 0.398094 90 98 95
0.084529 -0.109095 0.016785 43 50 42
0.018874 -0.054392 0.015176 48 63 62
0.299120 0.112087 0.020455 131 132 126
-0.124827 0.511547 0.013025 140 144 137
0.141873 -0.291893 0.019909 121 130 121
-0.075720 -0.210964 0.016217 122 134 126
0.165986 0.191391 0.012592 124 132 129
0.017754 0.109837 0.012215 29 42 39
-0.001197 0.366635 0.010510 127 134 126
-0.302784 -0.152077 0.008006 131 140 133
-0.357895 0.044594 0.398468 92 101 94
0.242284 -0.249109 0.022359 117 113 114
0.008171 -0.050701 0.015461 24 38 40
0.085523 -0.191144 0.018401 110 121 119
0.236677 0.061920 0.017422 120 130 118
0.226397 -0.020304 0.019517 119 127 124
-0.150840 -0.040269 0.011724 102 115 110
0.203897 0.373312 0.015903 132 139 133
-0.308082 0.011352 0.036450 113 128 123
0.096432 -0.038939 0.015817 112 121 114
0.364411 -0.106867 0.029040 147 147 143
0.056067 -0.257778 0.018004 127 134 128
-0.485815 0.026327 0.442573 155 152 147
-0.424929 0.009185 0.420984 129 135 133
-0.206269 -0.083143 0.334656 108 120 112
-0.024612 0.478358 0.011337 133 137 130
-0.445528 0.050590 0.419682 154 150 151
-0.082761 0.087689 0.072869 93 103 87
0.360307 0.390064 0.027571 149 145 138
0.093889 0.012920 0.014745 102 114 104
-0.031716 0.225888 0.009936 59 72 71
0.367646 -0.023965 0.030291 91 91 91
-0.136405 -0.069696 0.014088 118 131 126
-0.345045 -0.249746 0.004202 163 163 159
0.204009 0.470212 0.015749 140 141 132
-0.343283 -0.210017 0.004819 157 161 154
-0.477148 0.089623 0.128843 136 168 175
0.218855 0.465141 0.015508 68 76 73
0.014036 -0.130869 0.016282 112 124 116
-0.148823 -0.133357 0.042300 75 103 109
0.357022 0.102519 0.027227 64 70 70
0.074791 0.031054 0.014851 93 107 98
-0.306090 0.226758 0.040008 126 138 128
-0.322190 0.139629 0.141432 123 153 158
0.165384 0.323478 0.013282 130 139 132
-0.082560 -0.287409 0.015051 121 132 128
0.139261 0.478523 0.014474 135 136 132
0.104662 -0.170495 0.018877 53 64 64
0.390365 0.102986 0.030970 99 98 100
0.341909 -0.169200 0.027856 144 144 144
0.100426 -0.161618 0.018404 127 136 129
0.362421 -0.052640 0.029348 135 135 137
0.098260 0.262780 0.010541 113 122 113
-0.169245 -0.296307 0.012936 135 144 137
0.362369 0.340587 0.028108 121 121 123
-0.298962 -0.129133 0.008835 126 138 130
-0.336156 -0.199241 0.002028 154 161 155
0.009435 0.100731 0.012996 93 110 96
-0.163360 0.148233 0.011444 52 63 59
-0.206707 -0.081590 0.389714 69 89 86
0.374831 0.204220 0.029188 141 138 135
0.161270 -0.013759 0.017231 79 94 93
0.309118 0.104934 0.021854 57 63 63
-0.166848 0.311067 0.010411 125 138 137
0.310339 -0.204678 0.024976 68 67 69
-0.256117 -0.040813 0.027282 102 116 105
-0.349248 0.013712 0.398826 83 92 85
0.280217 -0.278590 0.024129 77 71 75
0.119848 -0.269371 0.018857 131 132 126
-0.311341 -0.012062 0.027001 111 119 116
-0.132469 0.058222 0.011344 80 94 85
0.229059 0.352977 0.015905 136 140 135
0.200306 -0.190122 0.021264 135 139 132
-0.328609 -0.113387 0.004455 56 65 58
0.329042 0.499288 0.023387 98 95 92
0.023443 0.437276 0.012147 132 138 138
0.136392 -0.088880 0.017560 126 129 130
0.057841 0.105243 0.013327 46 60 51
0.354821 0.208403 0.025836 138 139 135
-0.153590 -0.186896 0.015140 116 131 128
-0.254179 -0.068260 0.014353 108 121 116
0.079057 -0.206417 0.018087 128 135 129
-0.253402 -0.171638 0.009173 126 135 126
-0.225429 0.208029 0.009032 125 137 129
-0.344703 -0.122427 -0.001997 92 95 94
-0.232926 0.460396 0.011890 138 142 137
-0.229007 0.474075 0.012074 79 80 76
0.141814 0.207922 0.011673 115 126 122
0.044013 -0.127511 0.017278 131 138 132
0.341097 -0.147901 0.027245 132 131 133
-0.035991 0.019071 0.012946 88 104 93
-0.033212 -0.003209 0.013464 105 121 112
0.228972 0.186375 0.014339 74 74 74
0.349072 0.098762 0.026057 133 134 128
0.380309 0.341281 0.030907 135 139 132
-0.355174 -0.064908 0.397226 97 106 99
-0.328834 -0.280829 0.006999 126 127 121
-0.409710 -0.012041 0.384652 45 60 55
0.050320 -0.289660 0.017090 118 119 113
0.104474 -0.031140 0.015855 107 119 111
-0.300037 0.045471 0.327066 50 61 59
-0.312541 -0.026065 0.387559 75 86 84
-0.266527 -0.061350 0.430159 125 170 179
0.042110 0.498519 0.012083 125 134 125
0.142141 -0.052883 0.017455 70 74 69
-0.230052 -0.076469 0.426749 111 161 169
-0.139997 -0.081477 0.015602 106 120 111
0.354778 -0.248708 0.028196 119 113 115
-0.408539 -0.005853 0.395724 102 110 109
0.327832 -0.100272 0.025425 139 140 134
-0.361565 -0.074990 0.395437 136 165 173
0.297230 0.149534 0.020433 138 139 133
-0.270096 -0.242576 0.009200 62 62 58
-0.172184 0.238395 0.010087 118 131 126
-0.170514 -0.198300 0.012754 123 132 125
0.072703 -0.257868 0.018336 126 133 127
-0.329279 -0.067370 0.011159 32 43 41
-0.439112 0.035483 0.427551 153 154 150
0.085857 0.161583 0.011599 110 118 117
-0.356186 -0.003355 0.392850 76 84 81
0.086191 0.440092 0.013279 128 132 125
0.256443 -0.292700 0.023351 134 134 130
-0.039591 0.288750 0.009319 134 142 139
0.367161 0.285331 0.028736 124 126 117
0.220627 -0.157050 0.021407 138 140 129
-0.228628 0.247759 0.009302 130 143 130
-0.183315 0.180427 0.009836 113 127 116
0.010766 -0.265514 0.016451 120 126 124
