ply
format ascii 1.0
element vertex 1219
property float x
property float y
property float z
property uchar red
property uchar green
property uchar blue
end_header
-0.505192 0.015747 0.444579 125 125 125
-0.233031 0.181491 -0.000560 124 135 133
-0.302126 -0.132583 -0.004371 124 133 126
-0.265689 0.303227 0.002128 71 79 76
-0.346481 -0.099497 0.360562 84 120 126
0.278308 -0.160189 0.006382 138 138 132
-0.010577 0.261354 -0.003898 117 129 121
0.171164 0.162586 0.003234 121 129 126
-0.017283 -0.115766 0.020058 69 84 79
-0.381938 -0.096166 0.344455 97 126 123
0.003664 0.043571 0.004404 88 100 90
0.343867 0.195859 0.011968 77 83 81
0.238443 0.208016 0.005514 128 137 130
-0.363031 -0.068383 0.383359 88 109 115
0.261221 0.214393 0.006986 131 137 135
0.278186 0.152878 0.002050 121 134 131
-0.417722 0.037509 0.411089 138 139 135
0.047226 -0.128545 0.008395 67 82 79
0.259415 0.137209 -0.002519 128 137 130
-0.048086 0.222083 0.011962 53 38 68
0.098090 -0.155012 -0.000134 119 126 120
-0.262821 -0.103949 -0.001955 115 126 124
-0.076111 0.390258 0.002206 74 85 85
0.058754 0.220405 0.008993 105 117 109
0.074410 -0.084572 0.015368 95 107 99
-0.352941 0.047618 0.388020 87 94 88
0.066909 -0.093244 0.013304 80 95 92
0.301242 0.236956 0.013220 134 138 131
-0.176037 0.379437 0.000676 136 143 137
0.126519 0.075804 0.013307 108 115 107
-0.246338 -0.045229 0.422051 120 168 176
0.342609 -0.199427 0.016602 141 138 133
-0.155411 -0.171937 -0.003775 120 133 128
-0.062532 -0.096236 0.065259 40 46 44
-0.064885 0.032227 0.005814 43 56 51
0.014187 0.355857 0.001143 124 133 126
0.166955 0.090242 0.019081 116 125 118
0.229312 0.152382 -0.001911 126 133 125
0.167715 -0.107760 0.012998 124 133 126
0.387164 -0.083788 0.021065 145 145 139
0.306571 -0.129175 0.011770 61 60 60
-0.209327 -0.062993 0.378519 75 99 101
-0.301753 -0.027081 0.384633 72 80 77
0.313625 0.214039 0.008454 115 121 119
-0.285926 -0.091104 0.388426 57 70 67
-0.139763 -0.047952 -0.004052 87 102 99
0.033755 -0.008842 0.008528 34 42 39
0.154441 -0.153796 0.002188 81 84 83
-0.308767 -0.078735 0.387955 75 88 85
0.261114 -0.156630 0.006400 138 138 134
-0.219634 -0.079824 0.330637 55 70 65
-0.474395 0.003327 0.436446 127 130 129
-0.473943 0.001650 0.436783 126 129 130
0.057951 0.059476 0.015707 91 101 87
0.037120 -0.011288 0.009701 51 66 61
-0.460576 0.038340 0.423383 66 65 67
0.248518 0.030830 0.008309 54 61 65
0.140149 -0.184124 0.003072 129 136 130
-0.088323 -0.071173 0.018742 89 103 94
-0.053151 -0.069845 0.025974 47 49 36
-0.236315 -0.090570 0.002893 117 130 125
0.271271 -0.120457 0.019142 129 133 128
0.133013 0.390112 0.006448 110 113 114
-0.175270 -0.120523 -0.001425 86 89 90
0.029997 -0.199090 0.008121 118 126 123
0.299788 0.378103 0.011572 138 142 135
0.090261 -0.009029 0.004684 49 57 54
0.247738 0.329510 -0.000534 128 134 132
-0.251718 0.206095 0.000380 125 139 130
0.312202 0.002462 0.003708 116 125 118
-0.306400 -0.068833 0.392639 76 89 84
-0.384861 0.014525 0.396999 118 124 124
-0.109323 0.064443 -0.001539 20 38 34
0.092112 0.389120 0.006918 122 128 130
0.185773 0.114203 0.002131 103 111 110
0.031520 0.355661 -0.001718 126 137 135
-0.372631 -0.096539 0.351192 92 125 129
-0.312830 0.017797 0.373180 84 96 88
0.036324 -0.135423 0.007060 108 121 116
-0.281760 -0.116583 -0.002909 115 128 123
-0.484449 0.034209 0.443889 157 153 146
0.159352 -0.054656 0.006562 112 124 114
0.173536 0.007878 0.008529 114 123 116
-0.053567 -0.197417 0.000778 123 136 131
0.148708 0.238185 0.012349 86 92 94
0.323756 -0.185903 0.017897 142 139 134
-0.425575 0.029386 0.413684 124 127 126
-0.220255 0.222293 0.001177 121 135 126
0.393891 0.080060 0.021412 139 139 133
0.319806 0.149003 0.001543 126 139 126
0.085130 -0.162068 -0.000513 114 126 118
-0.172494 0.091765 0.002591 39 52 49
0.080890 0.342800 0.002661 119 127 116
0.226352 -0.073926 0.007403 126 129 128
-0.186892 0.034675 -0.001262 93 109 100
0.312616 -0.078093 0.014773 111 111 113
-0.146103 0.279020 0.000103 122 138 129
-0.215437 -0.070686 0.392404 115 161 165
-0.219354 -0.126178 -0.001017 110 124 115
-0.218424 -0.077149 0.348472 58 73 68
-0.171089 -0.173412 -0.004950 121 132 128
-0.382286 0.035320 0.397932 134 141 135
-0.482038 0.033103 0.443449 155 147 144
-0.315290 0.042052 0.378878 91 99 96
-0.361971 0.018978 0.395371 81 89 86
0.270523 -0.186582 0.005990 135 139 134
-0.388485 -0.011794 0.384633 41 47 49
0.157095 0.341587 0.002264 123 132 125
-0.247838 0.283943 0.012466 132 144 136
0.090565 0.320705 -0.001807 76 84 83
-0.127275 -0.081296 0.003988 108 119 115
0.266671 -0.033783 -0.001343 128 131 130
-0.371563 -0.053226 0.381321 137 169 176
-0.050107 0.225723 0.013594 101 34 37
-0.351226 0.008415 0.381961 96 104 101
-0.097901 0.349733 0.000317 124 136 128
-0.102287 -0.087608 0.006241 108 119 119
-0.014084 -0.050182 0.078278 113 122 102
-0.327699 -0.060010 0.001030 115 127 119
-0.289845 0.324214 -0.003200 139 146 140
0.041720 0.096094 0.001350 91 109 103
0.270798 -0.103620 0.018138 134 134 128
-0.237419 -0.086471 0.257468 63 71 70
-0.034130 0.363783 0.000017 125 137 129
-0.471135 -0.009347 0.417406 91 95 90
-0.097070 0.258052 -0.000406 112 131 121
-0.302313 -0.075328 0.391949 38 48 53
-0.142046 0.315776 0.000788 132 146 137
0.186050 -0.197034 0.013941 100 108 107
0.343406 -0.013574 0.003836 128 132 127
0.167135 0.221492 0.012876 118 130 120
-0.338154 0.024597 0.385488 84 91 85
-0.303231 0.002449 0.368540 69 80 76
-0.200512 0.235054 0.000009 44 58 60
-0.063020 0.033915 0.006658 91 103 95
0.199101 -0.115009 0.012809 128 134 132
0.146173 -0.177140 0.003201 132 139 133
-0.220478 0.233023 0.002855 59 70 68
-0.254028 -0.092463 0.411961 97 143 147
-0.325578 -0.063434 0.390140 86 97 93
-0.032202 0.206419 0.007372 100 115 110
0.208845 0.044777 0.013566 124 133 124
0.267573 0.174725 0.007476 131 138 132
-0.294428 -0.082290 0.392264 128 140 142
0.361892 0.287624 0.011111 140 140 136
-0.279047 -0.022104 0.003641 106 122 113
-0.256732 0.238743 0.004389 131 143 133
-0.082721 0.266480 0.001758 111 125 116
-0.208884 -0.064929 0.344527 67 85 79
-0.016300 -0.128115 0.006616 89 102 97
0.120037 0.176517 0.005920 110 118 117
-0.065929 0.198632 0.000489 72 94 95
-0.111690 0.020638 -0.001040 86 102 91
0.026687 -0.008043 0.006473 32 45 42
-0.046071 -0.178609 0.002043 121 134 129
-0.085876 -0.035439 0.020005 90 106 97
0.328146 -0.061432 0.010875 134 134 128
-0.347843 0.077674 0.384515 148 173 178
-0.007117 -0.072548 0.054841 53 56 38
-0.050796 -0.121433 0.038446 24 37 34
-0.283305 -0.043064 0.406458 129 168 173
0.203065 -0.179200 0.011739 128 134 132
0.355813 0.264241 0.016588 131 135 128
-0.214221 -0.075289 0.336227 61 76 71
0.047728 0.189587 0.002027 73 87 78
0.265366 0.049524 0.017537 124 131 125
0.136699 -0.017758 0.002068 109 119 107
-0.318888 -0.030289 0.384813 68 81 76
-0.435361 -0.012828 0.408072 78 87 80
-0.116598 0.099818 -0.004057 97 116 106
-0.118085 0.171730 -0.001522 76 95 95
-0.244894 0.348896 -0.001343 133 140 134
-0.238762 -0.091573 0.354365 50 63 58
0.259982 0.091113 0.005833 124 130 128
0.310971 0.030495 0.014513 103 111 112
0.369465 -0.007178 0.003212 131 132 126
0.192157 -0.145269 0.010643 128 137 130
-0.441026 0.030539 0.415946 121 121 123
0.291416 -0.122072 0.012397 131 135 128
-0.460971 0.034130 0.426928 60 60 62
-0.163267 0.131530 0.001528 100 116 107
0.326830 0.032905 0.013923 131 135 130
-0.259515 -0.081137 0.420373 119 170 175
-0.035698 0.122894 0.011415 104 118 109
0.238315 -0.073016 0.010407 125 132 126
0.283924 0.026465 0.014001 128 135 129
-0.350590 0.027591 0.394218 85 92 86
-0.098286 -0.185478 0.001633 120 135 130
-0.335931 -0.056296 -0.004118 118 130 120
-0.025678 0.365646 0.001148 128 139 135
-0.205793 -0.060593 0.333400 68 86 80
0.296044 -0.111992 0.009509 130 134 129
-0.324246 -0.081170 0.381925 79 90 86
-0.140063 0.226331 0.011074 51 57 59
-0.458534 0.047569 0.423329 99 93 95
-0.242467 -0.086747 0.413878 102 150 158
0.240629 0.140555 -0.004857 126 135 128
0.276513 0.130777 -0.002774 126 133 127
-0.386934 -0.072422 0.369699 136 168 175
0.277651 0.324427 0.003549 138 139 135
0.102904 -0.157154 0.001225 119 126 120
-0.067062 -0.090844 0.059904 40 48 47
0.052292 -0.062885 0.007119 58 72 61
0.341006 0.011396 0.002144 128 132 127
-0.124363 0.095466 -0.004118 101 117 108
0.090714 0.364858 0.004408 70 76 74
-0.041447 -0.054872 0.021171 41 45 24
-0.031790 0.359236 -0.004234 124 136 126
-0.342776 -0.097273 0.361712 52 67 64
-0.257537 -0.093502 0.411367 90 136 138
0.323750 0.054636 0.011805 133 135 126
0.228153 -0.108293 0.009116 131 132 128
-0.020012 -0.052276 0.069394 70 73 52
0.026702 -0.141505 0.009447 107 120 115
-0.269446 -0.103937 0.370827 29 45 36
-0.200147 -0.063858 0.285709 31 38 42
-0.137916 0.011536 -0.003887 101 115 106
-0.245024 -0.073459 0.418882 119 169 177
-0.087470 0.026475 0.004640 87 103 92
0.390338 -0.054623 0.019293 138 139 133
0.147029 0.090443 0.014140 114 125 121
0.264064 -0.053028 0.008376 125 132 124
0.396288 -0.072777 0.022062 142 143 137
0.142191 0.233480 0.012163 119 127 124
-0.195653 -0.160092 -0.001722 73 79 81
0.231976 -0.012612 0.005225 119 126 120
-0.370072 0.034111 0.395543 87 94 88
-0.097601 -0.149680 -0.000440 115 131 122
0.260916 0.398919 0.014534 133 140 132
0.305676 -0.042233 0.005870 130 134 127
-0.187547 -0.026983 0.002014 100 116 107
-0.080525 0.094619 0.006786 100 119 109
-0.511471 -0.020692 0.420799 79 74 72
-0.245080 0.184387 -0.001794 116 134 132
-0.146970 -0.093182 0.000047 106 121 116
-0.470937 0.004000 0.433557 126 129 130
-0.346638 0.057129 0.386023 100 103 102
0.385912 0.320606 0.007351 136 137 133
-0.013473 0.215432 0.004427 114 130 121
0.189605 0.313605 -0.004233 114 119 124
-0.119624 0.251743 0.001471 117 130 125
0.379584 0.022307 0.010633 138 139 135
0.028475 -0.144697 0.008016 108 122 113
0.039284 -0.175558 0.003917 115 127 119
-0.322055 0.033236 0.380080 90 97 91
-0.066901 0.029732 0.006797 98 117 107
0.385111 0.042703 0.015886 138 138 132
0.389371 -0.058590 0.019623 140 140 134
-0.198544 -0.100444 0.004991 111 124 121
-0.253985 -0.077011 0.420259 118 169 174
0.399390 0.027993 0.007276 140 140 134
-0.249341 0.354573 -0.002149 83 89 87
0.014742 -0.093825 0.014719 71 85 74
0.369115 -0.036694 0.012633 139 140 136
0.389947 -0.045336 0.020294 144 145 141
0.109082 -0.020137 0.007824 102 116 107
0.290856 -0.117978 0.010975 131 138 132
0.206041 0.080089 0.005641 118 126 123
-0.064146 0.233070 0.016577 119 77 76
0.019385 -0.145171 0.009719 106 120 111
-0.459597 0.011187 0.419600 84 92 93
0.016581 -0.103512 0.010266 83 97 88
-0.284531 -0.085046 0.400118 65 80 79
0.345465 0.041258 0.013978 128 135 129
-0.306603 -0.116415 -0.003605 115 127 119
-0.207110 -0.120879 -0.000376 45 56 56
0.230414 -0.037954 -0.001104 124 130 128
0.093177 0.371848 0.005532 126 133 127
0.158088 0.394468 0.011464 126 133 125
-0.093352 0.375033 0.001202 131 140 133
0.179054 -0.129918 0.007450 107 114 106
-0.454769 0.034428 0.420639 125 121 122
0.247620 -0.127268 0.017441 69 72 71
0.383233 0.041003 0.015036 138 138 132
0.295876 0.095225 0.011073 129 133 126
-0.372271 -0.091897 0.364399 106 142 150
-0.275977 0.387780 -0.001865 135 142 134
-0.015124 -0.091631 0.041293 132 140 129
0.341130 -0.153461 0.008161 138 138 132
0.211990 0.351820 -0.000090 124 131 125
0.326315 -0.059768 0.011592 136 136 130
-0.114688 0.132015 0.005475 98 117 107
-0.267491 -0.098403 0.378981 50 64 55
-0.051564 0.337974 -0.003713 126 138 130
-0.036463 -0.007938 0.061935 32 24 12
0.209627 -0.176711 0.008688 130 139 132
0.283321 -0.192339 0.015847 120 126 126
0.068365 -0.198685 0.006195 117 125 122
0.047659 0.026363 0.006591 86 95 88
-0.103202 0.259944 0.000284 120 138 132
-0.045542 0.061033 0.010999 21 36 31
-0.327552 -0.120064 -0.003750 42 49 53
0.077562 0.119015 -0.004518 99 113 102
0.079442 0.041456 0.014608 82 94 84
0.335117 0.059729 0.014530 133 137 130
-0.303559 -0.069825 0.394472 44 57 54
0.283509 0.335000 0.003136 112 113 109
0.077409 0.106893 0.001972 92 108 99
-0.254712 -0.125939 -0.002008 113 126 121
0.154054 0.065262 0.013671 93 101 98
0.276540 0.330032 0.002813 138 142 137
-0.038516 0.180401 0.000580 102 118 109
-0.459885 -0.007082 0.403362 40 51 51
-0.069087 -0.195749 0.001071 110 121 119
-0.215119 -0.155769 -0.004730 121 132 128
-0.153905 0.196311 0.014322 106 128 131
0.392962 0.170068 0.013629 139 140 136
-0.130211 0.192572 0.013320 79 118 125
0.381914 -0.075944 0.020139 145 146 142
-0.116325 0.217709 0.017731 37 95 113
0.009408 0.149833 0.003292 58 72 63
-0.312412 -0.094314 0.367347 51 65 56
0.313173 0.252500 0.015311 129 132 135
0.106599 -0.091270 0.013253 78 91 86
-0.064348 0.216429 0.013237 18 35 80
-0.105893 0.034938 -0.000823 44 57 52
0.133216 -0.139274 0.008287 121 133 125
0.242940 0.322629 -0.001680 132 139 133
-0.158975 0.362709 -0.004374 137 146 139
-0.448419 0.047863 0.417160 155 150 146
0.296635 -0.093938 0.011312 128 129 125
-0.347033 -0.007277 0.375889 99 107 104
0.388537 0.145486 0.013082 129 132 131
0.015913 0.063613 0.006391 90 109 99
0.275217 0.391743 0.013846 136 141 131
0.396165 -0.191082 0.017742 143 140 137
-0.011261 0.054793 0.006956 105 121 112
-0.028349 0.194500 0.004150 106 121 116
-0.541857 0.060951 0.008737 123 127 120
0.123114 -0.130659 0.009776 119 125 125
-0.136210 -0.118603 -0.001521 21 39 33
-0.325592 -0.008237 0.387146 54 62 63
0.265478 -0.174301 0.006033 130 139 132
-0.210755 0.154568 -0.004675 103 117 106
-0.211408 -0.089000 0.219582 12 20 19
0.298843 0.113438 0.005299 68 68 72
0.181779 0.039760 0.005973 84 91 85
-0.238152 -0.040431 0.423437 118 164 168
0.241269 -0.196735 0.004766 136 137 133
-0.239260 0.372892 0.001176 134 143 136
0.287029 0.119374 0.002177 129 133 126
-0.280561 0.349137 -0.002342 137 146 139
-0.236472 -0.035048 0.419374 118 159 163
0.382507 0.293104 0.014304 140 140 136
-0.068588 0.222066 0.019040 92 40 57
0.376276 -0.140919 0.015095 131 128 123
0.142940 0.258455 0.010571 118 127 120
-0.435772 -0.021694 0.406138 30 26 29
-0.247261 -0.091566 0.410382 86 137 142
0.094578 0.069520 0.017110 98 110 100
-0.333385 0.013997 0.378495 82 90 87
-0.381833 -0.019298 0.368105 173 125 131
-0.387610 -0.005439 0.390930 83 94 92
-0.010966 -0.134553 0.003785 102 115 110
0.208293 0.273860 0.003227 84 92 91
0.279898 -0.040390 0.005925 91 91 93
0.226015 -0.171962 0.003685 126 135 126
-0.215929 -0.076768 0.290242 88 102 93
-0.098532 0.031562 0.002249 84 101 87
0.385526 -0.132365 0.010538 134 135 126
0.193119 -0.064153 0.006504 118 130 122
-0.375343 -0.006723 0.369748 31 39 36
0.016067 0.029083 0.004666 71 85 74
0.068748 0.097663 0.002923 94 108 99
-0.101258 -0.158638 -0.000310 120 135 130
0.147559 -0.050645 0.011372 45 52 58
0.258258 0.331350 0.000650 129 136 130
0.079459 -0.059781 0.009411 94 110 99
0.181080 -0.160040 0.005628 129 133 128
0.140945 0.287246 0.004050 123 132 125
-0.080942 0.057375 0.000469 95 114 104
-0.039339 -0.008776 0.054834 48 36 20
-0.232132 -0.087816 0.332044 52 63 59
0.327618 0.042263 0.016097 132 133 127
0.300610 -0.151590 0.007770 136 137 131
-0.280559 -0.094698 0.390230 52 65 60
0.055845 -0.163378 0.004586 97 104 98
0.106389 0.258701 -0.001488 121 128 122
-0.449958 -0.014988 0.399990 29 29 29
0.196450 -0.033398 0.002166 121 129 126
-0.107815 -0.110733 0.003028 113 126 121
0.246963 -0.107285 0.017896 101 104 103
-0.309445 0.033605 0.370713 85 93 90
0.385430 0.104278 0.015871 135 136 130
0.018306 0.086611 -0.001587 76 90 81
-0.226217 0.294451 0.004790 128 142 131
-0.031338 0.093313 0.014331 103 122 112
-0.416834 -0.010168 0.406577 97 103 103
0.133453 0.203488 0.011170 118 127 120
-0.340091 -0.089883 0.371857 66 81 78
0.272210 -0.083362 0.013268 130 134 127
-0.144066 0.269474 0.003447 111 123 113
0.261825 0.110152 0.002615 119 131 121
0.373998 0.015650 0.011774 127 127 123
0.285498 -0.114714 0.012328 127 135 132
0.183159 0.226845 0.015868 128 136 135
-0.213948 -0.097493 0.221066 12 18 16
0.260942 0.292330 0.002431 131 135 130
0.326715 0.053772 0.013702 135 136 130
0.188205 0.029528 0.005823 103 114 110
0.012522 0.086650 -0.001749 99 115 106
0.373656 -0.113107 0.013616 140 140 134
-0.240462 0.297102 0.007787 130 144 135
-0.208513 -0.083707 0.222136 14 22 19
-0.308795 -0.074327 0.390006 76 89 84
-0.013548 -0.152363 0.003137 109 124 119
0.076582 0.029478 0.004529 76 87 83
0.202693 0.068383 0.012226 53 59 59
-0.134176 0.189774 0.014101 73 112 119
-0.197408 -0.068269 0.056420 110 122 114
-0.308310 -0.090142 0.378245 62 73 69
-0.303532 -0.100411 0.365889 48 57 50
0.097970 -0.135841 0.008787 118 130 122
-0.322422 0.019141 0.377921 92 99 93
0.336732 -0.148110 0.008309 140 140 134
-0.250331 -0.105650 -0.002357 115 126 122
0.146861 0.270326 0.007392 98 106 105
-0.302189 0.031405 0.357776 75 81 79
-0.243818 -0.047932 0.421975 120 169 174
0.304849 0.138693 -0.000412 129 136 128
0.103075 0.014215 0.007077 95 107 97
-0.239371 0.261928 0.005792 127 141 130
-0.065748 0.205638 0.000445 39 69 90
0.285814 0.281535 0.011423 137 141 136
-0.401318 -0.010893 0.396791 68 76 73
-0.503361 -0.015368 0.425737 83 83 83
-0.029879 0.059626 0.005315 107 123 112
-0.183564 -0.155982 -0.003846 120 133 128
0.087802 -0.127219 0.010277 47 57 60
0.337225 0.013131 0.002834 130 134 129
0.092200 0.030353 0.012044 87 100 97
-0.488991 0.020405 0.440632 114 114 116
0.155364 0.018946 0.010908 104 116 108
-0.233086 -0.085055 0.390681 91 135 140
-0.060865 -0.019976 0.030190 100 116 105
-0.237526 -0.090944 0.341455 49 62 57
0.231340 -0.067712 0.006038 124 133 126
-0.039338 0.267131 -0.002105 107 121 123
0.162713 0.356693 0.002850 123 132 123
-0.051721 -0.138023 0.003106 116 134 128
0.052665 0.058655 0.012953 90 104 95
0.074000 -0.086824 0.016514 95 104 95
-0.343538 -0.088084 0.373691 70 85 82
-0.202484 0.239469 0.004210 35 50 45
-0.017499 0.217279 0.005162 107 123 114
0.321946 -0.111140 0.012920 136 137 128
0.091713 -0.038150 0.003311 95 109 100
-0.069080 0.103233 0.011153 98 117 107
-0.088159 -0.117027 -0.000393 103 121 115
0.158318 -0.119561 0.009418 119 131 123
-0.338911 0.069116 0.385223 134 169 172
0.334113 0.357453 0.008545 139 140 136
0.188286 0.319184 -0.004987 58 63 70
-0.239972 -0.091361 0.342288 49 62 57
0.300413 -0.059929 0.011813 130 134 129
0.023388 0.244283 -0.003063 49 62 57
0.121370 0.373529 0.003883 110 114 109
0.038069 -0.171665 0.002381 114 126 118
-0.511615 0.037027 0.445458 154 149 145
0.325949 -0.019039 0.007369 130 134 127
0.037731 0.229780 0.004978 68 81 76
-0.096844 0.012178 -0.000102 90 106 97
0.041640 0.153836 0.000642 78 91 90
-0.095007 0.017250 0.002317 88 104 95
-0.229227 -0.040547 0.417040 121 162 166
-0.320671 -0.066791 0.388730 84 95 93
-0.495732 -0.014906 0.427293 85 89 84
0.337462 -0.000354 0.000977 133 134 128
0.369047 0.048822 0.020441 138 141 140
0.379734 -0.016037 0.010442 145 146 142
-0.212121 -0.134792 -0.002595 115 128 123
-0.189840 0.203866 0.001271 109 125 116
-0.262647 -0.098463 0.405588 75 116 120
-0.073752 0.203874 -0.000625 10 43 68
0.096422 0.096516 0.009872 103 116 111
-0.210463 0.240255 0.006534 125 139 130
-0.378962 -0.022165 0.367963 177 129 135
0.349548 -0.113533 0.014873 135 139 134
-0.336392 -0.035852 0.381677 78 87 80
-0.042925 0.085582 0.012578 113 127 118
0.272484 0.054589 0.015703 120 128 125
0.396372 -0.039716 0.020904 144 144 140
0.370450 -0.167682 0.007972 69 75 75
-0.221200 -0.089904 0.225477 44 57 52
0.278318 -0.161782 0.005640 136 137 131
-0.214109 0.217547 0.001367 122 136 127
0.387939 0.338815 0.010374 139 140 134
0.056224 0.392566 0.005198 125 131 129
-0.032049 0.019888 0.047440 63 60 44
-0.039030 0.237624 0.006238 87 100 97
-0.112222 0.207940 0.011104 63 117 128
0.361543 0.378769 0.001668 138 142 137
-0.259141 -0.071231 0.419479 118 169 174
0.217350 0.161461 0.001943 126 137 135
0.367794 0.359507 -0.000484 81 82 78
-0.306753 0.327410 -0.004445 135 144 137
0.376614 -0.152889 0.012844 146 145 147
-0.113560 0.031664 0.001828 84 96 86
0.343884 0.321946 0.001148 140 141 135
0.177735 0.324978 -0.002618 126 132 130
0.249271 0.191844 0.009358 121 129 128
0.174358 -0.033710 0.007953 117 126 119
-0.165061 0.112052 -0.003182 100 114 103
-0.083082 0.044984 0.000151 92 111 101
-0.052089 -0.042709 0.024294 47 49 31
-0.452807 -0.017784 0.397496 127 109 117
-0.360549 0.062631 0.384840 103 114 114
0.025013 -0.197277 0.007706 31 42 40
0.280029 0.058379 0.012185 118 129 127
0.307513 -0.134554 0.011502 126 130 123
0.355799 0.259584 0.019937 135 139 132
0.132982 -0.126393 0.007655 130 131 127
-0.376442 -0.042400 0.377381 126 153 164
-0.255836 0.359665 -0.002188 136 140 135
-0.213864 -0.063236 0.401438 118 162 167
-0.383598 0.014516 0.397035 118 124 124
-0.061976 -0.049768 0.032839 51 54 36
-0.100073 -0.059239 0.006276 95 108 103
-0.127439 -0.107970 0.005910 110 123 118
0.289803 -0.129624 0.013245 62 62 56
0.162616 -0.147990 0.007352 127 135 132
0.342588 -0.045272 0.014434 64 67 68
0.360137 -0.012208 0.000579 133 135 126
-0.253925 -0.039252 0.421287 123 169 175
0.081082 0.118067 -0.002643 97 111 100
-0.038255 -0.061130 0.022771 45 48 30
-0.325495 -0.076730 0.383953 84 95 93
0.103207 -0.043652 0.007728 103 115 107
0.067141 0.034663 0.006648 87 99 91
0.339003 0.375952 0.015103 139 140 136
-0.029047 -0.140315 0.004953 111 125 116
0.103119 0.396118 0.008312 129 136 130
-0.388693 0.029521 0.399447 119 122 121
-0.362731 -0.099473 0.354549 86 122 128
0.077337 -0.019039 -0.000379 95 104 95
0.111428 0.293342 -0.001757 119 127 124
0.355598 -0.162305 0.007805 141 138 135
-0.261990 -0.082751 0.418441 121 170 175
-0.099816 -0.028086 0.010856 90 106 97
-0.156727 0.026045 0.000074 88 104 95
-0.088282 -0.198068 0.003807 119 130 126
-0.028626 -0.117752 0.026505 30 41 41
-0.220110 0.215770 0.000352 122 136 127
0.066290 -0.181416 0.006445 118 126 123
0.325242 -0.142692 0.008266 139 136 131
0.228918 0.251190 0.001040 129 135 133
0.364722 -0.109812 0.014871 145 142 137
0.042438 -0.183929 0.002325 119 128 121
0.348185 0.048929 0.015427 133 135 126
-0.078782 -0.172698 -0.000638 119 134 129
0.327639 0.163323 0.008454 134 138 131
0.381676 0.100726 0.018515 136 136 130
-0.170485 -0.077453 -0.002191 33 48 43
-0.009139 0.222467 0.004527 101 121 118
0.053387 0.373989 0.001978 123 131 128
-0.077829 0.289873 -0.003752 120 134 125
-0.206706 -0.138571 -0.001979 116 129 124
0.233887 -0.021054 0.001355 124 130 128
-0.125986 0.176382 -0.001810 71 96 101
0.037380 0.007108 0.003928 87 99 89
0.254472 0.218858 0.011061 123 135 127
-0.259525 -0.141409 -0.004946 120 134 125
0.041485 0.223193 0.004235 110 122 112
-0.309674 0.346213 -0.002404 136 143 135
0.394344 -0.085463 0.020509 145 145 139
0.283439 0.180025 0.010438 133 137 132
-0.253151 -0.122174 -0.002413 101 116 113
-0.145213 -0.067469 -0.003376 101 117 108
-0.136285 -0.103789 0.004270 71 84 83
0.235921 0.196590 0.008944 127 136 129
-0.165883 0.208303 0.009601 115 130 125
-0.475362 0.031194 0.438355 149 146 141
0.130596 -0.040523 0.010039 110 122 114
-0.208112 0.131014 -0.002317 114 128 119
0.292442 -0.107108 0.011671 133 134 130
0.300670 -0.161175 0.003309 139 141 132
-0.357199 -0.085379 0.378939 112 151 158
0.315471 -0.028459 0.005967 124 130 128
-0.006536 -0.152410 0.003334 53 66 63
-0.463965 -0.009853 0.407462 95 108 107
0.216594 -0.071228 0.010562 131 131 133
-0.361203 0.005599 0.381442 72 79 73
-0.150062 0.229837 0.009084 100 118 114
-0.492708 -0.007526 0.435237 147 144 139
0.044631 0.082924 0.001931 88 104 95
-0.014858 0.362967 -0.001969 125 136 132
-0.066954 0.106335 0.009353 98 118 111
-0.377784 0.039965 0.398028 46 49 52
0.317406 -0.100797 0.015387 132 133 124
-0.057435 -0.020748 0.032145 102 118 109
0.021610 -0.182215 0.002474 113 126 121
-0.313009 -0.099723 0.361499 48 56 53
0.245169 -0.068463 0.008326 128 131 132
0.013930 -0.163094 0.003412 119 128 121
0.348142 0.055793 0.018621 131 135 128
-0.456357 0.015088 0.420414 65 58 67
0.199356 0.195802 0.009645 127 135 132
-0.038338 -0.117207 0.036388 26 37 33
0.340056 0.286048 0.013007 135 136 132
-0.039055 0.019114 0.044654 60 59 44
0.162776 0.053616 0.011831 108 122 113
0.129247 0.344381 0.004904 116 128 120
0.360894 -0.045665 0.010407 147 147 143
-0.484867 -0.008073 0.434123 138 142 135
0.286177 0.016366 0.013784 128 132 127
0.132219 -0.117195 0.007500 125 134 127
0.213491 -0.189846 0.012625 130 134 127
0.029288 -0.078454 0.007982 90 106 97
0.269504 -0.199161 0.007827 138 139 133
0.042529 0.139743 0.001833 101 115 104
0.206928 0.049919 0.015900 123 127 122
0.353778 0.257755 0.019022 135 139 132
0.329984 -0.115015 0.013574 138 138 132
0.092022 0.131457 -0.002689 107 121 110
0.362354 0.143545 0.008053 135 139 134
0.294365 -0.012093 0.009618 132 139 131
-0.260466 0.286917 0.007940 132 140 137
-0.471510 0.009649 0.431755 128 136 135
-0.167206 0.136042 0.001299 95 114 104
0.106974 0.057435 0.016284 91 107 98
0.147928 0.158331 -0.001677 123 131 128
0.153541 0.352999 0.004155 57 63 65
-0.085059 -0.137253 0.000219 116 128 120
0.245834 0.007241 0.006072 69 77 76
0.363467 0.036891 0.014713 135 139 134
0.233512 -0.108329 0.009266 131 132 128
-0.548011 0.038081 -0.004309 87 93 91
-0.350104 -0.061929 0.384559 93 101 100
0.053648 0.027125 0.004925 85 91 93
0.337244 0.347926 0.007518 134 134 130
-0.098644 -0.196664 0.005242 120 135 130
-0.025178 0.095079 0.010932 106 122 113
-0.263304 -0.065987 0.417376 123 172 177
-0.362958 -0.061982 0.381927 96 109 106
-0.023715 -0.047924 0.058063 59 62 37
0.381498 0.017174 0.008302 136 135 135
0.376071 0.110150 0.012796 53 55 61
-0.220845 -0.086575 0.232555 13 24 22
-0.081507 0.312649 -0.004298 121 135 126
-0.061795 0.239427 0.014092 91 54 51
0.031010 -0.130595 0.009142 98 119 108
0.240187 0.012373 0.008285 122 129 123
-0.317215 -0.051206 0.003249 111 123 115
0.321710 0.210328 0.006978 134 138 131
-0.289227 -0.083268 0.394178 65 80 79
-0.082171 0.102119 0.004709 99 118 108
-0.494939 -0.026250 0.420933 57 51 55
0.260121 -0.101935 0.018590 131 132 126
0.081597 -0.122833 0.007711 112 124 116
0.354020 0.040375 0.016040 134 138 133
-0.108368 0.342174 -0.003529 124 137 132
-0.079649 -0.133538 -0.000090 115 130 125
-0.129218 -0.095767 0.008225 109 122 119
0.169625 -0.051707 0.003841 109 123 112
0.037945 0.051029 0.006737 85 99 90
-0.297332 -0.065963 0.397567 85 102 103
0.266164 -0.064332 0.013110 128 132 125
-0.463999 -0.000452 0.415148 55 58 59
0.063383 0.146532 -0.002081 99 115 106
0.052474 0.206655 0.004603 38 53 50
0.023656 0.220720 0.000321 103 121 115
-0.216114 -0.115418 -0.000321 114 127 122
0.207257 -0.184645 0.012645 131 135 130
0.382530 0.289358 0.012561 134 140 138
0.198314 0.022738 0.007391 117 126 117
0.254708 0.170899 0.001983 133 137 132
0.084695 0.143638 -0.000557 33 44 44
-0.176871 0.134198 0.004553 100 116 107
-0.265202 0.294715 0.003698 57 65 62
-0.124402 0.110399 0.000626 95 114 102
-0.470710 0.037117 0.434636 153 150 145
0.162696 -0.160747 0.001416 126 133 125
-0.356326 0.012039 0.394524 79 88 81
0.132592 0.232800 0.009340 120 128 125
0.104084 -0.175515 0.003749 119 127 124
0.135195 0.048187 0.005134 104 113 106
-0.230411 -0.081409 0.260042 20 28 25
-0.171786 -0.115138 -0.001016 111 124 121
0.332409 0.238773 0.018347 139 140 136
-0.080936 0.077208 0.007495 96 117 106
-0.138017 0.022626 0.003479 103 116 111
0.218621 -0.115141 0.013355 129 129 123
0.115985 -0.084216 0.014622 38 47 40
-0.025986 0.114069 0.007609 102 118 109
-0.064247 -0.115465 0.036391 94 107 102
0.101060 0.116457 0.004955 105 117 109
0.056475 0.090707 0.003716 92 108 99
-0.223653 -0.078339 0.277131 55 61 61
-0.346275 -0.010061 0.377928 95 103 100
0.062269 -0.172073 0.004048 116 128 120
-0.064763 0.113404 0.008298 106 122 113
-0.063606 0.363297 -0.003335 133 142 133
-0.334448 0.038643 0.385521 85 92 86
-0.104501 0.147041 -0.001558 96 114 108
0.212804 -0.078064 0.013883 61 67 67
0.364065 0.178465 0.014431 136 137 133
0.191691 0.315494 -0.003288 89 95 97
0.010417 -0.060302 0.046743 82 93 89
-0.146187 0.313920 -0.000204 75 86 84
-0.207438 0.193130 0.003449 42 60 58
0.290867 0.245279 0.011254 135 139 132
-0.017227 0.085499 0.004513 105 121 110
-0.106043 0.206919 0.005304 47 105 121
0.318467 0.297283 0.014254 137 138 132
0.338774 -0.037449 0.009129 133 137 132
0.000383 0.205190 0.002298 108 124 115
0.275926 0.083984 0.007425 122 129 121
-0.214267 -0.089362 0.220428 22 35 30
0.140102 0.019724 0.004174 103 112 105
-0.246258 0.391433 0.000761 118 124 122
0.265511 -0.196899 0.005445 139 140 134
-0.048104 0.047421 0.013411 123 137 128
0.310232 -0.143129 0.009802 130 134 129
0.131785 -0.069356 0.015412 119 128 121
-0.017830 0.067282 0.002634 97 116 104
-0.241578 -0.045261 0.422185 120 169 174
-0.202168 0.128263 -0.001205 111 125 116
0.103354 -0.151852 0.001500 121 127 127
-0.222376 -0.079574 0.361565 61 76 73
0.032791 -0.133802 0.007705 107 121 112
-0.428802 0.016754 0.416530 133 136 137
0.119914 0.102498 0.011182 101 116 111
-0.110932 -0.071304 0.002527 100 114 105
-0.037237 0.088996 0.014345 106 122 113
0.100840 0.149857 0.000635 100 117 103
0.360893 0.012337 0.009823 139 140 136
0.364790 0.225736 0.013287 136 137 133
-0.009152 -0.168430 0.003519 119 134 129
0.204898 0.288942 -0.000892 129 135 133
0.284351 -0.038047 0.004948 138 138 138
0.122478 0.177509 0.004251 112 121 114
-0.400298 0.017405 0.405584 132 141 134
0.212050 0.031975 0.009913 53 59 61
-0.100912 0.118751 -0.002478 104 122 116
-0.324647 -0.017274 0.387382 88 96 95
0.254656 -0.125718 0.018382 131 132 126
0.370150 0.372881 -0.000805 143 143 139
-0.269367 -0.054324 0.413789 126 170 177
-0.172132 0.067893 0.008041 54 67 62
0.206977 0.248593 0.004665 128 137 130
-0.168161 -0.122181 -0.001975 23 29 31
-0.330217 0.002512 0.382074 26 34 35
0.181823 0.216901 0.016714 121 132 128
-0.234715 -0.083532 0.257817 33 41 40
-0.389583 -0.092133 0.350508 119 130 128
0.208364 -0.085479 0.019120 121 129 126
-0.040965 0.273678 -0.004625 29 46 47
-0.076130 0.210337 0.007827 50 99 125
0.336396 0.324029 0.005195 141 141 135
0.369529 -0.143283 0.017095 143 143 137
-0.459925 -0.002068 0.409005 44 50 52
0.314408 -0.076470 0.015584 130 134 127
0.348260 0.184723 0.011334 134 137 136
0.300403 -0.058279 0.012581 129 133 126
0.013205 0.075731 0.003120 102 116 107
0.007235 0.030752 0.000754 81 93 83
0.370998 -0.102780 0.016134 145 147 138
-0.033683 -0.025771 0.044892 109 120 101
0.335299 -0.048538 0.012686 92 91 95
0.320906 -0.160223 0.006590 136 135 135
-0.049473 0.339868 -0.002767 125 137 127
-0.044844 0.026944 0.031567 111 130 120
-0.202788 -0.075366 0.253785 17 28 24
0.076177 0.001007 0.004503 90 102 92
-0.167000 0.112065 -0.003236 100 114 103
-0.054189 0.211999 0.009284 8 52 107
-0.082591 0.376837 -0.000934 128 139 135
0.059476 -0.108342 0.008251 101 114 109
-0.044485 -0.012787 0.031840 102 106 99
-0.405086 0.008265 0.410007 113 121 120
-0.116832 -0.101604 0.009204 107 120 115
-0.196234 0.123755 -0.000912 107 121 110
0.204918 -0.155949 0.010483 130 134 129
-0.317868 0.012720 0.378383 89 98 91
-0.224165 -0.093462 0.222625 43 56 53
-0.074237 -0.198841 -0.000529 122 133 129
-0.322062 -0.019622 -0.003165 116 125 118
-0.078511 -0.101711 0.021383 92 105 100
-0.339242 0.058297 0.384590 84 95 95
0.249805 0.051311 0.013470 127 131 126
-0.518012 -0.011393 0.423820 81 85 78
-0.195407 0.398791 0.002461 140 149 142
-0.109892 0.007182 -0.002834 92 106 97
0.182281 0.281348 0.002592 116 124 121
0.173875 -0.093968 0.016301 125 132 124
0.138240 -0.096961 0.013797 117 129 119
0.399743 -0.088751 0.019147 109 108 110
0.087032 0.149951 0.000248 96 104 105
0.083933 -0.056814 0.006518 102 111 102
0.388999 0.093180 0.020747 139 140 136
-0.465865 0.035637 0.430788 115 116 110
0.049723 -0.177205 0.003475 115 127 119
0.067560 0.209365 0.011852 109 123 114
-0.213747 -0.118973 0.212176 22 30 31
0.101111 0.029482 0.014123 87 100 95
0.261585 0.051259 0.018227 126 133 127
-0.291294 -0.077666 0.398928 71 85 87
-0.251635 0.361547 -0.001181 136 143 137
0.126191 -0.142422 0.006603 126 135 128
-0.266647 -0.057534 0.414587 125 171 177
-0.178814 0.134211 0.004499 102 118 109
-0.054249 -0.111073 0.061920 26 35 28
0.029701 0.222510 0.001343 104 120 109
-0.295578 -0.098433 0.370367 19 30 28
0.213333 -0.161343 0.003820 134 138 133
-0.448536 0.009540 0.415867 122 125 128
0.368961 0.134928 0.007557 139 139 135
0.235106 0.177538 0.009981 129 136 130
-0.384493 0.042936 0.398099 134 140 140
0.363288 -0.143782 0.018875 139 139 133
0.351720 -0.136457 0.011993 137 139 130
0.285356 0.371219 0.013435 137 136 136
0.347806 -0.096530 0.013907 131 132 126
0.226091 0.109478 0.003395 121 133 125
-0.143401 -0.063526 -0.003691 102 118 109
0.041283 -0.142386 0.006180 115 126 122
0.299459 0.223275 0.012313 126 133 125
-0.106155 0.007156 -0.002730 88 101 96
-0.007427 -0.136177 0.003139 25 38 35
-0.502405 -0.007553 0.437129 141 142 133
-0.314580 0.024863 0.374208 89 97 94
-0.470608 0.004095 0.431404 124 127 128
0.267251 0.049511 0.017590 123 132 125
-0.308920 -0.092110 0.373999 57 69 61
-0.245521 0.195969 -0.001933 51 64 63
0.089952 -0.164193 0.000855 40 48 49
-0.269337 -0.080666 0.416976 122 166 171
0.124899 -0.133872 0.008336 115 129 118
-0.325528 0.329428 -0.004091 135 142 134
0.349105 0.197377 0.009528 131 135 130
0.135505 0.194424 0.007014 114 126 118
-0.349186 -0.104672 0.356964 77 108 108
-0.327382 0.017432 0.378074 86 93 87
-0.245752 -0.058087 0.420498 120 168 176
-0.303712 0.010333 -0.002993 110 124 115
-0.215021 -0.114757 0.217410 20 28 27
-0.054615 0.128897 0.008102 104 120 111
-0.192980 -0.114548 0.003012 111 126 121
0.386944 -0.156967 0.007957 140 140 136
0.121057 0.145313 -0.003058 114 123 114
0.226989 0.118929 -0.002108 124 133 126
0.042448 -0.185503 0.001593 119 127 124
-0.408288 -0.000187 0.411490 135 135 135
-0.025702 0.369485 0.002934 129 141 133
0.229618 0.340995 0.000938 136 136 130
0.368633 -0.021010 0.007781 140 140 134
-0.373879 0.284284 -0.004545 173 140 143
0.292278 -0.183418 0.014762 139 140 134
0.214765 0.158697 0.002783 55 63 62
-0.341816 0.029883 0.388938 85 92 86
0.161700 0.125549 0.001146 114 123 114
-0.252918 0.247122 0.006201 132 144 136
0.186918 -0.150013 0.008272 101 104 105
0.215745 -0.081988 0.014355 134 137 138
0.207889 -0.176699 0.008640 130 139 132
-0.370835 0.015583 0.393515 82 88 86
0.287212 0.187967 0.008735 130 140 128
0.367984 0.376782 0.000944 140 141 137
0.103562 0.196450 0.006962 112 124 116
0.187401 0.048302 0.010124 117 126 119
-0.338349 0.000184 0.378530 41 47 45
-0.326758 -0.070074 0.387013 86 97 95
0.333311 -0.187064 0.015447 141 141 137
-0.029498 -0.162298 0.000222 110 121 119
-0.107828 -0.122589 -0.000285 41 51 54
-0.209563 -0.075097 0.283494 21 33 35
0.224594 -0.020991 0.001094 127 130 129
-0.003370 -0.130290 0.001592 98 114 105
-0.180610 0.117435 -0.001160 67 79 81
0.353478 -0.134865 0.012789 136 138 129
0.239153 0.164913 0.004229 128 135 129
0.309112 -0.190954 0.017296 133 134 128
0.386978 0.046116 0.017533 138 138 132
0.286574 0.348269 0.006099 131 134 135
-0.155379 -0.176918 -0.004990 123 136 131
0.092579 0.096542 0.009765 102 115 110
0.120667 -0.064015 0.010931 111 123 115
0.198117 0.144792 -0.000899 119 131 123
0.083053 0.155345 0.002635 86 102 91
0.163723 -0.086797 0.017116 120 128 125
0.272397 0.063600 0.014378 117 124 116
0.099594 0.106213 0.007865 102 114 106
-0.044495 -0.011149 0.032603 62 57 53
-0.173207 0.149124 0.001685 31 50 40
-0.123843 -0.124655 0.000461 102 120 116
-0.032980 -0.011797 0.043695 22 22 24
0.373210 0.161218 0.008894 134 138 133
-0.032143 -0.093718 0.036481 123 136 123
-0.264309 0.367364 0.001132 78 86 83
0.096503 -0.166324 0.002274 46 49 52
0.043304 0.202036 -0.003351 107 119 111
-0.041253 -0.185864 0.003230 123 136 131
-0.043574 -0.034447 0.032820 60 63 40
0.072149 -0.014902 -0.000821 90 102 92
0.355912 -0.095968 0.012214 137 138 132
0.134964 -0.188818 0.000725 128 135 129
-0.313372 -0.121766 -0.004100 106 119 114
-0.043047 -0.192348 0.001259 121 134 129
0.284893 0.382058 0.012949 131 132 128
-0.464322 -0.021033 0.397832 155 112 118
-0.512476 0.011349 0.444512 143 140 137
-0.253302 -0.088989 0.303251 114 128 117
-0.260787 -0.112631 -0.003726 111 123 115
-0.322634 -0.056419 0.390187 84 95 91
0.135717 0.225137 0.010284 78 86 83
-0.160419 -0.197818 -0.004945 128 137 130
-0.066160 -0.055753 0.038750 51 53 37
-0.300664 -0.082034 0.004861 84 95 93
-0.194632 -0.044462 0.052141 96 109 104
-0.245992 -0.092752 0.367937 50 63 58
0.251439 0.008901 0.007019 117 130 125
-0.017034 -0.155519 0.001559 113 129 120
-0.151498 0.112337 0.000684 101 125 113
-0.238070 -0.095418 0.000581 108 121 116
-0.495305 -0.007921 0.431662 126 126 120
0.372836 -0.067682 0.007151 141 141 137
0.121349 -0.130647 0.009727 108 114 114
-0.469135 0.039469 0.433573 157 153 146
-0.362113 -0.080914 0.380864 122 161 170
-0.327297 0.008206 0.380402 33 44 44
-0.307383 -0.040778 0.388013 68 79 75
-0.044917 0.128832 0.008374 25 39 28
0.044246 0.235023 0.004312 109 123 114
-0.399371 -0.084530 0.354846 138 147 140
0.296218 -0.192884 0.018203 135 139 134
-0.175707 0.190343 0.000933 97 112 107
0.333253 0.272781 0.014343 137 138 132
0.237174 0.395158 0.005422 128 132 127
-0.402005 -0.065142 0.363790 152 155 154
0.108957 0.071599 0.013009 96 108 98
0.139852 -0.162187 0.000033 127 136 129
-0.549238 0.040338 0.022084 71 75 68
0.238087 0.337108 -0.000608 133 140 132
-0.038550 0.185809 0.003097 101 114 109
0.033457 -0.127889 0.006064 47 62 57
0.299648 0.259240 0.015820 131 139 128
-0.341640 0.058895 0.385897 88 99 99
-0.135808 0.308910 -0.000007 68 86 80
0.135902 -0.067087 0.014390 118 127 120
-0.120382 -0.142351 -0.001048 115 129 120
0.135516 0.192613 0.006171 115 128 123
-0.442276 0.031675 0.416436 129 132 133
-0.125361 -0.056751 0.004439 101 114 109
0.309276 0.393444 0.015699 138 138 134
0.155751 -0.070492 0.013423 120 129 122
-0.302460 0.291112 -0.002451 130 142 134
-0.277362 0.001131 0.014511 107 121 112
0.262897 -0.023661 0.003252 126 135 128
0.236482 0.036930 0.012981 122 129 123
0.202220 0.333520 -0.003396 126 134 131
0.369998 0.082839 0.019755 74 77 76
-0.143332 -0.115040 -0.001187 108 123 118
0.202914 0.376781 0.004627 129 133 128
-0.363584 -0.085984 0.377354 111 150 159
0.318146 -0.087568 0.014948 136 136 136
-0.336468 -0.079979 0.382098 83 94 90
-0.042228 0.252323 0.001946 33 46 43
-0.098739 -0.198661 0.006516 121 136 131
0.209596 0.020958 0.006914 119 123 118
-0.357095 -0.045809 0.378604 97 105 102
0.278486 0.130763 -0.002719 127 131 124
-0.271343 -0.114464 -0.003805 116 128 120
0.115550 -0.015358 0.005836 82 94 86
0.290308 0.057433 0.009858 128 135 127
-0.522647 -0.022735 0.410671 89 90 86
-0.181815 -0.048353 -0.003342 100 116 107
-0.064669 -0.110402 0.065219 28 37 30
-0.316932 -0.194518 -0.003872 135 142 136
-0.108495 0.331552 -0.002960 125 139 130
-0.297954 -0.090473 0.381724 23 33 36
0.193022 0.056843 0.014276 114 126 118
0.314645 -0.144223 0.007222 129 133 128
-0.419642 0.016756 0.414610 128 131 132
0.157392 -0.006491 -0.000870 61 69 68
0.073779 -0.042334 -0.001403 96 108 98
0.264543 -0.091714 0.015761 71 77 77
-0.325227 -0.101910 -0.002950 121 130 121
-0.248845 -0.068163 0.419021 120 168 176
-0.479280 0.026694 0.438344 139 146 140
0.116095 -0.070223 0.012312 38 47 40
0.126930 -0.073566 0.011094 117 129 121
-0.010557 0.040364 0.011295 98 114 105
0.146824 -0.152667 0.004683 132 139 133
-0.153671 0.159718 -0.004913 72 90 88
-0.403827 0.004888 0.408474 128 136 135
0.354084 0.030115 0.011266 91 97 95
0.078485 0.026052 0.002993 80 92 84
-0.047808 -0.073100 0.024625 52 55 39
0.264516 0.080116 0.010786 126 133 127
0.209038 -0.014882 0.005661 121 128 122
-0.223437 -0.084197 0.237996 13 21 18
0.249294 0.188223 0.007673 118 129 127
-0.290738 -0.075303 0.001684 112 124 114
0.317587 0.279605 0.014825 134 138 131
-0.121458 0.275131 -0.000939 86 101 100
-0.363309 -0.094647 0.364502 99 135 141
0.267273 0.046091 0.015998 126 130 125
0.078381 0.174999 0.003915 108 122 113
0.111888 0.362795 0.004107 126 132 130
-0.000429 0.071488 0.002927 65 80 77
-0.321236 0.043881 0.382854 90 96 94
0.232976 -0.154845 0.006354 133 137 132
0.289217 0.002020 0.009407 126 133 127
-0.168149 0.046496 0.004825 93 109 100
-0.324294 -0.073414 0.385534 85 98 95
-0.512192 -0.017993 0.423136 80 81 75
0.392552 -0.085451 0.020459 146 146 140
-0.126300 0.206129 0.017547 58 102 118
-0.038934 -0.175029 0.001726 29 42 41
-0.393240 -0.060299 0.370732 135 170 173
-0.357112 0.279311 -0.004130 135 95 98
0.280075 -0.161794 0.005690 135 136 130
0.278369 -0.126908 0.016360 107 108 104
0.001225 0.068882 0.003973 90 108 102
-0.345240 -0.021780 0.382436 86 95 88
0.242629 -0.033711 0.003459 121 129 126
0.216830 0.174769 0.002605 120 128 125
-0.286947 -0.050040 0.000321 106 121 116
0.260517 0.085834 0.007806 124 130 128
0.344955 0.003003 0.002774 131 131 131
0.076408 0.173213 0.003022 109 123 114
-0.334956 0.040858 0.001416 121 134 129
0.201209 0.235998 0.012967 130 138 135
-0.163084 0.108906 -0.001274 102 118 107
0.116931 -0.108613 0.015432 46 54 53
-0.234323 -0.098676 0.219881 99 113 104
0.199122 -0.118228 0.011311 128 131 130
-0.050051 0.216656 0.009375 19 47 105
0.046056 -0.023783 0.006370 79 95 86
0.270651 0.291115 0.004375 134 138 133
-0.327404 -0.089953 0.000341 123 135 127
0.359507 0.107659 0.008913 131 138 132
0.227617 0.121631 -0.003038 127 134 128
-0.378969 -0.021003 0.368504 175 127 133
-0.360909 -0.005022 0.372093 120 128 127
-0.328961 0.027423 0.381573 82 94 86
0.100337 0.236590 -0.000936 118 126 123
0.200552 0.396745 0.022676 138 138 134
0.033891 0.362637 -0.000604 127 134 128
-0.257154 -0.051112 0.417872 122 167 176
0.125141 0.069773 0.008249 40 48 47
0.043804 0.346082 -0.002484 114 126 118
0.227739 -0.102221 0.007516 130 131 127
-0.286936 -0.051687 -0.000446 107 122 117
0.210821 0.200131 0.006500 130 139 132
0.262994 -0.182674 0.004265 135 139 132
-0.185652 -0.134971 -0.001854 115 130 125
-0.327987 -0.068957 0.387494 86 97 95
0.323100 0.190283 0.005414 127 134 126
0.307887 0.304027 0.011547 133 137 130
-0.255663 -0.054320 0.418632 123 168 177
-0.318127 -0.097107 -0.000493 117 129 119
0.292494 0.081247 0.008874 129 136 128
0.375392 -0.046888 0.019118 141 144 145
-0.036268 -0.163339 -0.002681 36 54 52
0.122728 -0.151984 0.002043 50 56 54
0.389819 -0.095807 0.017759 139 140 134
-0.076585 0.354557 -0.002291 81 89 88
0.191947 0.239531 0.011013 127 136 129
0.288945 -0.196175 0.017547 136 137 131
0.268475 0.363655 0.009387 138 139 135
-0.395158 -0.004192 0.395689 97 103 103
0.300992 0.250739 0.014111 137 138 132
0.289377 0.087385 0.009427 126 135 128
0.273902 0.196333 0.010008 127 134 128
-0.013060 -0.061701 0.065223 55 57 39
-0.318358 -0.017317 0.387558 194 208 210
0.088634 0.143611 -0.000446 100 115 110
0.343852 0.019135 0.008042 64 70 68
0.019634 -0.075166 0.025765 44 57 52
-0.127362 -0.136422 -0.002920 113 129 120
0.243984 0.003858 0.004439 120 127 121
-0.186586 0.371819 -0.003200 136 143 137
0.395784 0.292296 0.012135 139 139 133
-0.239544 0.195929 -0.001766 55 63 64
-0.303880 -0.083175 0.386040 66 79 76
-0.315700 -0.091830 0.370608 52 67 62
-0.289567 -0.087796 0.389853 61 74 71
-0.477746 -0.025780 0.413963 77 50 55
-0.274346 -0.082854 0.413594 113 154 160
-0.089987 -0.118916 -0.000226 105 120 115
-0.093085 0.008763 -0.001574 90 105 100
-0.041577 -0.155353 0.000872 133 144 142
0.077652 0.191195 0.003708 81 89 90
-0.355686 -0.066207 0.384601 94 105 103
0.360758 0.069025 0.021864 147 148 142
-0.000081 0.038458 0.001907 92 107 93
0.209041 0.392849 0.021126 133 134 130
-0.246848 -0.088198 0.301613 63 78 75
0.036982 -0.161160 0.002823 114 125 121
0.340013 0.031109 0.013497 80 76 81
-0.193267 0.172531 -0.000182 106 120 111
-0.056000 0.101313 0.015080 101 122 109
0.281903 0.102385 0.009557 122 134 124
0.078041 0.166809 0.002299 107 121 112
0.082496 -0.164643 0.002620 110 123 122
-0.085326 -0.146577 0.001387 114 127 122
-0.158758 -0.189317 -0.004246 125 133 130
0.379687 0.005407 0.007182 117 120 121
-0.062256 0.330533 -0.004200 128 137 128
-0.067042 0.027230 0.007835 96 115 105
-0.281591 -0.094059 0.391599 52 65 60
-0.313787 -0.028510 -0.000424 112 123 119
0.075813 -0.006498 0.003205 59 70 68
0.275227 0.189858 0.009242 72 75 76
-0.214292 -0.085382 0.222280 0 13 8
0.279271 -0.163885 0.006898 135 136 130
-0.363240 0.018986 0.395336 84 92 89
-0.517422 0.039430 0.444189 158 153 149
-0.209927 -0.091666 0.218387 8 16 15
0.168444 -0.180537 0.010038 130 134 127
-0.368310 0.017869 0.394658 81 89 86
-0.100345 -0.079849 0.005500 100 115 110
0.042550 -0.152742 0.004709 115 126 122
-0.146110 0.284457 -0.000676 125 141 132
0.024685 0.090088 -0.004184 97 112 107
0.352458 0.004656 0.003777 133 136 135
0.221280 0.363219 0.002196 86 89 90
0.366145 0.130438 0.007586 139 139 133
-0.111188 -0.082042 0.006348 99 115 106
-0.143685 0.071592 0.000718 101 117 108
-0.127118 0.393776 -0.003263 100 112 104
0.090413 0.016782 0.005670 87 101 92
-0.477409 0.011159 0.435584 131 137 135
-0.002958 -0.070273 0.063754 106 108 90
0.240134 -0.074669 0.009694 125 131 129
-0.317535 0.278050 0.002034 137 146 139
0.309891 0.150867 0.002102 131 132 126
-0.256949 0.247150 0.006088 132 144 136
-0.350570 0.057156 0.385913 103 109 107
0.219816 0.397913 0.014992 121 129 128
0.096572 -0.102441 0.013258 113 122 115
0.126080 0.162079 -0.000614 112 120 117
-0.230848 -0.078303 0.273613 74 82 79
-0.079170 0.056519 0.002332 107 122 117
0.008946 -0.154622 0.004993 116 130 121
-0.165993 0.217441 0.006127 121 132 128
0.387935 -0.153258 0.007507 147 145 137
-0.072636 0.155585 -0.004312 54 60 58
-0.234971 -0.087455 0.252672 109 121 113
-0.159469 0.143704 -0.000411 96 115 105
-0.313518 0.373352 -0.004235 140 144 137
0.190065 0.388457 0.009662 96 101 106
-0.266283 -0.047358 0.413818 125 170 179
0.287757 -0.034985 0.002065 133 133 133
0.327687 0.221256 0.012252 131 135 128
-0.227030 0.251544 0.003549 128 140 130
-0.460390 0.008387 0.419375 104 115 115
0.083362 -0.194558 0.010790 117 123 121
0.365184 -0.197125 0.013964 141 141 135
-0.120056 0.179941 0.000032 71 96 101
-0.397520 -0.077485 0.360390 140 151 151
-0.041108 -0.008665 0.036072 59 47 31
-0.358970 0.068672 0.383288 120 144 146
0.225949 0.193031 0.006977 129 135 135
0.341713 -0.049272 0.014751 55 53 60
-0.186716 0.257726 0.002166 128 140 132
0.158935 -0.171996 0.003786 120 128 125
0.131704 0.223339 0.009322 114 123 116
-0.054246 -0.119850 0.039075 24 37 36
0.029515 0.033210 0.004800 76 89 84
0.354879 -0.180371 0.009304 135 139 132
-0.317955 -0.090033 0.372478 60 71 67
0.007039 0.126595 -0.003187 101 117 108
-0.103698 0.050635 -0.003378 94 110 99
0.298791 -0.190884 0.017007 134 138 133
-0.473325 -0.003945 0.438612 134 134 130
-0.117184 0.042676 0.000221 94 110 101
-0.124438 0.090185 -0.002164 101 117 108
0.190126 0.378799 0.005168 126 134 131
0.374798 0.143797 0.011868 63 71 70
0.332729 0.362537 0.008662 142 143 139
-0.199546 0.097676 -0.001017 102 121 109
-0.437197 0.034595 0.414643 139 139 139
-0.024660 0.102563 0.008915 102 121 111
0.059187 0.042422 0.012220 86 100 91
0.306532 -0.187349 0.016687 139 140 134
0.297071 -0.190872 0.016959 134 138 133
-0.351388 0.039314 0.390823 86 93 87
-0.366063 -0.099290 0.351220 88 121 125
-0.299693 0.002331 0.366389 72 79 73
-0.100520 0.018074 0.000322 91 107 98
-0.451962 0.028140 -0.003737 116 124 121
-0.270538 -0.078355 0.005306 107 120 115
0.344931 0.116281 0.004748 67 73 75
0.048180 0.068564 0.009702 34 41 35
-0.507402 0.004142 0.444625 136 140 135
-0.305485 0.346184 -0.002287 133 142 133
-0.043237 -0.195924 0.001795 119 130 126
0.303674 -0.017205 0.007528 128 135 127
0.007440 0.043546 0.004509 87 99 89
0.341044 0.112762 0.002989 119 118 118
-0.269410 -0.031019 0.416913 145 163 170
0.004714 -0.196694 0.005138 117 125 122
0.216309 0.208165 0.004894 120 128 127
0.302592 -0.070827 0.015636 131 135 130
0.381988 0.128439 0.011563 136 140 135
0.007747 0.167379 0.008098 101 117 108
-0.142012 0.296653 -0.000388 125 139 128
-0.170442 -0.079729 -0.001042 35 48 43
0.155428 0.008776 0.006176 109 118 109
-0.486359 0.028148 0.442111 152 152 146
0.127639 -0.121538 0.009749 123 131 128
-0.346520 0.008779 0.374553 48 51 52
-0.134523 -0.095115 0.006156 109 122 121
-0.173920 0.210999 0.005088 118 134 125
-0.170173 0.232682 0.004264 28 45 48
0.116023 0.183743 0.009159 50 58 55
0.175171 -0.113967 0.009237 124 133 126
0.263053 0.150354 -0.001804 126 133 127
0.041094 -0.068399 0.006410 89 101 93
-0.475971 -0.005104 0.440197 137 137 133
-0.314366 -0.064001 0.391329 79 90 86
-0.477341 0.031678 0.439622 149 146 141
-0.216941 -0.095777 0.220669 54 69 64
0.155817 0.228651 0.012546 125 131 131
0.240666 -0.117929 0.010538 131 132 128
-0.065451 0.020543 0.009185 98 117 107
0.185584 -0.122393 0.006743 46 49 50
