ply
format ascii 1.0
element vertex 1213
property float x
property float y
property float z
property uchar red
property uchar green
property uchar blue
end_header
0.037988 0.121689 -0.001790 100 114 105
-0.214185 0.297654 0.000414 130 144 135
0.053579 -0.004495 0.002958 55 63 60
-0.035038 -0.198379 0.005075 125 131 129
0.097087 -0.078839 0.004035 121 128 122
-0.448464 -0.011278 0.392012 41 47 45
-0.273596 -0.093542 0.346350 33 44 40
0.283719 0.405679 0.006507 127 127 123
-0.355018 0.027251 0.385816 86 92 90
-0.369235 0.041260 0.392125 93 94 90
0.359509 0.191674 0.011479 83 83 85
-0.141385 -0.299741 0.001971 139 145 143
0.347579 0.272664 0.014774 129 136 130
0.124428 -0.193489 0.005984 133 139 139
0.004346 -0.086017 0.002182 53 71 67
0.152958 -0.091325 0.008010 124 132 133
-0.430795 0.047600 0.417840 153 153 149
-0.351768 -0.041824 0.376798 99 106 100
0.035572 0.208750 -0.002973 109 121 113
-0.222289 -0.088237 0.341954 57 68 64
-0.027965 -0.232263 0.005013 128 136 133
-0.078580 -0.228248 0.001902 125 136 132
0.233084 -0.290922 0.010590 133 133 129
-0.263123 0.282024 -0.002825 130 142 132
0.195705 0.153133 0.004349 93 101 100
-0.151935 -0.170441 -0.002691 111 126 123
0.020782 -0.169735 0.001697 120 134 125
-0.269486 -0.061389 0.409354 125 171 177
0.136441 0.442330 0.001803 128 136 125
-0.438669 0.034079 0.417354 139 139 139
-0.441580 0.003484 0.411973 149 152 151
-0.015041 0.517681 -0.004081 116 119 120
-0.483452 -0.009908 0.391560 36 42 42
0.196559 -0.015889 0.003031 119 130 126
0.133292 -0.079030 0.004889 123 132 125
0.269737 -0.098634 0.008255 129 136 130
-0.128174 0.138780 0.000947 102 116 107
-0.342775 0.200445 0.041245 107 121 125
-0.055732 -0.047520 0.000881 107 123 114
0.388837 -0.026071 0.010804 143 143 137
-0.331404 0.048990 0.379984 85 92 86
0.224240 0.278512 0.000249 134 141 135
0.005107 0.124885 -0.004167 94 108 97
0.375577 -0.101064 0.010730 150 145 143
-0.186684 0.017836 -0.004942 93 107 98
0.024187 -0.084449 0.003290 62 67 72
0.108350 0.449239 0.002823 136 138 129
-0.020416 -0.220234 0.003606 125 136 132
-0.306102 0.018614 0.367405 38 51 50
-0.441980 0.037895 0.420312 145 142 139
-0.112850 -0.104898 -0.003960 100 113 110
-0.159799 0.188667 0.000143 111 123 113
-0.304369 -0.021185 0.379776 106 112 112
0.384897 -0.150010 0.015487 148 148 142
-0.216149 -0.096189 0.185479 12 23 23
0.206755 0.423114 0.010016 127 134 126
-0.156586 0.316661 -0.000721 132 143 141
-0.440302 0.098134 0.183769 74 76 63
0.071597 -0.262265 0.005374 128 132 127
-0.265318 -0.083412 0.402406 125 164 171
0.131670 -0.273524 0.003464 124 128 123
-0.105378 -0.065144 0.001282 33 46 41
-0.430814 0.006094 0.412663 129 132 131
0.074170 0.456134 0.000495 129 136 130
0.019738 0.226822 0.001840 79 93 84
0.291797 -0.252207 0.011244 129 133 128
0.368480 0.177650 0.008032 137 141 134
0.110070 -0.059376 0.003127 118 127 120
-0.323411 -0.096495 0.360390 55 63 60
0.321773 0.139352 0.002777 134 141 133
-0.296108 0.271122 0.009047 83 96 93
0.211410 0.270199 -0.002255 133 137 132
0.079043 -0.138371 0.004844 123 135 127
-0.196650 0.017579 0.032689 90 106 95
-0.477030 -0.008580 0.411858 81 85 80
0.207617 -0.196994 0.006005 133 137 132
0.056417 0.138275 0.000647 98 113 108
-0.138062 0.110515 0.008574 43 54 54
0.292859 0.054644 0.006850 132 133 129
-0.074736 -0.059370 0.006872 24 37 34
0.345626 0.358851 0.006906 138 139 135
0.258553 0.510021 0.003668 68 68 68
-0.139667 -0.278130 -0.004412 142 145 144
-0.407838 -0.008522 0.388456 63 71 70
-0.134280 -0.051909 -0.003778 103 116 111
0.026692 -0.023351 -0.000038 87 100 95
-0.127244 -0.102009 -0.001379 101 114 111
-0.112880 -0.086309 0.002202 98 113 108
-0.219813 -0.276218 -0.004939 140 146 144
0.307122 -0.007298 0.007793 63 71 70
0.355309 -0.052071 0.011933 137 139 130
0.145612 -0.205594 0.006131 103 109 109
-0.208547 -0.079795 0.381070 69 89 86
-0.384449 0.048578 0.401027 147 147 141
-0.091258 0.086892 0.026145 41 43 25
0.256149 0.168258 0.002628 132 139 131
-0.323069 0.053727 0.378021 87 93 91
0.018749 -0.225225 0.002994 115 126 122
0.294947 0.220003 0.006117 137 138 132
-0.445755 0.020827 0.418847 121 124 125
0.065098 -0.223664 0.003335 126 130 125
0.224889 -0.029441 0.002430 127 134 126
-0.243609 0.251064 -0.003361 132 144 134
0.192304 -0.297063 0.009824 134 140 138
-0.138169 -0.152649 0.010585 75 105 110
0.082047 0.494241 -0.004618 133 137 130
-0.027240 0.169811 0.003294 104 116 108
-0.443202 0.027015 0.418638 116 119 120
-0.426130 -0.003829 0.403493 115 121 119
-0.150594 0.376205 0.001965 132 143 139
0.382250 0.167836 0.009403 138 142 135
0.062847 -0.062076 -0.000560 106 120 111
-0.041404 0.222277 0.004277 99 107 106
0.140840 -0.252267 0.003666 129 131 122
0.188785 -0.167299 0.006252 40 48 47
0.134059 -0.291571 0.005732 125 132 124
0.093863 0.151043 0.006489 104 112 111
-0.188310 -0.069507 0.265071 84 92 89
-0.143138 -0.208337 -0.004039 122 135 130
-0.429805 -0.013563 0.379672 33 34 30
0.152833 0.145401 -0.002722 119 128 121
0.187946 0.382616 0.006984 106 112 112
0.109065 -0.260623 0.004816 133 134 128
-0.443350 -0.001242 0.408085 129 130 124
-0.022286 0.095433 0.001737 95 109 98
-0.233116 -0.082469 0.028714 68 81 76
-0.263872 -0.050005 -0.004889 107 116 107
0.129313 0.383890 0.000820 124 131 123
0.180912 -0.039247 0.001884 122 129 123
-0.287237 -0.063885 0.394038 127 162 165
0.111042 0.317301 -0.000198 121 132 130
-0.065538 -0.193908 0.000553 125 131 131
0.262420 0.368334 0.003117 140 141 137
0.098287 -0.253733 0.003077 131 132 123
0.185555 0.372211 0.003421 105 111 109
0.313090 0.547931 0.004501 143 143 137
0.288734 0.252002 0.008278 139 140 134
-0.299395 -0.003461 0.373087 68 80 72
-0.479695 0.005565 0.427132 129 130 124
-0.012187 -0.196086 0.002447 123 131 128
0.362155 0.367778 0.012599 143 144 140
-0.210824 -0.081211 0.345258 64 77 72
-0.068095 -0.167203 -0.001451 113 125 129
-0.324687 -0.020954 0.379056 76 87 83
0.262735 -0.155130 0.007505 134 138 131
0.073208 0.467082 -0.002625 128 129 123
0.051669 -0.109846 0.001048 112 124 116
0.108870 0.267396 0.000137 117 124 118
-0.025906 0.139277 -0.002481 96 110 99
0.073236 -0.104935 0.003309 116 127 123
0.209324 0.195506 0.002547 125 131 129
0.009574 -0.257218 0.005375 119 126 120
0.390117 0.238642 0.012140 139 140 136
0.338847 -0.295184 0.016287 148 144 137
0.383838 -0.108091 0.009409 143 140 135
0.280950 -0.012318 0.005028 73 73 73
-0.210454 -0.077761 0.390223 121 160 167
-0.018339 -0.242372 0.005599 126 137 133
0.110903 -0.240943 0.005651 129 133 128
-0.078422 0.015163 0.035157 18 26 23
0.004252 -0.292550 0.004091 118 125 119
0.214542 0.088214 0.006680 127 133 131
-0.017480 0.152647 -0.002207 93 109 100
-0.020333 -0.138926 0.006464 85 98 93
-0.235636 -0.095059 0.332173 47 60 57
-0.131358 -0.125423 0.021530 64 95 109
-0.106313 -0.001466 -0.001373 30 43 42
0.259902 0.309346 -0.000471 133 141 128
0.154844 0.370001 0.005720 85 89 84
0.239370 -0.294095 0.010325 141 138 133
-0.135814 0.280192 -0.001439 109 120 118
0.349193 -0.195675 0.015221 141 138 133
0.193927 0.126781 -0.000693 125 134 127
0.175608 0.165248 0.002617 125 132 126
-0.358510 -0.088889 0.366885 107 143 153
-0.206281 -0.080809 0.335787 43 58 53
-0.111378 0.245487 -0.003553 122 134 126
-0.333683 0.002402 0.377532 32 38 38
0.079159 -0.272041 0.005299 127 131 126
-0.275627 0.422173 -0.004949 141 145 140
0.334013 0.136137 0.000624 138 139 135
-0.427648 0.052984 0.000777 109 122 119
-0.320322 0.279414 -0.003620 139 147 144
-0.076857 -0.003412 0.003731 32 45 42
0.363564 0.159770 0.007285 138 139 135
-0.101168 -0.240945 0.007661 31 39 38
-0.128215 -0.296742 0.002923 131 137 135
-0.296327 -0.077985 -0.001593 123 134 134
0.364963 0.021140 0.013144 140 140 134
-0.045048 0.061736 0.026967 53 61 58
0.140601 0.214039 0.001686 120 129 122
-0.018007 -0.170251 0.003747 113 126 121
0.073872 0.189957 0.001835 78 92 83
0.295727 -0.224358 0.013955 144 144 138
0.338991 -0.178789 0.010029 146 144 136
0.127409 0.080887 0.002892 110 119 110
-0.227655 -0.092565 -0.002434 107 121 112
0.330285 0.185510 0.005778 131 138 132
-0.481395 -0.001388 0.422510 147 143 136
0.232853 0.321364 0.003452 136 137 133
-0.303513 0.055142 0.369761 134 168 176
-0.125122 0.360035 -0.003621 132 141 132
0.124492 -0.179273 0.004774 132 140 139
-0.078970 -0.179780 -0.000370 116 129 124
-0.337770 0.021028 0.379426 83 92 85
0.108409 -0.267148 0.004734 131 132 126
-0.370050 0.017385 0.397517 97 105 102
0.317029 -0.277033 0.012932 100 100 102
0.340276 0.240240 0.008776 135 138 137
0.283103 0.052719 0.006343 127 131 124
-0.495513 0.037325 0.441595 155 152 147
0.272285 -0.148285 0.008769 141 138 133
0.306396 -0.110689 0.011359 133 134 128
-0.457798 0.353913 0.028168 146 176 181
0.289861 0.548634 0.006406 105 105 105
-0.322110 0.060647 0.379577 132 165 169
-0.179376 0.313131 0.000292 78 91 86
0.219772 0.396666 0.006539 60 69 62
0.337167 0.203831 0.006359 139 140 134
0.226377 -0.135470 0.007991 133 134 128
-0.084635 0.104847 0.048462 96 109 94
-0.261109 -0.007838 0.007612 106 119 114
-0.076045 0.193912 0.000468 50 60 65
-0.144928 -0.182605 -0.003161 121 132 128
-0.337692 -0.292170 -0.002838 152 153 147
0.086806 0.265336 -0.004521 67 78 74
0.213850 -0.241820 0.009534 141 141 135
-0.216389 -0.084925 0.388084 111 152 156
0.081517 0.163731 0.003776 118 132 123
0.095742 -0.137523 0.001864 127 136 129
-0.281998 -0.081193 0.387818 93 117 117
0.377193 -0.218798 0.019405 75 74 76
0.313477 -0.141720 0.011253 100 100 100
0.090215 -0.294687 0.006217 121 122 116
0.132740 -0.226125 0.006843 132 139 133
0.289109 0.443649 0.013089 136 136 136
-0.012117 -0.290753 0.002930 117 125 122
-0.150948 0.475619 -0.004091 91 98 92
-0.133672 0.320685 -0.002404 131 144 139
0.135139 0.154801 0.000390 94 107 104
0.287538 -0.011480 0.008012 127 134 128
-0.186569 -0.083663 -0.000672 110 123 118
0.338886 -0.222836 0.014526 144 144 138
0.212910 -0.258441 0.010139 140 141 137
0.197007 -0.158434 0.006340 138 138 134
-0.359077 -0.060141 0.378682 98 106 105
-0.263229 -0.097015 0.384399 53 66 61
-0.090323 -0.030943 0.003125 100 113 108
0.303363 0.328991 0.004753 137 141 136
0.229270 -0.126534 0.008596 129 129 131
0.064723 -0.014834 -0.001073 101 113 103
-0.330331 0.440078 -0.004765 95 98 99
0.086500 0.006197 0.001838 86 101 98
-0.070149 0.189407 0.000377 110 122 114
0.368003 -0.047551 0.010308 64 67 70
0.075868 -0.206086 0.008668 59 71 73
-0.046440 0.230383 -0.004976 112 125 112
0.212668 0.407945 0.005632 136 140 135
0.339507 -0.073788 0.013499 138 139 133
0.334183 0.036211 0.011237 134 138 131
0.352091 -0.163211 0.011332 142 139 136
0.197107 -0.120091 0.005225 131 135 130
0.245931 -0.154483 0.005009 131 135 130
0.103918 0.390773 0.001669 92 95 94
-0.232491 0.498530 0.000138 148 152 145
-0.189614 -0.039558 0.286997 105 121 112
-0.288127 0.289553 -0.003504 137 146 139
-0.081805 -0.298052 -0.000475 136 139 138
0.224138 0.483927 0.003601 72 69 66
-0.057735 0.343144 -0.003895 128 137 128
0.251769 -0.241750 0.008788 139 139 135
0.106319 -0.214391 0.007539 132 139 133
-0.425265 -0.012004 0.374897 31 35 30
-0.202352 -0.077579 0.314182 97 115 111
0.393901 0.260112 0.012529 143 140 135
0.319276 0.506743 0.002173 139 141 132
-0.198038 -0.137743 -0.004939 120 128 125
0.168020 -0.155931 0.003531 132 139 133
0.315299 0.408107 0.004082 140 140 134
0.045652 0.519526 -0.004884 127 134 128
-0.075361 0.018650 0.045224 21 29 26
0.146660 0.033149 0.006432 65 71 73
-0.030296 0.092414 0.003350 99 113 104
0.299104 0.402240 0.004408 141 141 137
0.057862 0.033281 0.005001 94 105 105
0.089433 -0.207855 0.008914 47 54 58
-0.206093 -0.228567 -0.004274 131 139 136
0.202396 -0.195409 0.006668 133 137 132
-0.018577 -0.142169 0.005187 110 123 120
-0.316915 0.433885 -0.003579 138 142 137
0.118648 0.075425 0.005232 106 119 114
0.319891 0.434313 0.015091 142 137 135
-0.332814 -0.071895 -0.003120 96 108 100
-0.383838 -0.011090 0.374154 42 48 48
0.193137 0.536959 -0.001915 134 134 128
0.187301 -0.031547 0.002390 119 128 121
-0.106481 0.014822 0.007856 61 75 66
-0.475472 -0.009648 0.409136 75 79 72
0.387513 0.128293 0.007773 140 141 137
-0.076796 -0.074039 0.005259 116 130 121
-0.406276 0.055102 -0.003507 128 143 138
-0.304195 -0.068698 0.384856 77 88 88
0.265709 0.517199 0.005395 131 140 131
-0.147986 -0.293117 -0.000130 136 142 140
-0.291606 -0.079446 0.381773 66 80 82
-0.029041 -0.035734 -0.004346 107 123 114
0.237770 -0.141115 0.008795 133 137 132
0.028931 -0.196683 0.005032 124 135 131
-0.204990 -0.068251 0.385595 74 98 100
0.029572 -0.186390 0.005417 120 129 122
0.260699 0.435383 0.009350 136 137 133
-0.329770 0.002241 0.377849 46 46 46
-0.055581 0.268473 -0.004415 114 130 119
0.154336 -0.168234 0.002880 68 68 72
-0.209406 0.268847 -0.000415 127 142 128
-0.293497 0.040691 0.358398 85 89 82
0.189462 0.223806 0.005797 124 136 126
0.238136 -0.289420 0.011188 114 111 108
-0.061854 0.201031 0.000430 114 128 119
0.267278 0.307549 0.002226 133 140 132
0.098053 -0.046463 0.004761 80 83 82
0.290998 0.501673 0.004090 87 94 88
0.233882 0.167820 0.003038 134 137 136
0.133081 0.472481 -0.001212 123 128 118
0.394750 -0.061968 0.018394 144 144 138
-0.346556 0.040889 0.384355 87 94 86
-0.292524 -0.087049 0.372416 66 77 77
-0.256703 0.440631 -0.000698 141 146 136
-0.012813 -0.171927 0.003417 111 124 121
0.210160 0.007353 0.005384 120 127 121
-0.144682 -0.284867 -0.002193 124 137 132
-0.148310 -0.205028 -0.003467 120 135 132
-0.420584 0.037088 0.413659 140 140 134
0.115739 -0.244230 0.005382 128 131 130
-0.369577 -0.097737 0.347917 95 124 134
0.128806 0.434960 0.003956 126 136 124
0.162840 0.529829 -0.001098 96 99 98
0.050057 -0.128599 0.002285 111 123 115
-0.201401 0.371560 -0.003145 111 123 113
-0.146660 -0.184422 -0.002851 121 132 128
0.029164 0.027131 0.004604 89 108 98
0.140303 0.285018 -0.003578 127 136 129
-0.393005 -0.011721 0.377381 44 55 51
-0.026617 0.029521 -0.001560 85 101 92
-0.435520 0.051944 -0.001565 111 124 119
0.390944 -0.281921 0.011854 149 144 140
-0.491469 -0.013121 0.409714 70 74 67
-0.024532 0.398990 0.002203 131 139 136
-0.374852 -0.059656 0.375006 133 167 175
0.147571 0.264423 0.001634 124 128 123
-0.063480 0.007138 0.002665 88 103 98
0.240619 0.057515 0.009010 121 128 122
0.103793 0.058703 0.004615 102 111 104
0.042002 -0.065049 0.002273 102 114 104
0.140769 0.419855 0.002781 129 133 128
0.364804 -0.097721 0.011903 140 140 134
-0.331844 0.539832 -0.003297 157 159 150
0.067930 0.164494 0.002213 109 121 113
0.221182 -0.235417 0.010916 84 85 81
-0.204284 -0.231999 -0.003885 131 140 133
-0.141898 0.176763 0.001211 114 128 119
0.192578 -0.033577 0.002599 122 128 126
0.393364 -0.178995 0.018118 147 144 141
-0.499999 0.004617 0.432156 131 131 131
-0.003075 -0.276432 0.003624 35 41 39
0.245328 -0.240003 0.008409 142 139 136
0.076129 -0.072579 0.002224 115 127 119
0.095455 -0.090977 0.006525 114 126 118
-0.361234 -0.101288 0.349648 82 112 117
0.187374 0.289042 0.002270 126 135 128
-0.191602 -0.099632 0.194629 107 119 111
0.330259 0.200898 0.007231 139 140 134
-0.125274 -0.069843 -0.001857 108 121 116
-0.238511 -0.095607 0.379256 49 73 75
0.152257 -0.158976 0.001455 131 138 130
-0.104327 -0.241704 0.002713 57 54 51
0.041258 -0.190132 0.006587 121 130 123
0.272711 0.417431 0.005036 140 140 134
0.298535 -0.145358 0.011318 136 137 133
0.149292 0.245859 0.004161 55 63 62
-0.047363 -0.258198 0.002111 127 135 132
0.268723 0.004108 0.004124 129 133 128
0.311384 0.487719 0.004253 145 142 137
0.038856 -0.084091 0.002317 96 107 103
-0.467484 0.163463 0.052346 76 83 77
-0.008310 -0.017595 0.000089 104 115 115
0.045676 -0.115710 0.002074 117 129 121
0.280640 -0.271523 0.009249 146 143 138
0.229834 -0.005756 0.003109 64 70 72
0.399863 -0.231418 0.023637 148 145 142
0.128774 0.430856 0.002335 83 92 85
-0.071118 0.016975 0.035649 21 29 26
0.313834 0.150817 0.002254 60 63 64
-0.001497 -0.027754 0.000841 93 107 98
0.023627 0.025686 0.003148 89 102 97
0.033044 0.419659 -0.002427 126 134 123
-0.207207 -0.100656 0.209313 34 38 33
-0.383131 0.003454 0.393372 132 139 133
-0.300547 -0.022392 0.379401 128 134 132
0.346930 -0.097545 0.011230 99 107 106
0.374737 -0.269533 0.015940 148 143 139
-0.255439 -0.087787 0.403169 104 150 156
-0.136092 -0.045863 -0.004420 108 121 118
-0.167731 -0.140373 0.017475 87 101 107
-0.164051 0.219549 -0.001004 122 134 124
-0.046769 0.051959 0.021424 10 19 12
0.045083 0.061579 0.002172 93 107 96
0.199282 0.071683 0.005295 56 59 58
-0.182267 0.366431 -0.002878 139 148 141
-0.086016 -0.004428 0.001208 95 109 100
0.019878 0.331345 -0.003791 119 131 123
0.083781 0.148666 0.006573 43 54 52
0.189546 -0.245070 0.009368 93 93 93
-0.121531 -0.054324 -0.002315 101 116 111
0.315808 -0.162695 0.009259 69 72 71
0.087824 0.222832 0.005610 109 121 123
0.141741 0.342032 0.004848 130 134 129
-0.329777 0.141993 0.299229 105 103 93
0.393236 -0.274175 0.014158 156 144 142
-0.327425 -0.088300 0.368914 67 78 74
-0.169584 -0.289294 -0.004454 134 143 136
0.281890 0.339738 0.003634 145 146 142
0.311212 0.048342 0.011680 126 134 131
-0.220216 -0.070129 0.408626 116 165 170
0.321832 0.539029 0.001661 139 139 133
0.164997 -0.191547 0.004995 131 135 130
-0.483899 0.016703 0.433887 131 130 130
0.109188 0.126641 -0.001718 105 117 109
0.351146 0.138913 0.004044 137 138 132
0.005732 -0.294218 0.004647 117 123 121
0.151069 0.346257 0.002782 131 135 130
-0.186092 0.216507 -0.000258 117 131 122
0.125857 0.485882 -0.003873 135 136 130
-0.023266 0.166191 0.001749 104 116 108
0.353900 -0.213045 0.016295 145 143 133
0.096161 0.035950 0.004130 102 114 106
0.336372 0.097040 0.008060 137 138 129
0.327915 0.044420 0.011362 131 135 128
0.253287 -0.100393 0.007800 132 132 128
0.298949 0.166682 0.006086 136 140 133
0.388884 0.450601 0.013340 146 146 140
-0.056870 -0.090488 -0.001867 112 130 124
0.376738 0.052349 0.017435 139 139 133
-0.060022 -0.180308 0.001843 118 133 130
0.283664 -0.271662 0.010113 146 143 138
0.156669 -0.288229 0.004178 107 113 111
0.246064 -0.147972 0.007532 129 136 130
0.382523 -0.197948 0.017591 147 145 137
0.389831 -0.173457 0.016971 140 141 135
-0.205159 -0.260302 -0.002941 139 145 143
0.058544 0.195677 -0.000251 103 114 110
-0.392357 0.014150 0.323519 45 47 38
0.061632 -0.054308 -0.000698 100 114 105
0.157677 -0.285513 0.007756 59 59 63
0.134975 0.180464 0.003318 114 123 116
-0.285508 -0.087073 0.377957 57 68 66
0.314792 0.448931 0.010579 139 139 133
-0.461758 0.007986 0.421995 77 72 80
0.212437 -0.063150 0.003805 121 127 125
0.338005 -0.195184 0.013072 147 144 139
-0.327249 -0.086430 0.370690 69 80 76
-0.121063 -0.229607 0.000549 126 137 133
-0.298092 -0.035778 0.379745 128 139 137
0.223431 0.505345 -0.001426 146 146 140
-0.337480 0.035108 0.381598 85 92 86
0.235914 0.065783 0.009283 119 128 119
-0.066774 0.158841 -0.001963 100 114 105
0.382936 -0.204753 0.017311 147 143 136
-0.252535 -0.096320 -0.002531 109 120 116
0.173779 -0.035544 0.002409 120 128 125
-0.418038 0.032505 0.411648 139 139 135
-0.066943 -0.181827 0.000892 116 129 126
0.042970 0.061075 0.003216 94 108 97
-0.106853 -0.045031 -0.001101 28 41 40
-0.311657 -0.092568 -0.003006 119 126 120
-0.194338 -0.092647 0.205276 58 69 65
0.121450 0.361990 -0.001527 120 124 119
0.089915 0.210010 -0.000269 106 124 118
0.063778 0.264315 -0.003380 115 127 119
-0.161776 0.186866 -0.000732 107 121 112
0.393927 -0.116109 0.011453 147 144 141
-0.356430 0.029841 0.386522 86 92 90
0.268755 0.267454 0.006572 131 134 133
0.072672 0.364591 -0.002453 126 135 128
0.157554 0.320148 0.000215 126 133 127
0.042229 -0.250606 0.004765 117 124 118
0.184093 -0.233513 0.009974 130 134 129
-0.221518 -0.274636 -0.004668 140 143 142
-0.280349 -0.081299 0.390620 97 137 137
-0.326817 0.052567 -0.001464 124 138 129
0.317489 0.179080 0.004734 134 138 133
0.067148 -0.052626 0.000065 101 115 106
-0.330845 0.026613 0.378198 85 92 86
0.028181 -0.275468 0.007478 26 34 33
0.035013 -0.179764 0.006845 119 130 126
-0.377653 -0.006247 0.380808 27 34 42
-0.163118 -0.090017 0.001713 109 122 117
-0.240295 -0.088965 -0.002078 109 123 114
0.274292 0.235589 0.007421 135 139 132
-0.444209 -0.011847 0.386072 31 34 35
-0.097438 0.223914 -0.003091 121 135 124
-0.052211 0.472596 -0.001829 97 105 102
-0.167229 0.346368 0.003518 96 104 101
-0.338249 -0.284295 -0.002227 141 148 140
0.377490 -0.162930 0.010275 139 137 129
0.145102 -0.236333 0.007495 135 139 132
0.229212 -0.161400 0.004070 137 138 132
-0.242081 0.265494 -0.003253 130 144 135
0.374427 0.270900 0.014252 80 79 83
-0.103631 0.166390 0.031189 99 113 102
0.284422 -0.052943 0.008331 126 130 125
0.238035 0.101768 0.005856 124 132 129
0.185730 -0.200774 0.007545 125 126 122
-0.290389 0.165696 0.130344 132 141 132
-0.140017 0.046993 0.013113 33 45 37
-0.405143 0.009389 0.406237 117 123 121
-0.159645 0.463492 -0.003089 140 144 139
0.357945 0.436343 0.013406 148 146 138
0.136350 0.219149 0.004780 120 127 121
0.370215 0.289544 0.012067 139 140 136
0.043130 0.205196 -0.000845 108 119 115
-0.283395 -0.079616 0.387417 88 117 118
-0.258334 0.074265 0.260062 132 141 134
-0.163275 -0.252648 -0.000174 138 144 142
0.135137 -0.060140 0.005509 117 126 119
-0.106859 0.137236 0.055004 66 61 43
0.195415 0.300437 0.000328 134 138 131
0.148539 0.429470 0.001102 124 128 123
0.246948 -0.007242 0.002000 65 76 74
0.298793 -0.090406 0.012006 96 102 100
0.210155 -0.276389 0.010473 141 142 133
-0.191464 -0.109416 -0.001779 111 122 118
0.238595 0.057377 0.009278 122 129 121
-0.239566 0.310412 -0.004045 129 143 132
-0.093551 0.493522 -0.004141 134 141 135
-0.049166 0.046066 0.025206 63 72 63
0.045381 -0.273620 0.005604 119 126 120
0.266062 0.199628 0.004388 133 137 132
0.201843 -0.133501 0.007350 125 132 126
0.168904 -0.094940 0.007713 121 130 123
0.357148 -0.024596 0.006662 138 139 133
0.257081 -0.184631 0.005136 133 137 130
0.213070 0.088869 0.005338 54 61 55
0.275329 0.482492 0.003053 141 142 133
-0.049978 -0.233652 0.003693 127 134 128
0.130172 0.056321 0.005578 103 112 103
0.019751 0.543828 -0.003461 133 137 132
0.376231 0.320736 0.010518 138 138 134
-0.257525 0.525041 0.001774 146 147 141
0.175257 0.382915 0.006354 128 135 129
-0.256461 -0.082007 0.325642 49 63 52
0.304785 0.256411 0.005516 137 141 136
0.316197 0.160337 0.005520 133 134 130
-0.068280 0.439982 -0.002727 85 91 89
0.268515 -0.274635 0.008542 146 143 138
-0.390549 -0.002525 0.353007 80 82 71
-0.330269 0.549287 -0.004054 151 153 144
0.128073 -0.077083 0.004703 124 128 123
0.229564 0.190553 0.007312 70 76 78
-0.147634 0.108881 0.003220 97 113 102
-0.254321 0.005822 0.008339 97 116 104
-0.440041 0.124613 0.130927 74 82 83
0.395666 0.229933 0.014684 76 76 72
-0.367273 -0.079778 0.370672 123 159 167
0.166803 -0.166545 0.003228 51 56 61
-0.055577 -0.253192 0.001744 128 139 135
-0.122596 0.439725 -0.003495 139 145 143
-0.008034 -0.077077 0.003603 103 116 113
-0.457700 0.003150 0.414292 59 62 65
-0.006931 -0.220544 0.005079 130 139 132
-0.256738 -0.072634 0.410062 121 171 179
0.046895 0.548598 -0.001738 132 133 127
0.156503 0.251984 0.002267 125 133 130
0.035361 0.112552 -0.001162 47 62 59
0.255453 -0.298869 0.009954 65 65 61
-0.331751 -0.081709 0.374915 80 91 87
-0.354804 0.014092 0.380262 79 86 80
0.216674 -0.256748 0.009783 135 139 132
0.359318 0.402209 0.012333 145 145 141
0.312527 0.209779 0.003873 101 107 107
0.248467 0.085271 0.008775 121 132 130
0.284994 -0.083511 0.008138 132 133 129
-0.127820 -0.217919 0.001112 124 138 129
0.378607 0.324953 0.011739 82 82 84
0.213253 0.145444 0.002253 81 89 86
-0.004714 0.011518 -0.002260 101 115 104
-0.374068 0.056372 -0.001324 118 134 125
-0.093258 -0.194158 0.001723 124 135 131
-0.474346 0.028823 0.433678 145 146 142
-0.167279 -0.198509 -0.001780 57 57 61
-0.176435 0.097199 0.000268 97 113 104
-0.107537 -0.234694 0.000800 128 139 135
-0.098665 0.442676 -0.003285 138 151 146
0.322328 0.415102 0.012214 138 140 131
0.269843 -0.025856 0.003872 128 134 132
-0.067655 -0.019358 -0.001117 101 117 108
-0.007938 -0.238987 0.005143 127 131 126
0.171419 -0.171874 0.003297 124 136 128
0.235702 -0.043473 0.003252 124 131 123
-0.482830 0.048894 0.043358 103 122 124
-0.298234 -0.065023 0.385897 124 137 134
-0.072418 -0.189013 0.001879 126 141 138
-0.174727 -0.133700 0.019028 82 95 92
0.283239 0.392935 0.002379 134 134 130
0.237239 -0.064017 0.006498 132 133 129
-0.206738 -0.084800 0.254013 16 27 23
-0.293417 0.053348 0.356503 83 84 73
0.236590 0.208289 0.005034 132 138 138
0.025707 -0.193225 0.005005 27 42 37
0.156818 0.430312 0.003551 64 67 68
-0.121960 0.071806 0.043256 49 54 40
0.132681 0.178004 0.003564 114 125 121
0.119738 0.363201 -0.003169 124 128 123
-0.381527 -0.056871 0.369879 141 173 180
0.247325 -0.214871 0.009192 134 141 133
-0.200295 0.537478 -0.001157 141 146 136
0.372391 0.178370 0.018633 72 76 71
0.216083 0.224255 0.005536 117 125 124
0.325848 0.316888 0.007901 143 143 137
-0.171695 0.186248 0.000152 27 43 34
-0.373946 -0.071174 0.372830 135 169 177
0.298521 0.211906 0.004006 137 138 132
0.100950 0.326176 0.001357 124 133 126
-0.165498 0.385422 -0.000074 133 139 139
0.184507 -0.285588 0.007742 140 139 139
0.377532 0.107882 0.012983 130 133 136
-0.363652 0.061793 -0.003840 29 44 43
0.355150 0.325631 0.006848 140 141 130
0.303740 -0.210627 0.013107 123 127 122
0.056653 -0.092871 0.000492 82 95 90
0.214263 0.012890 0.006754 63 69 67
-0.234338 -0.055199 0.418153 120 168 176
0.150282 0.448529 0.001227 129 136 130
-0.333877 -0.048598 0.381328 85 94 87
0.027299 -0.285260 0.008654 45 52 58
0.117316 0.021194 0.005229 77 88 86
0.025832 0.253391 -0.002196 109 120 118
-0.092720 0.022511 0.066827 28 34 32
0.110493 0.311897 0.000305 91 99 98
0.315162 0.539256 0.001278 144 144 140
-0.146895 -0.152720 0.017424 87 114 123
0.015002 -0.088054 0.002733 99 115 106
0.274029 0.306431 0.000359 138 139 133
0.017168 0.101564 -0.001265 109 121 111
-0.188765 -0.067441 -0.003821 104 119 114
-0.285737 -0.004785 0.154340 106 121 116
0.004433 -0.143627 0.004025 121 134 131
-0.218613 -0.090640 0.093528 102 116 107
-0.236240 -0.092009 0.313222 82 96 85
0.141008 0.275991 -0.001155 109 117 116
0.126296 0.309440 0.004074 68 74 72
0.231247 0.116585 0.002458 131 137 135
-0.371958 -0.051540 0.375840 142 170 176
-0.184331 -0.297398 -0.003021 140 147 141
-0.265530 -0.095194 0.386122 52 66 68
-0.025479 0.146701 -0.003781 92 108 97
-0.361230 -0.005229 0.365201 109 117 116
-0.426325 0.008969 0.412867 115 121 123
0.378685 0.276705 0.016588 132 132 134
-0.027764 0.060464 0.003558 81 95 84
-0.438882 0.037774 0.418511 140 139 139
0.224855 -0.169953 0.002723 130 135 123
0.394506 0.383200 0.013604 136 143 137
0.059182 -0.083447 0.000517 113 126 123
0.273714 -0.241937 0.009614 143 143 137
0.243112 0.290204 -0.002048 129 135 133
0.309442 0.399439 0.004775 141 141 135
-0.328473 -0.086441 0.370695 70 81 77
0.244620 -0.294033 0.009725 139 139 133
-0.160218 0.245423 -0.000591 125 139 128
-0.087603 0.458101 -0.001805 136 143 135
0.144986 -0.155936 0.003497 132 141 134
0.367509 0.038813 0.010487 139 139 133
0.315414 -0.260636 0.012169 142 138 129
0.084398 -0.238746 0.002981 128 135 129
-0.128015 0.171184 -0.000733 109 125 116
0.281226 -0.005254 0.007413 130 138 137
-0.451168 0.005395 0.413296 138 137 139
-0.006910 -0.059270 0.001787 101 114 111
0.135444 -0.026296 0.003607 114 123 116
0.054049 -0.229044 0.005088 119 125 123
0.161123 0.126203 -0.004301 115 122 116
-0.411058 -0.010759 0.384947 55 61 61
0.373298 -0.215182 0.018309 138 138 134
0.213358 -0.195101 0.005274 134 141 135
-0.063238 -0.153880 0.008743 53 87 125
-0.372201 0.001196 0.381032 64 67 66
-0.212254 -0.065687 0.405767 121 162 168
0.061729 -0.242212 0.003925 109 117 118
0.330464 -0.084910 0.012700 140 140 136
0.168366 -0.019508 0.001794 117 125 122
0.279403 -0.230906 0.013158 137 138 132
0.276874 -0.005702 0.003505 67 67 67
-0.458314 0.040092 0.427091 79 79 81
0.074218 0.294133 -0.003583 121 128 122
-0.304751 -0.009877 0.375976 73 84 80
0.342607 0.149523 0.005050 129 130 126
0.374614 -0.151407 0.013991 140 140 134
-0.061854 0.439084 -0.001516 133 142 135
-0.027588 -0.223887 0.005062 125 131 131
0.271931 -0.217140 0.011841 138 139 133
-0.173043 -0.128680 0.020209 94 109 106
0.251644 0.354248 0.004346 55 60 67
-0.119845 -0.066458 -0.000558 105 120 115
-0.284870 -0.081099 0.384999 62 80 78
-0.144315 0.451119 -0.004456 140 144 139
0.287658 0.401023 0.005720 122 129 123
0.325734 -0.049022 0.008609 91 91 91
-0.035282 0.220844 0.002905 109 123 114
-0.256645 -0.083499 0.405201 119 164 173
-0.274208 -0.224998 -0.004848 138 144 142
0.396183 0.156591 0.009430 140 141 135
-0.489095 0.025911 0.437238 127 126 126
0.000205 0.364036 -0.003099 126 138 128
-0.314108 -0.091131 0.366478 60 69 62
-0.043384 0.267527 -0.002772 121 135 124
-0.152578 -0.048614 -0.002348 102 121 111
-0.070388 0.176319 -0.000793 112 121 112
0.335468 0.219829 0.007091 136 137 131
-0.114564 -0.267244 -0.001674 132 141 134
0.126585 0.406300 0.002660 135 140 130
0.238822 0.157152 0.001880 136 140 135
0.268936 0.428490 0.007987 131 138 132
-0.010633 0.469574 -0.000715 131 135 128
0.235276 -0.207605 0.007189 89 97 94
-0.060308 -0.023081 -0.001651 106 122 111
0.281817 -0.053599 0.010124 129 132 135
0.344376 -0.134960 0.013086 141 141 137
0.171505 -0.193472 0.005822 134 138 133
0.261901 0.228394 0.011050 79 87 86
-0.261736 -0.099207 0.366824 50 62 54
-0.163100 0.113266 0.002914 88 104 95
-0.483025 0.019309 0.434354 117 117 117
0.199946 0.089509 0.003858 118 130 122
-0.352812 0.030396 0.385798 86 92 90
0.231519 0.531385 0.004952 141 141 135
0.235574 -0.133650 0.008019 126 133 125
0.032667 0.101447 -0.000806 101 115 106
0.125555 -0.133177 0.005892 122 133 129
0.297722 0.253192 0.006612 136 140 135
0.170460 0.157677 0.003894 121 130 123
-0.068085 0.263238 -0.004088 123 131 128
0.363423 -0.028909 0.007636 140 140 136
0.304000 0.291168 0.004904 136 140 135
-0.030557 -0.123492 0.009388 19 32 68
0.249690 -0.070978 0.010115 128 131 130
0.058740 0.015589 0.003312 92 107 102
-0.476657 0.005235 0.425600 132 131 131
0.006995 0.433452 0.003367 130 139 132
-0.332239 0.342469 -0.001225 142 149 141
-0.382162 -0.010649 0.371081 29 35 35
-0.302451 0.013238 0.370900 33 41 42
0.261348 0.055407 0.009308 126 130 123
0.117405 0.136379 0.000977 53 65 57
0.056894 0.019104 0.004597 91 106 101
0.052095 0.339567 -0.003950 119 131 123
-0.287651 -0.083468 0.381602 61 74 73
-0.192272 0.338537 -0.000163 137 146 137
-0.498603 -0.009991 0.393690 40 47 51
-0.346865 -0.222009 -0.002446 167 167 163
-0.195414 0.176605 -0.003327 109 121 113
-0.270176 -0.091394 0.389222 92 127 130
-0.199930 0.403486 -0.003529 69 78 71
0.183765 -0.146486 0.008491 131 131 125
0.370665 0.464775 0.009309 145 146 137
-0.289157 -0.020904 0.372307 131 166 169
-0.072848 0.157782 -0.000172 104 119 114
-0.320776 0.041582 0.377207 90 97 91
0.108719 0.347955 0.003159 116 128 118
-0.289047 -0.006520 0.363634 80 87 79
0.263546 0.295136 0.002019 134 141 135
0.035852 0.006179 0.001287 94 106 98
0.125451 0.316592 0.001064 125 131 129
0.075887 0.288990 -0.003297 122 129 123
-0.129983 0.181966 0.000323 111 127 116
0.220997 -0.168578 0.004318 40 39 43
-0.173245 0.153118 0.002545 30 41 39
0.261252 0.388131 0.001308 128 136 133
0.095697 -0.240814 0.005080 125 132 126
0.094856 0.128969 0.002020 110 118 115
0.323330 0.040205 0.011431 129 136 128
0.009781 -0.050289 0.003785 82 96 85
0.016733 0.069530 0.002830 97 110 105
0.259532 -0.214839 0.008979 138 142 137
-0.466610 -0.000060 0.360019 150 156 158
-0.024790 -0.099902 -0.001503 119 130 126
0.035853 -0.170702 0.005608 115 128 125
-0.291012 0.030451 0.038296 116 128 120
-0.163663 -0.216993 -0.003283 135 144 137
0.370269 0.088491 0.016996 115 116 112
-0.253339 -0.095332 0.397099 79 113 119
-0.051025 0.515166 -0.002027 100 104 97
0.377367 0.303130 0.010546 98 101 100
0.260680 0.047690 0.007879 122 129 121
0.230500 0.474009 0.008698 137 137 131
0.044133 -0.203409 0.004295 123 131 128
-0.453071 0.014534 0.419179 118 118 122
0.077682 0.532763 -0.002890 134 138 131
0.017044 -0.006046 -0.003547 74 87 82
-0.026260 -0.274575 0.002401 125 134 127
0.044046 -0.289749 0.006090 113 120 114
0.357274 0.137308 0.002967 140 140 136
-0.150410 0.331114 0.000350 132 144 136
0.112595 -0.120390 0.005797 121 130 123
0.238885 0.484226 0.006780 139 140 134
-0.221728 -0.085546 0.241173 13 21 20
-0.156900 -0.206571 -0.004239 125 136 132
-0.244054 0.270264 0.000477 130 144 133
0.003425 0.075106 0.004277 88 100 92
-0.388532 -0.011802 0.375208 47 53 51
-0.100746 0.001928 0.000218 92 107 93
-0.157442 0.460257 -0.002492 137 141 136
-0.337845 0.052208 0.382021 88 97 90
0.270067 -0.264910 0.008845 148 143 139
-0.226024 0.343570 -0.004165 140 145 135
0.251609 -0.098650 0.008183 134 131 128
0.182526 0.545126 -0.001492 139 140 129
0.221189 0.035642 0.006423 124 131 125
0.181666 0.352453 0.001961 78 81 82
0.262479 -0.120959 0.008492 131 135 128
0.154890 0.381855 0.010695 115 117 123
-0.176330 -0.146906 0.015420 88 103 100
-0.019475 -0.125665 0.004428 54 67 62
0.337869 0.118961 0.003732 137 139 130
-0.090808 -0.051156 0.005233 99 117 111
-0.338414 0.215402 0.024871 132 151 155
-0.211279 0.534727 0.001587 142 147 137
0.313184 0.006699 0.012999 124 130 128
0.144820 0.348442 0.003186 128 134 132
0.228736 -0.029315 0.002138 126 133 125
-0.095882 -0.249537 0.000108 129 141 133
-0.060412 -0.025256 -0.001137 107 123 114
0.383038 0.367185 0.013775 138 141 140
-0.011275 -0.238907 0.004734 128 135 129
0.134943 -0.272063 0.004506 131 131 125
-0.362506 0.010616 0.378445 72 79 73
-0.317795 0.453718 -0.001241 145 146 140
0.037082 -0.205140 0.004399 60 66 66
-0.249311 -0.211566 -0.004449 132 141 134
0.322664 0.186056 0.004723 134 141 133
0.026749 0.547249 -0.003852 133 134 130
0.172299 0.153791 0.002795 82 93 91
0.104192 0.469696 -0.001800 127 134 126
-0.252060 0.492709 -0.000052 145 146 140
-0.091010 -0.268698 -0.003197 135 143 140
0.325572 -0.084505 0.011442 141 141 137
-0.044301 -0.175347 0.003036 109 122 119
0.019187 0.020470 0.005698 23 34 30
-0.419552 -0.003636 0.401114 114 120 118
-0.035477 -0.104556 -0.004599 109 123 114
0.227000 0.159158 0.002156 129 136 130
0.246945 0.276376 0.000170 87 93 93
0.239108 0.521840 0.006073 143 141 133
-0.145731 0.138324 -0.002581 99 115 104
-0.018380 0.495312 -0.001436 133 139 137
0.257826 -0.081727 0.008257 129 133 128
0.217665 0.272160 -0.001403 57 60 63
0.114432 -0.194676 0.003590 128 136 133
0.159624 -0.270929 0.007334 131 131 127
0.267508 -0.251619 0.008085 142 140 132
-0.175400 0.504772 -0.002523 138 145 139
-0.068860 -0.248074 0.000907 39 45 47
0.213816 -0.251895 0.010316 127 133 131
0.143913 -0.265697 0.005350 133 137 130
-0.195021 -0.077164 0.268202 20 31 29
0.169625 0.061709 0.003587 114 126 116
0.061280 -0.225579 0.004525 132 138 138
-0.241165 0.421804 -0.003816 143 147 140
0.320943 -0.275354 0.012447 146 147 138
-0.023935 -0.139099 0.007070 72 86 77
0.264682 0.022963 0.007695 125 132 126
0.330761 -0.160677 0.008367 143 143 137
-0.255212 -0.045254 0.417419 123 172 177
0.117884 -0.240846 0.005045 128 132 127
0.311146 -0.203332 0.011011 141 138 133
-0.004342 0.064133 0.000551 88 102 91
0.048606 -0.029152 -0.000142 90 104 95
-0.220109 0.530128 0.000138 144 149 139
-0.101963 -0.149366 0.018198 36 97 119
-0.387291 -0.003675 0.354915 27 28 22
-0.419997 0.042742 0.414313 154 154 148
-0.313726 0.492234 -0.003954 142 149 141
-0.212318 0.308672 0.002445 132 146 135
0.045960 -0.132639 0.003665 121 135 126
0.377589 -0.264626 0.015759 154 149 145
0.196709 0.133478 -0.000698 124 132 129
0.110232 -0.210890 0.007053 129 136 128
-0.078214 -0.213073 0.002036 126 135 128
-0.313380 -0.100893 0.352398 122 135 130
0.303185 0.165184 0.004782 136 140 135
-0.318398 0.002674 0.377383 52 63 59
0.016088 0.010089 -0.003457 87 99 89
0.151112 0.156796 0.001121 106 109 112
-0.133951 0.175540 -0.000483 108 124 115
-0.027303 0.163973 0.001599 105 117 109
0.142520 0.075039 0.001950 103 111 110
-0.152978 0.437049 -0.000871 136 142 140
0.243164 -0.264742 0.008179 141 141 135
0.054751 0.254127 -0.002820 45 56 52
-0.317331 0.035295 0.004893 58 69 69
0.326649 -0.214378 0.014655 142 146 139
0.320697 0.102237 0.010419 131 136 126
-0.188570 0.241399 -0.002262 121 135 126
-0.477247 0.033878 0.434823 151 146 142
0.150492 0.141104 -0.003116 44 51 45
-0.301419 0.075827 0.368375 94 96 83
0.292783 -0.275088 0.011156 142 144 135
0.154567 0.063917 0.003178 106 115 108
-0.056744 0.159723 -0.003376 104 120 111
0.247155 0.377865 0.000650 136 140 135
0.060013 -0.073778 0.000011 109 121 113
-0.166581 -0.097014 0.006068 116 126 129
-0.110319 -0.036194 -0.003923 100 114 105
0.031606 0.209007 -0.003463 109 121 113
0.388530 0.183109 0.010828 139 140 131
0.190266 0.065544 0.000213 115 127 119
-0.139678 -0.256967 -0.004187 134 141 135
0.187090 0.118104 -0.001123 127 135 132
0.332930 0.059639 0.010218 138 138 132
0.211917 0.164162 0.001099 128 137 130
0.077505 -0.272018 0.005176 124 128 123
0.012276 0.189739 -0.002731 94 109 104
-0.318510 -0.057999 0.385591 84 92 89
-0.141416 -0.222168 -0.002948 129 136 130
-0.273429 -0.238453 -0.004502 142 146 139
0.308538 0.241642 0.006035 134 138 133
0.004337 0.271363 -0.004016 109 121 111
-0.445382 -0.014220 0.385132 25 24 31
-0.219639 0.508824 -0.001605 138 145 137
0.384143 -0.084350 0.011422 148 144 137
0.379076 -0.264695 0.016168 70 67 64
-0.091565 -0.146084 0.019162 14 84 110
0.346221 0.216113 0.009464 135 138 137
0.100348 -0.024368 0.003366 108 120 112
-0.158107 -0.042350 -0.003597 80 100 95
-0.057684 0.056200 0.042530 41 47 30
0.312727 -0.022475 0.010928 114 117 118
0.363523 0.314840 0.007932 102 105 106
-0.003168 0.487355 -0.001706 57 61 54
0.387644 -0.012329 0.011244 138 139 133
-0.433558 0.029357 0.415636 123 126 127
0.031494 0.244029 -0.002525 110 123 118
0.266105 0.020741 0.008112 129 133 128
0.280400 0.140491 -0.004122 140 141 137
-0.200404 -0.091087 0.094948 104 116 108
0.321324 -0.200342 0.013031 145 143 135
-0.196857 -0.056186 0.330773 169 184 183
-0.413017 -0.033819 0.195650 112 123 123
0.207837 -0.158276 0.005751 132 139 133
0.162936 -0.098789 0.008028 121 130 123
-0.338017 -0.082567 0.373802 80 91 89
0.397626 -0.185737 0.017149 149 144 142
-0.215659 -0.062626 0.409989 117 163 167
-0.284192 -0.068825 0.395470 124 163 168
-0.442802 0.011216 0.415695 119 125 127
0.180678 0.484025 -0.000626 134 139 129
0.266189 -0.155193 0.007754 135 139 132
0.165866 -0.213416 0.010754 130 139 132
0.142790 -0.288403 0.005771 105 113 110
-0.390579 -0.000094 0.391821 118 124 122
0.224025 -0.219968 0.009319 132 133 129
-0.395406 0.015335 0.404332 137 140 139
-0.430526 -0.007948 0.391746 67 75 72
-0.139800 -0.058797 -0.000731 99 112 107
0.054806 0.322353 -0.001234 118 125 119
0.319756 -0.004348 0.010559 132 134 125
0.133219 -0.142486 0.006859 127 133 131
-0.312794 -0.077394 0.380193 79 90 86
0.344623 0.431887 0.011953 96 92 93
-0.056236 0.246383 -0.003981 117 131 122
0.237390 -0.072197 0.008012 131 132 128
0.142199 0.366389 0.003377 127 134 128
-0.046697 0.503446 -0.004793 133 141 130
0.117246 0.132440 0.000021 41 50 43
-0.406203 0.006848 0.405579 129 132 133
-0.086746 0.502483 -0.004524 137 141 134
-0.092934 -0.179996 0.000545 116 129 124
-0.028930 0.176764 0.003057 102 114 104
-0.096857 0.015059 0.039665 17 25 22
0.030404 -0.252093 0.003954 129 132 131
-0.435880 -0.005639 0.364569 75 76 65
-0.163435 0.392215 -0.001979 122 128 128
-0.028786 0.116962 -0.002169 93 106 101
0.027413 -0.193259 0.005154 119 134 129
0.113647 0.043637 0.005698 104 114 102
0.122957 0.362168 0.001714 69 69 69
0.332788 0.353381 0.010495 124 123 125
0.316660 0.062421 0.008567 126 135 128
-0.127851 0.029820 0.050511 29 42 37
-0.223056 -0.047788 0.415256 119 168 171
0.371092 -0.036893 0.007974 144 144 138
-0.395919 0.021896 0.405724 114 122 121
-0.068875 -0.245003 0.002271 33 38 43
0.003298 0.535331 -0.000900 132 139 131
-0.364722 0.026005 0.387426 85 91 89
0.270673 0.399563 0.003863 137 138 132
-0.179140 0.294198 -0.001096 130 142 132
-0.397616 0.004725 0.400110 137 140 139
-0.242806 -0.050349 0.419140 125 170 179
-0.054002 0.066525 0.046580 75 74 57
0.099952 0.525740 -0.004262 134 134 130
-0.169482 -0.295830 -0.003248 135 141 139
-0.051178 -0.136645 0.017367 110 24 36
-0.157737 0.177506 -0.000328 110 123 118
0.252013 0.143394 -0.001619 125 132 126
0.211651 -0.126312 0.007749 120 123 124
-0.313674 0.004926 0.376347 59 68 59
0.207421 0.219571 0.005316 128 136 133
-0.087518 0.093843 0.029135 46 48 30
-0.134404 -0.091144 -0.000383 106 121 120
-0.105068 -0.043655 0.000458 60 70 73
-0.065755 -0.207180 -0.001723 121 132 130
0.072833 -0.235298 0.002524 122 129 123
-0.245845 -0.073453 0.411690 125 170 179
-0.257885 -0.080153 0.406481 121 170 175
-0.244818 -0.069420 -0.004077 106 122 113
-0.213328 0.524704 -0.000079 144 148 141
0.143569 -0.147584 0.005791 131 140 133
0.207336 0.476562 0.005282 133 138 128
0.303116 -0.219495 0.014916 145 142 137
-0.187920 -0.286003 -0.004695 131 142 140
0.071218 0.319184 -0.000035 120 129 122
0.017242 -0.247055 0.003621 130 139 132
-0.096399 -0.067442 0.002482 109 122 119
0.233112 -0.009684 0.002921 118 124 122
-0.253867 -0.110475 -0.004723 115 126 122
0.345961 -0.279071 0.015300 142 138 139
-0.191877 0.201293 -0.002186 116 128 120
-0.304176 0.030069 0.369059 81 90 83
0.036722 -0.278377 0.005170 123 127 120
0.163984 0.468440 -0.002395 126 130 125
-0.064333 -0.098084 -0.001602 112 124 116
0.229291 0.110257 0.006173 110 118 115
-0.141838 -0.133985 0.026337 62 98 108
0.137533 0.549959 -0.001319 131 136 126
0.081995 -0.291590 0.007074 119 123 116
0.363726 0.429160 0.012346 126 126 120
-0.350151 -0.002159 0.370159 74 77 80
-0.337185 -0.051672 0.381649 87 93 91
-0.195373 -0.248808 -0.003002 152 151 151
0.315991 -0.107039 0.011595 135 138 139
0.192586 0.379558 0.004233 129 136 130
0.342919 0.188042 0.005614 144 145 139
0.145978 -0.275540 0.005870 135 136 130
-0.077047 -0.124155 0.017530 45 71 89
-0.062687 0.238161 -0.002477 118 132 123
0.131302 0.302394 0.007075 121 132 128
-0.242198 -0.258317 -0.004587 138 146 145
-0.143338 -0.115232 -0.000548 90 109 111
-0.459103 0.023651 0.426955 100 106 106
-0.205390 -0.079701 0.306173 93 111 107
-0.189900 0.201648 -0.002742 116 128 120
-0.254130 0.426000 -0.002610 136 143 137
-0.118288 -0.083017 0.003576 42 50 51
-0.001739 0.437073 0.005379 128 137 128
-0.005430 -0.031789 0.001063 95 109 100
0.290907 -0.108542 0.010305 139 137 129
0.136441 0.092065 0.002141 109 118 109
0.033167 -0.163187 0.003803 126 134 131
-0.007370 -0.230486 0.004313 132 140 137
0.242514 -0.295678 0.010179 139 140 134
0.293497 -0.141961 0.012050 135 136 130
0.357229 -0.190488 0.015221 147 142 138
-0.277502 -0.007082 0.140258 64 84 79
-0.067316 -0.251481 0.001506 99 105 107
-0.012414 0.386749 0.004556 78 86 85
-0.355120 -0.093938 0.363184 98 134 142
-0.395509 -0.002515 0.390875 111 117 117
-0.199149 -0.078548 0.297481 24 35 33
0.078586 -0.106636 0.002838 117 129 121
-0.367815 0.006344 0.375556 61 67 65
-0.107322 0.017325 0.029870 19 25 23
-0.135943 0.164204 -0.000555 108 122 111
-0.281124 0.277740 -0.000444 138 149 145
-0.337451 0.339967 0.005478 144 147 129
-0.075925 0.147649 0.013880 65 75 80
-0.116418 0.143113 0.001341 96 115 103
0.061789 0.110314 0.003567 48 59 55
-0.166987 -0.226824 -0.004878 100 113 112
-0.072799 -0.202836 0.002030 51 57 55
0.068075 0.136090 0.000750 107 118 114
0.092830 -0.214140 0.006387 120 129 122
-0.099925 0.194813 -0.001442 49 64 63
-0.013542 0.020295 -0.003811 109 121 111
0.068782 0.496609 -0.004354 129 137 126
0.153831 0.163660 0.001055 111 123 115
-0.161193 -0.294735 0.000426 140 143 144
0.073649 0.409612 -0.002524 127 136 127
0.255254 -0.098630 0.008145 133 133 127
0.290028 0.064465 0.008350 128 135 127
0.092184 0.094511 0.000928 104 115 111
0.313664 0.216893 0.003822 72 75 76
-0.033133 0.398709 0.002390 131 140 133
0.049583 -0.299528 0.007920 118 124 122
0.085661 0.091197 0.003151 107 118 116
0.157880 0.302482 0.000297 123 132 125
0.351925 0.102308 0.010740 138 138 132
0.397485 0.148647 0.007501 138 138 134
0.327452 -0.223284 0.016832 147 144 139
0.151342 -0.104523 0.008439 57 57 57
-0.477448 -0.006319 0.414959 99 103 98
0.398625 0.134932 0.008008 136 140 135
0.265309 -0.138942 0.007589 139 141 132
0.152528 -0.131429 0.012587 98 106 107
-0.294219 -0.082308 0.379284 117 130 125
-0.050624 -0.126974 0.014980 52 35 67
-0.074193 -0.038064 0.006627 36 49 44
0.314376 -0.281875 0.013010 136 133 130
-0.101964 -0.295684 0.006380 145 149 144
-0.407450 0.029155 0.408089 125 131 131
0.055513 0.050418 0.003764 94 106 98
-0.385858 -0.012055 0.370862 56 60 55
-0.469661 -0.011086 0.398138 55 58 59
-0.149359 0.055233 0.004151 87 102 97
-0.167239 0.349409 0.006292 50 58 57
-0.300448 -0.079844 0.379769 32 42 45
0.292794 -0.273567 0.011814 144 145 136
0.025889 -0.265405 0.005270 125 133 130
0.399441 -0.224808 0.024034 150 147 142
0.202191 0.268379 0.000320 129 136 130
-0.315963 0.019252 0.370947 87 99 91
-0.218025 -0.113183 -0.001657 115 128 123
-0.465935 0.047439 0.016641 117 125 124
0.256280 0.464616 0.007196 103 107 102
-0.414222 0.029004 0.410263 124 127 126
0.000241 -0.194036 0.000982 121 130 123
0.061300 -0.158352 0.005758 125 134 127
0.085902 0.053786 0.005929 105 113 110
0.075803 0.036920 0.001690 97 109 101
-0.341135 0.045634 -0.000099 134 144 132
0.328893 -0.051113 0.009046 135 136 130
-0.308906 0.007137 0.375386 57 69 61
-0.177993 0.205444 -0.004975 116 130 121
-0.101736 -0.123617 0.021654 41 89 111
0.313420 -0.262263 0.012129 144 140 131
-0.405251 0.247882 0.168770 141 166 173
-0.354617 -0.014316 0.372623 98 104 102
0.095884 0.151160 0.006310 94 105 101
0.008090 0.007088 -0.001223 90 102 92
-0.440482 -0.004476 0.404205 103 110 104
-0.234905 -0.091917 0.355122 51 66 61
-0.470976 -0.010979 0.397950 51 54 53
0.131446 0.069009 0.005508 104 112 109
-0.089696 -0.129283 0.022677 12 80 104
0.282078 0.014524 0.008518 122 134 126
0.008221 -0.253792 0.004532 120 124 119
0.079604 -0.035109 0.000309 107 121 112
-0.272664 0.028911 0.001415 45 63 59
-0.300844 0.459717 -0.001495 144 149 139
0.016424 -0.209784 0.002180 116 128 120
0.354697 -0.120165 0.012485 147 144 141
0.375779 -0.156515 0.013027 146 141 139
-0.490639 -0.004037 0.421981 122 121 121
0.290321 0.513134 0.004041 96 100 95
0.076870 -0.197270 0.007549 126 134 131
0.286415 -0.219221 0.013658 136 137 131
0.172691 0.375967 0.005104 127 134 126
0.296254 -0.219471 0.014835 140 140 134
-0.048619 -0.063502 -0.002945 115 128 123
0.385958 0.081637 0.018103 141 141 137
-0.141672 0.015322 -0.003273 95 109 100
0.245254 0.185089 0.012904 91 97 97
0.132956 -0.221313 0.008109 132 139 133
-0.035548 0.208075 0.000785 110 124 115
0.263550 -0.065080 0.009762 129 136 130
0.142905 -0.260724 0.004975 130 134 129
0.344547 0.091870 0.009864 129 136 130
0.238031 -0.180159 0.001085 140 141 135
-0.117645 0.226055 -0.003079 116 132 121
0.306571 -0.157087 0.008245 141 141 137
-0.299275 0.015446 0.367608 33 41 42
-0.060190 0.189319 0.000692 106 120 111
0.245139 0.161288 0.002694 135 138 137
-0.147252 0.005822 -0.004870 90 106 97
0.039783 -0.186656 0.006548 120 129 122
0.313039 -0.208781 0.012418 62 65 68
-0.011249 -0.084406 -0.002842 67 82 77
0.075960 -0.154448 0.004483 125 137 129
-0.158957 0.075832 0.004873 71 84 81
-0.028929 -0.174370 0.006214 115 128 125
-0.199245 -0.050279 0.339262 33 41 40
0.322022 0.270673 0.010015 78 82 77
0.394544 -0.144828 0.016263 144 145 141
0.378905 -0.190977 0.017310 131 134 135
-0.198477 0.231479 -0.001799 114 125 121
0.135297 0.248439 0.003642 124 132 129
-0.115886 -0.214801 0.002368 128 136 133
-0.253535 0.531098 -0.001606 146 146 140
-0.208222 -0.075440 0.388516 71 98 107
-0.201670 -0.116410 0.192666 28 36 33
0.115792 0.370047 -0.001939 126 133 127
0.021100 0.245235 -0.000844 79 91 83
-0.314198 0.054261 -0.004968 118 134 125
0.022164 -0.298920 0.003762 122 126 121
-0.416751 0.048158 0.411305 150 151 142
0.177954 -0.159708 0.004338 131 138 132
0.020175 0.220960 -0.003941 111 123 113
0.167292 -0.013391 0.001446 113 121 118
0.235408 0.375752 0.003177 136 140 135
0.298295 0.083004 0.009738 132 133 127
-0.427088 0.032078 0.414124 138 139 135
-0.268160 -0.062867 0.409549 125 170 179
-0.059474 0.211179 -0.000873 118 130 122
-0.091515 0.138012 0.011038 53 56 55
0.279527 -0.195329 0.006148 140 141 137
-0.170549 -0.067573 0.002231 29 42 37
0.348758 0.168367 0.007933 140 137 132
0.367621 0.544155 0.009686 147 147 143
0.119604 -0.063003 0.008047 127 133 135
0.078813 -0.195487 0.007280 124 132 129
-0.132607 -0.085732 0.000299 102 117 114
-0.087735 0.058269 0.020633 40 43 27
-0.091967 0.017915 0.051055 18 26 23
