ply
format ascii 1.0
element vertex 1215
property float x
property float y
property float z
property uchar red
property uchar green
property uchar blue
end_header
0.279322 -0.009936 0.061407 134 138 131
-0.434871 0.030431 0.307085 48 47 49
-0.261347 0.270592 0.014010 133 145 135
-0.197866 0.150566 0.026363 105 121 110
-0.198520 -0.177634 0.046950 50 68 66
0.157320 0.158357 0.049175 124 133 124
0.327989 -0.293837 0.085918 151 146 142
0.343066 -0.214306 0.076092 142 143 137
-0.177870 -0.121684 0.044317 109 124 119
0.204210 0.007442 0.056293 119 128 121
-0.036123 0.004790 0.045889 89 108 96
0.030323 -0.210959 0.061769 118 131 126
0.083707 0.142166 0.045652 110 124 113
0.011351 -0.161416 0.056610 118 130 122
0.112538 -0.147210 0.061320 123 132 125
-0.019742 -0.257474 0.063789 122 134 124
-0.014538 0.219769 0.034522 50 63 60
0.248413 0.016593 0.058406 125 132 126
-0.052414 0.093713 0.038086 79 93 82
-0.322088 -0.014438 0.356145 68 79 75
-0.052352 0.373745 0.020395 116 129 124
-0.064270 -0.168721 0.058382 45 29 66
-0.363558 -0.089368 -0.013334 21 27 25
0.250176 0.191766 0.050857 133 142 135
-0.340064 -0.241177 0.037724 169 163 165
0.290601 -0.073078 0.064149 127 130 129
-0.241030 -0.222871 0.050263 131 143 135
-0.074758 0.013441 0.111158 32 42 28
0.184977 -0.108914 0.062424 125 137 127
-0.217765 -0.275949 0.056540 145 149 144
0.396540 0.166163 0.058618 79 82 83
0.362857 -0.087217 0.068692 145 146 140
-0.175794 -0.144819 0.045633 109 120 116
-0.291232 -0.078802 0.361791 59 72 71
0.018839 0.316417 0.030504 49 56 50
-0.214521 -0.029715 0.375881 52 66 70
0.384397 -0.092556 0.068632 152 149 144
0.129201 -0.194243 0.067267 132 141 134
-0.488616 -0.016422 0.016569 85 92 84
0.137389 -0.133721 0.062672 125 133 132
-0.078588 -0.034572 0.047354 21 34 31
0.057029 -0.201489 0.063182 126 138 130
0.108185 0.085013 0.049212 99 115 106
-0.240227 -0.090132 0.400209 92 133 137
-0.159183 -0.113041 0.045159 109 125 116
-0.240715 0.263556 0.017666 106 114 111
0.006340 0.146245 0.041081 102 116 107
0.399659 0.131470 0.061943 144 144 138
0.388553 -0.139261 0.070940 148 146 138
-0.142109 -0.181426 0.055454 90 112 115
-0.035797 -0.203441 0.057535 125 138 133
0.095198 -0.220344 0.067519 69 80 78
-0.063732 -0.154822 0.057200 66 26 55
0.142461 -0.082730 0.059136 122 133 129
-0.211208 -0.080719 0.377493 71 86 85
0.209300 0.070315 0.055151 125 134 127
-0.288615 0.354583 0.003916 142 149 141
0.106921 0.183441 0.043623 68 79 75
0.115937 -0.256119 0.072364 129 135 133
0.313210 0.289654 0.049223 143 144 138
-0.379472 0.029883 0.339399 59 68 61
-0.230922 0.328265 0.013076 105 114 105
-0.372574 0.021036 0.031614 70 81 81
-0.463152 0.021440 0.029547 121 128 122
-0.051977 -0.199938 0.056613 118 129 127
-0.391219 0.023192 0.327072 43 51 50
0.150113 0.050485 0.053064 111 122 120
0.120892 -0.279394 0.073522 133 137 130
0.397374 0.154252 0.060123 142 143 139
0.392715 -0.063156 0.068194 153 151 143
0.157053 0.346982 0.032525 132 139 131
0.134230 -0.007832 0.054695 40 51 49
0.004424 0.211346 0.037211 113 131 127
0.366062 0.177458 0.057825 139 140 136
0.370179 0.054704 0.064197 144 144 140
-0.210622 -0.299012 0.058616 141 147 145
-0.066767 0.109969 0.035178 93 108 94
0.134104 -0.294874 0.075884 117 120 121
-0.224506 -0.229586 0.051562 137 148 144
-0.257310 -0.066405 0.040588 108 120 110
-0.133898 -0.209108 0.053826 120 128 127
-0.179706 -0.284172 0.059831 142 151 144
-0.054999 -0.193274 0.056348 99 114 113
0.209417 0.384177 0.032001 93 94 88
-0.278832 -0.055235 0.040312 118 127 120
-0.268219 -0.152608 0.042256 126 135 128
0.188125 -0.110733 0.062575 127 134 126
-0.181706 -0.096684 0.044280 35 49 51
-0.324409 0.352174 -0.000378 140 142 133
-0.344167 -0.033152 0.364573 84 93 86
-0.087873 -0.193097 0.055621 102 119 120
-0.028646 -0.064728 0.048310 93 112 102
0.350808 -0.126753 0.069695 142 136 140
-0.360728 0.061592 0.348242 87 94 88
0.220178 0.197094 0.049063 130 139 132
-0.548966 0.070346 0.031763 113 113 107
0.108542 0.089126 0.049340 64 77 76
0.178445 0.385462 0.029786 82 82 82
0.026167 -0.025883 0.050581 37 43 41
-0.156210 -0.045704 0.046042 98 113 108
-0.467163 0.070333 0.333947 133 133 135
0.286870 -0.260790 0.079500 63 53 65
-0.014755 -0.206923 0.058406 71 84 79
0.106996 -0.290010 0.073891 67 71 66
0.095861 -0.174920 0.063123 128 140 132
0.370006 0.132166 0.060237 146 146 140
0.046506 -0.139193 0.057205 116 130 121
-0.250254 0.343354 0.009397 138 145 137
-0.535289 -0.084721 -0.011485 80 87 79
0.339622 0.119666 0.059056 132 141 134
0.263593 -0.205653 0.073882 140 142 133
-0.001823 0.071889 0.044828 101 115 104
0.371497 0.303203 0.051808 149 146 141
-0.468863 0.038142 0.304768 42 45 44
-0.245576 -0.065060 0.418414 123 171 179
0.338859 0.097692 0.060473 140 144 137
0.343688 0.161530 0.058090 127 130 129
0.052466 0.015214 0.050136 100 114 105
-0.230648 0.163394 0.030418 114 127 124
0.134737 -0.153157 0.064233 76 87 83
0.174651 0.293037 0.038517 121 129 126
0.188042 0.046263 0.053946 121 134 121
-0.138890 -0.265783 0.059268 135 142 136
-0.149915 -0.281375 0.060964 138 147 140
-0.393364 0.038232 0.331380 91 99 96
0.016131 -0.245110 0.064398 71 77 75
0.047382 -0.234250 0.065340 78 85 77
-0.320605 0.296915 0.003063 136 143 137
-0.355391 -0.006933 -0.010488 8 16 15
0.177541 -0.176207 0.068254 136 139 138
0.028849 -0.129928 0.055263 116 130 121
-0.122963 -0.256474 0.059170 134 143 136
0.005447 0.164193 0.040504 98 114 103
-0.538652 0.094013 0.341904 118 117 117
-0.384822 -0.055820 0.004810 123 134 130
0.210108 -0.178201 0.069559 135 139 132
-0.204462 -0.064266 0.093943 15 23 24
0.199442 -0.201763 0.071259 136 136 136
-0.528130 0.085998 0.029733 152 156 151
0.241593 0.340253 0.039658 131 135 130
0.352870 0.309255 0.049902 144 144 140
-0.250376 -0.171904 0.044256 41 48 40
-0.065590 -0.160021 0.057509 39 39 75
0.036761 0.225589 0.037184 116 128 118
-0.463064 -0.118094 -0.017380 78 87 80
-0.241287 0.188969 0.028664 127 141 132
0.357898 -0.250098 0.079905 150 147 142
-0.326929 -0.085832 0.335528 50 64 55
-0.191557 0.323024 0.017540 134 148 137
0.262747 -0.100805 0.065480 137 138 132
-0.461209 0.064679 0.332566 117 125 124
-0.304802 -0.062095 0.038478 111 124 119
-0.336663 -0.264707 0.045864 162 163 157
-0.526340 -0.075019 -0.006618 83 90 84
0.212176 -0.043892 0.059806 128 135 129
-0.477832 -0.018058 0.015922 98 105 99
0.176481 -0.108834 0.062116 129 133 126
-0.169090 0.152962 0.026495 115 126 124
0.215289 0.060027 0.055296 126 135 128
0.246303 0.227932 0.047979 137 141 136
0.291992 0.000029 0.060941 132 133 127
0.229480 0.247423 0.046514 128 136 135
0.277823 -0.207422 0.074477 147 144 139
0.261284 0.063251 0.057711 118 132 123
-0.187293 -0.229961 0.053220 133 141 138
0.079613 -0.216781 0.066003 131 142 140
-0.233878 -0.064599 0.417814 117 167 175
-0.258823 -0.040912 0.419378 130 171 179
0.268107 -0.168334 0.070475 140 141 132
0.238789 0.071847 0.056631 131 138 132
0.230708 0.374604 0.034666 134 141 133
0.036556 0.335215 0.029081 127 134 126
-0.313568 0.047439 0.040309 125 141 130
0.113176 -0.180371 0.064819 91 91 91
-0.456872 0.055647 0.328833 154 155 149
-0.143667 -0.237014 0.056337 129 140 136
0.206952 -0.129151 0.065251 134 138 133
0.016289 0.040067 0.047624 94 108 99
0.062791 -0.090591 0.054954 115 127 117
0.136067 -0.180672 0.066040 50 60 65
0.356932 -0.165326 0.072111 152 150 142
0.306156 -0.073203 0.064639 138 139 133
-0.343046 0.005141 0.358811 159 173 164
0.080956 0.350413 0.029903 124 133 126
0.098708 -0.218660 0.067166 86 92 94
-0.442147 0.003435 0.025796 120 128 125
-0.231127 -0.095721 0.392959 100 146 148
-0.350291 -0.014293 -0.017094 63 65 73
0.056056 -0.069952 0.053316 101 115 104
0.274799 -0.257618 0.079204 140 141 137
0.193574 0.284727 0.040294 109 120 116
-0.321214 -0.224453 0.042615 62 66 61
-0.356642 0.086860 0.348094 103 109 107
-0.362441 0.095932 0.344982 135 152 157
0.379931 0.263624 0.053268 142 143 137
-0.478969 0.085213 0.338844 116 119 120
-0.240063 -0.143874 0.042038 118 132 123
-0.192541 0.372141 0.013105 141 145 138
-0.399580 -0.035757 0.012559 130 141 137
0.301820 -0.293622 0.084922 145 142 137
-0.308812 -0.129115 0.039010 122 134 126
0.150837 -0.212832 0.069926 137 141 136
0.113565 -0.215565 0.067738 135 144 137
-0.080733 -0.278777 0.062797 138 146 143
0.100036 0.312792 0.033593 128 135 129
-0.215806 0.239758 0.021748 131 144 131
0.253516 -0.038414 0.060695 125 134 127
-0.081664 -0.088645 0.048066 109 125 116
0.312362 -0.149309 0.069534 141 141 135
-0.099449 0.185096 0.029990 120 134 123
-0.046183 0.318689 0.026184 138 145 139
0.112451 0.313253 0.033195 65 72 66
-0.047925 0.324754 0.024687 132 141 132
-0.004651 0.055027 0.045699 101 115 106
-0.164083 0.238665 0.024332 127 141 132
0.028893 0.064694 0.047319 99 115 106
-0.084104 -0.119214 0.048350 111 126 121
0.245458 0.055248 0.057154 125 137 129
0.022903 0.316321 0.030712 121 130 121
-0.027214 -0.136254 0.052750 121 134 121
0.180986 0.251515 0.043076 131 140 133
-0.191485 -0.254242 0.056076 123 134 130
0.094621 -0.096729 0.057351 121 130 123
0.290532 0.042280 0.059485 127 133 131
-0.030649 -0.198517 0.057561 120 133 130
-0.094980 -0.144623 0.051368 37 92 109
-0.100493 0.000814 0.109716 27 35 34
-0.005339 -0.019680 0.049096 94 108 97
0.351777 0.271548 0.051665 140 141 135
-0.209029 -0.075705 0.375958 74 92 88
-0.191960 -0.174234 0.046849 90 103 102
0.232699 -0.272765 0.078196 140 144 137
-0.231867 -0.175545 0.045311 116 132 123
0.227244 -0.268100 0.077861 86 89 88
0.203400 0.342292 0.036246 134 138 131
-0.138786 -0.150685 0.054358 69 103 109
0.156958 -0.182721 0.067577 51 57 57
-0.063606 0.025877 0.059917 63 78 75
0.299081 -0.235367 0.077419 148 146 138
-0.027335 -0.074023 0.048509 105 121 112
-0.054060 -0.279050 0.064156 133 140 134
0.182800 0.371162 0.031545 88 95 99
0.317037 -0.060476 0.065224 98 104 102
0.247492 -0.032552 0.060169 124 131 125
0.243248 -0.282141 0.079564 147 145 137
-0.331569 -0.080056 0.346918 61 76 71
-0.530535 0.115833 0.345061 158 150 147
0.023528 -0.088076 0.052576 105 117 109
-0.163126 0.130906 0.026846 102 119 105
0.351676 -0.276968 0.083690 149 146 141
-0.294051 -0.212107 0.045617 117 123 123
-0.045743 0.171557 0.034733 48 48 52
0.272911 -0.259166 0.079212 75 74 78
0.370469 -0.028914 0.066656 89 88 88
0.238332 -0.055508 0.061102 134 138 133
-0.082501 -0.168629 0.057989 69 103 121
0.120418 -0.161628 0.064000 133 142 135
-0.221936 -0.289756 0.057270 84 91 95
-0.276919 -0.046724 0.414891 134 168 176
0.274138 -0.138631 0.068220 138 140 131
-0.239304 -0.286606 0.056774 147 153 151
-0.105412 -0.152836 0.056053 33 91 109
-0.297497 -0.057664 0.364828 72 89 90
0.040474 0.147299 0.043612 104 118 109
0.351497 0.367033 0.046595 145 146 140
-0.068681 -0.115874 0.049101 118 131 126
0.097426 -0.161180 0.062280 130 139 132
0.285686 -0.217236 0.074883 109 108 108
-0.051552 -0.258772 0.062645 124 135 131
-0.413624 -0.057252 0.003224 131 139 138
-0.052105 0.322256 0.024609 128 140 132
0.284565 -0.199095 0.073774 133 133 133
-0.475889 -0.023118 0.014026 93 100 94
-0.373983 0.055820 0.346834 86 93 87
-0.181342 -0.281059 0.059392 141 147 145
-0.252576 -0.043027 0.420638 127 170 180
0.052875 0.087960 0.046723 45 59 61
0.358341 -0.248499 0.079724 152 149 144
-0.293485 0.037928 0.052211 75 95 90
0.358045 0.224471 0.055240 139 139 139
0.128914 -0.243418 0.071241 137 141 136
0.122505 -0.048377 0.055903 112 124 116
0.326961 0.356665 0.046307 138 140 131
0.265242 0.065244 0.057882 128 137 130
0.061718 -0.042124 0.053665 101 115 106
0.197264 -0.232941 0.073819 64 70 70
0.340782 0.051362 0.062311 145 147 138
0.122725 -0.089842 0.058548 123 132 125
-0.102742 0.086272 0.112540 43 41 33
0.153013 -0.080995 0.059474 123 132 125
-0.374163 -0.042719 0.010900 118 131 126
0.297538 -0.241820 0.078102 144 144 138
0.025067 -0.067521 0.051409 92 101 94
0.024648 0.056389 0.047507 98 114 105
-0.197191 -0.016017 0.047297 90 109 99
0.317975 0.122533 0.057402 128 128 130
0.228580 0.226155 0.046831 132 140 137
-0.021068 0.020310 0.046643 91 107 96
-0.045724 0.275423 0.028460 100 111 107
-0.543648 0.124170 0.021343 159 163 158
-0.544913 0.008852 0.048048 71 72 66
-0.368825 -0.087635 0.335710 95 129 135
-0.367635 -0.075322 0.001122 110 123 118
0.280436 0.200470 0.051963 133 134 128
0.033978 0.270167 0.034036 126 135 126
0.155671 -0.243809 0.073094 136 140 135
-0.323279 -0.269683 0.047646 143 147 140
0.250063 0.342574 0.040086 138 142 137
0.288008 0.376101 0.040415 142 144 135
-0.325196 0.021945 0.047820 43 55 47
-0.314025 -0.051541 0.040071 118 127 118
-0.246623 -0.010417 0.051679 36 49 46
-0.361911 -0.031071 0.365771 97 103 103
0.167094 0.160469 0.049495 70 76 76
0.344823 -0.123162 0.069390 147 147 143
-0.295131 -0.009433 0.044190 65 76 72
-0.005973 0.381303 0.021587 129 141 133
0.171611 0.046363 0.053508 123 132 125
-0.542276 0.036547 0.064197 80 84 77
-0.381527 0.047163 0.345010 86 90 85
0.302705 -0.265749 0.081243 140 141 132
-0.137200 -0.177111 0.058222 84 116 123
-0.130734 0.119665 0.028115 106 120 109
0.211452 -0.216714 0.072715 138 142 135
-0.376612 0.034446 0.342306 69 83 74
0.126916 -0.009686 0.054415 110 119 112
0.134154 0.071387 0.051924 53 59 57
0.335348 -0.126814 0.069797 146 146 142
-0.346265 0.052258 0.347743 87 94 88
-0.245318 -0.140260 0.041537 116 130 121
0.078040 -0.109184 0.057001 111 126 121
-0.299195 0.390815 0.000517 145 152 144
-0.263345 -0.046574 0.042304 39 50 48
-0.154733 -0.265663 0.058748 136 143 135
-0.533279 0.011422 0.024425 112 113 107
-0.125546 -0.163335 0.057038 57 102 113
-0.349154 -0.005703 0.361292 89 96 90
-0.182340 0.139717 0.026381 61 73 65
-0.299211 -0.271505 0.049025 141 148 142
0.362404 -0.001337 0.064966 144 145 141
-0.071287 0.296224 0.026060 123 138 135
-0.206016 -0.203009 0.048699 126 138 130
-0.073603 0.285872 0.026855 108 121 116
-0.042722 0.201348 0.034081 110 124 115
-0.068362 -0.199837 0.056195 116 127 125
-0.232111 -0.091330 0.397480 95 136 140
0.186496 -0.130743 0.064626 134 141 135
0.135508 -0.027354 0.055452 45 56 56
0.242342 -0.091326 0.063869 132 139 131
0.048841 -0.167376 0.059958 126 135 128
-0.006576 0.053042 0.045565 42 55 50
-0.045057 0.189996 0.034010 102 115 112
-0.054262 0.054938 0.045187 67 79 69
-0.549869 0.046461 0.118098 123 145 155
-0.318920 0.397794 -0.002022 141 145 140
0.215868 -0.107376 0.063391 94 100 100
0.107170 0.150498 0.046749 108 123 118
-0.265192 -0.202382 0.046041 132 141 134
-0.295740 -0.167961 0.042035 130 139 130
-0.257598 0.367988 0.007190 140 149 140
-0.315216 -0.114374 0.037055 123 131 128
0.120594 -0.210741 0.067886 133 140 134
-0.285234 -0.243256 0.048466 141 145 138
0.090796 0.258777 0.037737 123 131 128
-0.308046 -0.078084 0.337573 50 62 54
-0.417367 -0.112683 -0.016721 118 124 122
0.140195 0.042595 0.052505 111 120 113
-0.202148 -0.219988 0.051757 128 139 135
0.248197 0.254300 0.047160 136 143 137
0.293410 0.027990 0.060099 133 137 130
-0.198290 -0.050050 0.089834 61 73 65
0.039133 0.127596 0.043864 70 86 77
0.265751 -0.017443 0.060778 135 136 132
-0.297052 0.279314 0.004125 76 88 78
0.229503 -0.162782 0.068585 132 140 141
-0.115202 0.158824 0.028725 115 129 118
-0.269878 -0.062826 0.414182 126 170 177
-0.181525 0.211990 0.025690 120 134 123
-0.246384 -0.017706 0.050803 106 120 111
0.165002 0.008095 0.054313 31 39 40
0.311817 0.120239 0.057580 128 135 129
0.365269 0.184059 0.058001 142 143 139
0.021124 -0.143848 0.055210 116 131 117
0.263112 0.273853 0.046743 92 95 96
-0.088888 0.227431 0.028531 123 135 125
-0.318023 -0.222924 0.043038 144 147 146
-0.342009 0.099798 0.344804 135 167 174
-0.166336 0.077807 0.034765 95 109 98
0.066195 0.049668 0.049372 36 47 43
0.319388 0.194307 0.055225 136 140 135
-0.325726 -0.194167 0.039187 136 143 135
-0.081575 -0.253807 0.061335 76 87 87
-0.454626 -0.062330 0.001091 85 93 90
0.219204 -0.244324 0.075323 140 141 137
0.059569 0.367157 0.027689 121 131 119
-0.374844 0.063839 0.347147 92 96 91
-0.365037 -0.075662 0.351816 116 155 162
-0.402836 0.042915 0.044381 120 134 125
0.110746 -0.133202 0.060796 121 133 125
0.289163 0.162910 0.054861 81 84 83
-0.061563 -0.269736 0.063536 131 139 136
0.380700 0.000540 0.065352 141 141 137
0.343273 0.168562 0.057425 139 140 136
0.336570 0.296916 0.049713 142 146 139
-0.138663 -0.130937 0.046029 65 78 73
-0.433166 -0.111327 -0.015151 95 103 100
-0.349372 0.020646 0.349194 33 39 39
-0.489223 -0.099087 -0.013031 82 88 86
0.180840 0.005912 0.055017 115 128 123
0.047648 -0.043658 0.052619 103 111 108
-0.189034 -0.225009 0.052567 128 136 133
-0.130571 0.162150 0.026568 118 130 120
-0.023591 0.041073 0.044940 90 104 93
-0.297240 0.240235 0.001362 132 141 134
0.367574 -0.182530 0.073676 70 69 71
-0.209510 0.378676 0.011052 133 143 131
0.222472 -0.218418 0.073102 138 139 133
0.021883 -0.233861 0.063534 119 128 121
0.079912 0.059907 0.049448 101 117 108
-0.236928 0.019491 0.335584 97 107 110
0.077851 0.269266 0.036141 106 113 107
0.339386 -0.287675 0.084602 144 144 138
-0.144234 0.242508 0.025999 122 138 129
0.247637 0.339989 0.040120 138 142 137
-0.110187 -0.251937 0.059909 47 53 53
-0.010586 -0.082107 0.050812 96 109 96
-0.225989 -0.081534 0.404548 104 150 156
0.143560 -0.240424 0.071959 136 140 135
-0.162822 -0.249872 0.057652 132 138 140
0.304075 -0.279724 0.082603 145 145 139
-0.272023 -0.086096 0.378936 88 121 125
0.026524 0.397596 0.021482 126 134 131
0.230083 0.037167 0.056711 118 130 122
-0.222496 0.324582 0.014834 138 148 136
-0.509401 0.097587 0.344515 131 131 127
-0.083963 -0.038292 0.047125 97 113 104
0.018479 -0.008264 0.049745 97 113 102
0.386509 0.121065 0.061133 140 140 134
-0.031202 -0.290073 0.066434 126 130 125
0.297865 -0.233737 0.077210 146 147 138
0.197493 -0.258491 0.076160 75 66 73
0.169428 0.207709 0.045808 88 101 98
0.378159 0.217277 0.056011 142 143 137
-0.234532 -0.065525 0.137122 18 26 25
-0.063319 -0.147356 0.055041 11 38 80
-0.098373 0.054910 0.119704 87 96 76
0.383719 -0.158498 0.072075 146 148 137
0.281770 -0.152475 0.068473 136 137 131
-0.425002 -0.035309 0.011125 133 141 138
-0.419719 -0.017329 0.019595 131 139 136
0.393526 0.281025 0.052631 140 139 139
0.358660 -0.009432 0.065727 140 141 137
0.054103 -0.030128 0.051969 90 108 102
-0.426232 -0.107891 -0.014225 97 105 102
0.036561 -0.264430 0.067506 119 128 121
-0.017913 -0.023283 0.048386 36 44 43
-0.238936 -0.100950 0.347657 49 62 57
-0.212903 0.275719 0.017986 132 146 137
-0.140410 -0.034639 0.046850 19 37 33
-0.182644 -0.220196 0.052666 128 136 133
0.118585 -0.296181 0.074827 61 61 61
0.173451 0.046372 0.053515 120 129 122
0.029496 0.351739 0.027184 128 137 130
0.284347 -0.192395 0.073269 140 137 134
0.202485 0.250754 0.044588 113 121 120
0.296702 0.391983 0.040223 144 144 138
0.242098 0.091350 0.055116 135 144 137
0.256402 0.344746 0.040671 144 145 141
0.067020 -0.184611 0.061725 123 135 127
0.370431 0.046612 0.064185 124 127 126
-0.195975 0.012232 0.049248 92 106 95
-0.060541 0.377362 0.018930 76 87 87
0.061624 0.081476 0.047295 102 118 109
0.031502 -0.138850 0.055960 125 134 125
-0.218653 0.332895 0.013849 138 147 138
-0.340022 0.003043 0.359736 136 148 140
-0.288856 -0.122119 0.039308 118 130 122
0.314251 -0.232229 0.077520 137 137 137
-0.519682 0.054935 0.311425 75 78 77
-0.084166 0.040030 0.107379 53 57 36
-0.288713 -0.033201 0.041598 109 123 114
-0.527685 0.012827 0.025805 91 88 83
-0.330834 -0.275708 0.046753 154 154 148
-0.372248 0.033814 0.343335 72 84 76
-0.106605 -0.140422 0.048763 19 37 44
-0.084062 0.357955 0.020226 133 142 135
0.297610 -0.138808 0.068941 143 143 137
-0.033549 0.232678 0.032211 124 136 126
-0.099211 0.199234 0.029161 121 135 124
-0.217154 -0.250800 0.054605 58 61 64
0.195091 -0.179744 0.069040 122 122 122
-0.004230 -0.218725 0.060293 109 120 116
-0.193285 -0.118109 0.044110 115 127 117
0.013988 0.177969 0.039974 41 56 51
-0.239591 -0.026234 0.066946 17 30 29
-0.356872 -0.001596 0.005799 16 22 24
0.021454 0.145721 0.042241 104 118 107
-0.222039 0.188708 0.025697 117 131 122
-0.424561 -0.104537 -0.013050 98 107 100
0.280061 0.066974 0.058741 129 136 130
0.370562 0.154203 0.059764 143 144 138
0.269213 0.288386 0.046787 137 139 130
0.343533 0.269395 0.051168 142 143 137
0.395776 0.247653 0.056136 142 143 139
-0.259850 -0.093573 0.393597 78 119 123
-0.311343 -0.204790 0.042202 140 146 144
-0.391327 0.027003 0.040168 136 147 145
-0.328796 -0.075956 0.350135 71 84 79
0.259492 0.040685 0.058175 123 132 125
-0.490189 -0.024815 0.013260 79 87 84
0.280111 0.280904 0.047301 142 143 137
-0.142229 0.216177 0.027049 69 80 76
-0.357433 0.017147 0.347126 25 33 32
-0.326042 0.074087 0.343064 93 101 98
0.248794 -0.120696 0.066514 133 137 130
-0.184669 -0.024879 0.045721 94 106 96
-0.219712 -0.060398 0.120102 11 14 15
-0.021275 -0.019394 0.048214 102 118 107
0.343615 -0.191097 0.074734 141 138 133
-0.076163 0.050656 0.120774 89 98 78
-0.321871 0.069095 0.340737 95 103 100
0.222494 0.333465 0.038288 140 141 135
-0.323194 0.335646 0.001304 143 143 137
-0.240117 -0.271077 0.055216 145 152 146
0.026152 0.272815 0.033539 123 133 121
0.275812 -0.078485 0.063780 133 140 134
-0.522945 0.018511 0.026439 67 66 66
0.261031 -0.100799 0.065448 135 138 137
0.022490 0.132369 0.042789 102 116 107
-0.222452 -0.061489 0.415020 118 164 168
0.352553 0.372492 0.046211 145 145 139
0.276956 0.004452 0.059560 130 135 125
-0.120754 0.188708 0.027406 121 135 124
-0.284719 -0.005524 0.044204 114 128 119
0.035413 -0.020219 0.050878 96 110 101
-0.287173 -0.056468 0.398174 129 171 172
-0.027538 0.193634 0.035769 113 127 118
-0.074275 0.032300 0.111468 59 62 44
-0.235397 0.185095 0.027704 122 136 127
-0.283380 0.375545 0.003626 143 147 140
-0.241963 -0.071625 0.415712 122 172 180
0.066687 -0.153796 0.060138 124 136 128
0.126693 0.314968 0.034506 130 139 130
0.281438 -0.056259 0.063524 135 139 134
-0.423695 -0.074332 -0.002251 105 114 107
0.111895 -0.017302 0.054006 107 118 114
-0.436992 0.047328 0.326794 132 132 132
0.223356 0.206279 0.048999 112 115 116
0.210456 0.169393 0.050110 132 141 132
0.047148 -0.203011 0.062691 103 114 114
0.095896 -0.215331 0.066717 131 138 132
-0.543310 -0.015763 0.019133 112 119 113
-0.259985 -0.094219 0.392231 85 126 130
0.314418 -0.115633 0.067671 143 141 133
0.100937 -0.277595 0.072059 127 131 126
-0.207661 -0.202980 0.048574 125 137 129
0.031856 0.131993 0.043610 107 122 117
-0.012825 -0.201968 0.058234 86 97 93
0.307026 -0.012434 0.063086 133 137 132
-0.533726 0.054162 0.307278 76 77 71
0.293077 -0.128123 0.068113 136 141 131
0.204888 0.025358 0.055987 124 133 126
0.144838 0.213058 0.044184 127 136 129
0.304148 -0.185600 0.072579 131 136 126
-0.531227 0.044947 0.029785 144 146 137
0.225434 -0.201960 0.072079 115 119 112
-0.207679 0.234307 0.023047 129 141 131
-0.220355 -0.055768 0.414705 123 167 172
-0.342797 0.048132 0.051074 34 45 43
0.138612 0.092951 0.050493 115 122 114
-0.546224 0.014350 0.057414 76 77 68
0.333439 0.089120 0.060757 140 141 135
-0.404112 -0.070985 -0.000829 128 136 133
-0.121360 -0.006525 0.066523 20 28 25
0.199050 0.142309 0.051082 125 131 131
-0.300309 -0.152163 0.040530 131 140 133
-0.228737 -0.075027 0.098701 23 34 32
0.236665 -0.011237 0.059406 129 136 130
0.102742 0.339742 0.031023 130 139 130
-0.222475 -0.160091 0.044677 120 134 125
-0.196148 0.020095 0.049238 94 110 99
-0.310647 0.011689 0.044588 114 128 117
-0.180133 -0.087629 0.044284 108 121 116
-0.469681 0.038878 0.298339 47 32 33
0.180266 -0.188346 0.070191 128 137 128
-0.249987 -0.237419 0.050936 138 145 139
-0.115330 0.047894 0.110513 49 55 36
-0.308929 -0.287015 0.050327 127 127 121
0.191787 -0.097995 0.061886 127 134 126
0.180548 -0.266127 0.075842 139 140 134
0.160943 -0.209675 0.070286 131 135 130
-0.230642 -0.124686 0.042277 49 62 57
-0.133358 -0.038353 0.046752 95 110 105
-0.108648 0.055408 0.118597 86 97 78
-0.039543 0.131518 0.035548 93 109 100
0.094511 0.297275 0.034522 126 135 128
-0.235284 -0.173767 0.044950 101 117 108
-0.495778 -0.018070 0.015753 89 96 88
-0.353889 -0.090563 0.327086 83 111 115
0.311850 0.072409 0.060668 135 139 132
0.307994 -0.251473 0.079322 143 140 135
-0.421930 -0.003717 0.024404 125 133 130
-0.210341 -0.218235 0.051154 129 142 137
-0.035152 -0.053472 0.047999 108 124 115
-0.035335 -0.057293 0.048234 105 124 114
0.374066 0.190575 0.058526 137 138 134
-0.151525 -0.273548 0.059813 136 143 137
-0.297593 0.261430 0.009100 57 63 61
-0.087814 -0.131692 0.048831 101 116 111
0.214329 0.221741 0.046242 138 142 135
0.327981 0.384244 0.043968 144 145 139
-0.469522 -0.000909 0.021812 126 133 127
-0.448541 0.050612 0.326622 130 133 132
0.103038 0.364184 0.029044 127 134 126
-0.163284 0.148644 0.026425 108 122 111
-0.045841 -0.101424 0.048752 41 55 59
-0.337253 -0.057427 0.361138 89 100 96
-0.312599 -0.146667 0.039357 128 140 132
0.249993 -0.176733 0.070424 143 144 140
-0.311594 0.023700 0.337740 73 80 74
0.145351 0.120666 0.050302 114 125 121
-0.154828 -0.251479 0.057786 54 60 60
-0.090665 0.339280 0.021247 141 149 148
-0.060143 0.388893 0.017542 134 143 136
-0.489284 0.106195 0.347109 149 144 140
-0.056914 -0.236330 0.060412 125 136 132
-0.174063 -0.146809 0.046557 101 114 109
-0.376160 -0.019742 0.021256 120 135 132
0.352977 0.076165 0.062002 137 137 137
-0.210033 -0.075333 0.075662 26 37 35
0.084561 0.387704 0.025142 75 76 72
0.364862 -0.224264 0.077373 140 141 132
0.131196 0.355598 0.030752 126 135 128
0.377708 0.188543 0.058233 138 139 135
-0.497850 0.048959 0.034573 128 135 129
-0.089288 0.040516 0.106333 44 47 29
0.183122 -0.287763 0.077765 141 141 135
-0.128615 0.001727 0.078105 21 29 26
-0.266412 -0.083700 0.402924 119 159 161
-0.070988 0.036282 0.115070 91 94 78
0.234738 0.374288 0.035144 134 141 133
0.022937 0.196605 0.039172 109 123 114
-0.221841 -0.096525 0.359034 55 70 65
-0.393015 0.022764 0.325167 38 46 47
0.193170 0.312842 0.038655 134 141 135
-0.132518 0.039176 0.104521 57 59 46
0.267108 -0.251057 0.077420 144 144 138
-0.303302 -0.085839 0.038026 117 129 119
0.171107 -0.186295 0.068592 125 137 127
0.321526 -0.180726 0.073078 143 140 135
0.050781 0.385309 0.024212 130 139 132
-0.379886 0.034194 0.037666 128 141 138
0.272758 -0.145662 0.068631 57 60 63
-0.314479 -0.084594 0.327191 50 61 57
-0.298296 -0.081796 0.324621 33 40 46
-0.062940 0.113829 0.036012 97 112 98
-0.236755 -0.069944 0.126427 13 23 26
0.345248 -0.165288 0.071936 145 145 139
0.399732 -0.079606 0.068047 150 148 140
-0.216791 -0.178994 0.045645 125 138 133
0.378741 0.351852 0.050225 145 145 139
0.117857 0.178340 0.044815 119 131 123
-0.042761 -0.140162 0.054151 30 43 79
0.180168 0.098787 0.052018 126 135 128
0.397967 0.044994 0.063732 136 141 129
0.109068 -0.285489 0.073903 113 119 117
-0.390951 0.011744 0.034515 135 148 143
-0.347889 -0.043896 0.365324 91 99 96
-0.235822 -0.161682 0.044201 125 134 127
0.090842 0.236908 0.038664 122 128 126
-0.308755 0.049809 0.335220 77 85 82
-0.503879 0.048119 0.285808 127 100 105
0.329786 -0.049219 0.065120 140 144 139
-0.119943 -0.270659 0.060521 134 143 136
-0.150446 -0.161271 0.055597 63 98 111
0.290022 -0.091944 0.066065 136 136 132
0.349509 -0.085290 0.068246 133 133 137
0.160795 0.344100 0.033052 131 138 132
0.203793 -0.077477 0.060300 125 137 127
-0.458291 0.061943 0.331753 127 130 129
-0.193660 -0.233221 0.053568 138 146 145
0.345101 -0.034120 0.065170 138 138 134
0.030459 -0.189317 0.060559 118 132 123
-0.142175 0.168519 0.026928 113 129 118
0.053248 0.339825 0.029970 129 135 133
0.330520 -0.197755 0.075020 144 145 136
-0.082994 -0.194815 0.055891 103 121 119
0.016233 0.123518 0.043090 95 108 107
0.255852 -0.171692 0.070405 109 112 113
-0.017806 0.315173 0.028126 129 141 133
-0.199177 0.209993 0.024897 124 135 133
0.293238 -0.219003 0.075576 142 140 132
-0.022464 -0.225160 0.060308 130 143 138
-0.457136 0.007537 0.025224 123 132 125
-0.462029 0.083511 0.339170 124 127 128
0.225712 -0.208675 0.072928 95 94 98
0.338965 -0.284511 0.083626 144 144 140
0.139668 -0.063962 0.057922 121 129 118
-0.039947 0.370648 0.021290 121 134 131
-0.445295 0.089632 0.342697 140 140 136
0.278390 -0.166679 0.070626 138 142 135
-0.199980 -0.123388 0.043986 52 68 59
-0.356315 -0.001120 0.009460 18 24 26
-0.253405 -0.234134 0.050464 135 144 137
0.149828 -0.025607 0.056009 119 128 121
-0.025410 0.156498 0.038025 103 117 106
-0.189297 0.207316 0.025671 118 132 123
-0.335582 0.319472 0.009439 147 149 133
-0.135072 0.003331 0.048028 74 89 75
0.338359 0.340538 0.047742 144 145 141
-0.191643 -0.028928 0.046239 102 114 104
0.251408 -0.040342 0.060776 127 134 128
-0.077848 -0.075680 0.047553 36 44 45
0.151934 0.389579 0.027385 132 132 132
0.206698 -0.278677 0.077375 144 144 138
-0.069893 0.005063 0.088409 45 53 50
-0.212754 0.204940 0.025399 128 140 130
0.139767 -0.187725 0.067649 121 135 126
-0.246711 -0.078837 0.411624 120 168 176
0.131172 -0.238630 0.070941 136 140 135
0.118497 -0.225606 0.069544 133 140 132
0.328096 -0.031913 0.064203 140 142 133
0.139217 0.281279 0.037311 121 130 123
-0.231029 0.220486 0.022371 52 59 63
0.084423 -0.061330 0.055273 111 123 115
-0.118871 0.051813 0.114160 70 81 62
0.376404 0.154323 0.059658 140 141 135
-0.132317 0.007885 0.089749 24 32 31
-0.535165 -0.092938 -0.015077 82 89 83
-0.335543 -0.229123 0.041828 153 157 150
0.209298 -0.210166 0.072370 138 143 133
-0.229245 -0.074588 0.411560 115 165 173
-0.251986 -0.034308 0.420166 127 166 173
0.296281 0.224254 0.050939 127 133 131
0.136928 -0.112075 0.060871 121 132 132
0.310824 -0.278185 0.082367 146 146 140
-0.142130 -0.173313 0.056469 73 111 123
-0.301068 -0.093180 0.038267 86 99 98
0.170570 -0.101653 0.061941 130 134 127
-0.385013 -0.047424 0.007983 122 135 130
-0.241681 -0.071945 0.249141 31 38 42
-0.408579 -0.110921 -0.016373 132 138 136
0.184270 -0.101719 0.062243 127 136 127
-0.248428 -0.008685 0.052101 95 111 102
-0.029833 0.227679 0.032787 118 132 121
-0.360413 -0.032643 0.365956 100 106 106
-0.051167 0.181052 0.033763 108 124 113
0.336703 0.205440 0.055880 139 139 139
0.186452 0.232091 0.044127 133 141 130
-0.050174 0.210968 0.033230 57 68 64
0.174086 -0.146484 0.065066 124 130 128
-0.184993 -0.259078 0.056886 129 140 136
-0.245728 -0.037545 0.420942 126 170 177
-0.197134 -0.049350 0.299924 66 78 70
0.300927 0.275211 0.048928 143 143 137
0.285669 -0.013955 0.061868 122 126 121
0.145055 -0.126677 0.062518 126 138 130
-0.541445 0.095293 0.342418 122 119 116
0.116525 -0.217278 0.068178 141 145 138
0.052252 -0.008791 0.051400 101 113 103
-0.483702 0.060987 0.325420 160 167 161
-0.367854 -0.095925 -0.010440 54 63 56
-0.255721 -0.090027 0.399775 89 130 134
-0.134086 -0.250103 0.058660 41 44 47
-0.176566 0.278948 0.020982 133 145 135
0.373947 0.151986 0.059862 140 141 135
0.157868 0.084008 0.051904 115 128 115
0.356169 0.137076 0.058982 139 140 136
0.301681 0.233556 0.051023 138 142 135
0.144761 0.243286 0.040627 124 133 126
0.041749 -0.226057 0.064346 120 129 122
-0.357203 0.001828 0.016628 20 30 35
-0.104892 0.353386 0.019116 58 70 62
-0.044918 -0.251077 0.063210 107 113 113
-0.080656 -0.117489 0.048519 109 124 119
0.247961 -0.107835 0.065033 100 108 105
-0.187553 0.219201 0.025146 70 85 84
0.322979 -0.229069 0.077598 144 145 136
0.286934 -0.044993 0.063431 68 74 72
-0.303173 -0.068965 0.348089 125 138 133
0.325444 -0.185762 0.073247 140 141 132
0.366045 -0.081554 0.068100 149 146 141
-0.187527 0.036759 0.047641 98 114 103
-0.321370 -0.222796 0.042430 66 67 63
0.126918 0.208813 0.043331 128 136 133
-0.269795 -0.071536 0.410320 126 170 177
-0.179458 -0.216931 0.052526 123 134 130
0.209076 -0.136330 0.065973 133 137 132
-0.019958 -0.127403 0.052436 115 128 123
0.094018 0.292097 0.034920 128 136 133
-0.344493 -0.088835 0.335582 53 64 62
0.379403 -0.151179 0.070354 76 76 78
-0.219590 -0.070469 0.259973 22 33 33
-0.115746 -0.009430 0.055458 26 39 34
-0.283569 -0.066017 0.039269 116 125 116
-0.176294 -0.112888 0.044561 114 128 119
-0.341175 -0.086753 0.340155 53 66 61
0.315350 0.039808 0.060795 134 139 129
0.073262 0.068235 0.049106 44 57 56
0.043663 -0.255137 0.067561 113 119 121
0.011880 0.206241 0.038160 98 109 105
0.322785 0.041585 0.061392 133 140 132
0.145185 -0.048668 0.056895 119 128 119
0.059645 -0.026469 0.052408 46 59 56
0.376583 -0.140827 0.070313 147 148 144
0.242458 0.000911 0.058292 127 133 131
-0.055302 0.022764 0.045155 76 90 79
-0.079979 -0.204762 0.056210 115 128 123
-0.318967 -0.067295 0.352937 75 88 83
-0.351980 0.020501 0.349371 29 35 35
0.385914 0.365737 0.048904 136 136 130
-0.322575 -0.067727 0.353707 76 89 84
-0.529605 0.119807 0.342256 152 142 140
0.119311 -0.195737 0.066628 132 141 134
0.242801 -0.260451 0.078028 83 82 82
-0.504144 0.002881 0.021725 95 98 97
0.181064 -0.088812 0.061303 126 135 126
0.254145 0.052975 0.057770 126 133 125
-0.330708 -0.194113 0.038963 146 148 139
-0.053709 0.069716 0.044299 89 104 90
-0.001679 -0.249643 0.063545 123 135 127
-0.202860 -0.039258 0.107719 19 27 26
0.155767 -0.275139 0.075028 139 139 135
-0.015982 0.047171 0.044972 88 101 98
-0.487342 0.027326 0.029422 127 131 124
-0.126361 -0.046075 0.047319 99 115 106
0.298169 -0.159841 0.070475 143 141 133
0.213720 0.062070 0.055279 125 134 125
-0.214012 -0.065323 0.238307 18 29 29
-0.377854 -0.039310 0.012008 122 133 129
0.147138 -0.258037 0.074109 83 83 85
0.330994 -0.147768 0.070231 133 137 130
-0.247333 -0.036662 0.050812 19 31 35
0.024091 0.127933 0.043019 71 85 76
0.396178 0.313820 0.051215 144 144 138
0.045201 -0.095827 0.054275 74 88 79
-0.014418 0.076633 0.043440 94 109 95
0.266976 0.298857 0.045731 131 132 128
-0.244883 -0.212727 0.048320 124 138 129
0.196454 -0.247310 0.074689 64 64 64
0.041684 0.039628 0.048907 30 42 34
0.187791 -0.231342 0.073821 137 141 134
-0.243265 0.231977 0.022403 132 144 136
0.123996 -0.093539 0.058808 124 131 125
-0.429176 -0.069327 -0.000360 105 114 107
0.030259 -0.018161 0.050483 96 110 101
0.009350 0.260368 0.033927 124 133 124
-0.513201 0.085800 0.339707 112 115 114
-0.077983 0.189343 0.030812 44 59 58
0.097224 0.030899 0.051174 103 117 108
0.372448 -0.137238 0.069884 147 147 141
-0.252751 -0.062609 0.418771 124 172 180
-0.124882 -0.095581 0.046824 120 128 125
-0.140192 0.364782 0.016949 132 144 134
0.347800 0.391614 0.044897 144 145 139
-0.326808 0.018664 0.347761 83 95 87
0.254197 -0.252509 0.076940 145 146 142
0.178153 -0.012228 0.056476 119 128 121
0.156685 -0.103345 0.061543 127 135 132
0.334567 0.274537 0.050507 145 142 137
0.072318 0.369924 0.027691 79 87 84
-0.340867 0.376583 -0.002188 160 157 154
0.274681 0.359329 0.041881 137 138 134
-0.407206 0.026078 0.319678 54 60 58
-0.252985 -0.185547 0.044997 130 139 130
0.322850 0.033244 0.062070 133 141 130
-0.441512 0.066651 0.334886 136 142 142
-0.252477 -0.047899 0.045889 100 116 107
0.331088 -0.043405 0.064644 143 144 138
0.110614 0.020577 0.052162 102 115 110
0.014242 0.065001 0.046489 97 113 104
0.049950 0.147114 0.044089 109 123 112
-0.369842 0.009229 0.346991 113 116 115
0.273941 0.390683 0.038154 132 131 131
-0.019813 0.193336 0.036384 105 121 112
-0.446972 0.051560 0.327700 153 153 149
-0.509537 0.108640 0.345792 147 145 137
0.263015 0.118841 0.055468 127 133 133
-0.036828 -0.090740 0.049256 113 129 120
-0.106467 0.387334 0.015308 141 150 143
0.254491 0.020589 0.058394 130 134 127
-0.219554 -0.058416 0.123916 11 17 17
-0.362815 -0.053451 0.009009 37 43 43
0.149478 -0.211160 0.069697 137 141 136
0.183619 0.140235 0.050652 132 138 136
0.178436 -0.279956 0.076259 137 141 136
0.395756 -0.151475 0.071466 148 145 140
-0.001105 0.392781 0.020393 132 141 132
0.375265 -0.179058 0.073169 143 135 132
-0.279020 -0.013059 0.043841 111 125 116
0.205610 0.299762 0.039945 108 119 115
-0.265757 -0.030232 0.043927 107 123 114
0.384428 0.328445 0.051347 142 143 137
0.204602 0.023344 0.056042 124 133 126
0.368247 0.044633 0.064073 144 148 143
0.306794 -0.299626 0.085086 140 141 132
-0.011296 -0.203647 0.058396 122 133 131
0.345595 0.002920 0.063923 150 149 149
0.371753 -0.147702 0.070184 140 141 132
0.274989 -0.175235 0.071155 143 144 138
-0.488784 0.075333 0.333616 134 141 135
-0.432322 0.076271 0.338055 120 123 124
0.276882 -0.052455 0.063269 135 139 134
-0.138778 -0.197377 0.052779 114 127 122
-0.361961 -0.067964 -0.003752 25 33 34
-0.201599 -0.287018 0.058927 147 155 152
0.262465 0.220071 0.049665 111 110 110
-0.062565 -0.295769 0.064713 126 138 130
-0.318710 0.330481 0.001532 141 145 138
0.249061 0.220626 0.048573 138 142 137
0.344981 0.309602 0.049282 146 143 140
0.339413 0.168543 0.057391 139 140 136
0.241811 0.150494 0.052737 133 142 135
-0.124992 0.128234 0.028354 107 121 110
-0.035802 0.131197 0.036186 91 107 98
0.295408 -0.027776 0.063003 135 139 134
-0.480549 -0.043472 0.006727 86 93 87
-0.293417 -0.220390 0.046334 140 149 142
-0.103230 0.326417 0.021391 135 149 138
-0.427945 -0.057266 0.003134 122 133 131
-0.286696 0.320057 0.006093 139 146 138
0.171525 -0.008290 0.056224 118 130 122
-0.187892 0.347233 0.015567 138 147 138
-0.251528 -0.063814 0.418517 124 172 180
-0.361973 0.060087 0.348012 89 96 90
0.175299 0.033794 0.054607 119 128 121
0.009106 -0.192164 0.058615 124 135 131
-0.420116 -0.002121 0.025287 125 133 130
-0.523618 0.064806 0.324017 147 144 139
-0.015130 0.326299 0.026599 125 137 127
0.010443 -0.021952 0.050143 85 99 88
-0.542461 0.082092 0.029026 155 159 152
0.310296 0.307501 0.048141 143 143 139
0.134146 -0.093787 0.059621 67 73 73
-0.201805 -0.072345 0.072485 106 115 108
-0.006272 0.339271 0.026223 125 136 134
-0.291736 0.297765 0.005900 135 145 133
-0.116911 0.036242 0.102872 40 43 25
-0.007043 -0.136595 0.054011 123 135 125
-0.117578 0.329423 0.020446 134 143 134
-0.441302 -0.081107 -0.004641 86 94 91
-0.167385 0.371118 0.014906 58 65 59
0.122361 -0.290218 0.075046 134 138 133
-0.189782 0.231762 0.023675 130 139 130
0.385006 0.056482 0.064926 140 144 139
-0.029436 -0.148329 0.052528 109 125 116
-0.254575 -0.124281 0.040805 117 129 121
0.320635 -0.256481 0.081069 141 141 135
0.094505 0.117364 0.047721 107 121 112
-0.039262 -0.026605 0.046900 103 118 104
0.070819 0.019057 0.050621 97 111 102
-0.039874 -0.040208 0.047664 107 126 114
0.370185 0.379710 0.047210 150 148 140
-0.525165 0.134380 0.018787 148 159 157
-0.321149 -0.126750 0.036922 131 138 132
-0.486436 -0.028260 0.012219 83 92 85
-0.492794 -0.051908 0.003538 83 90 84
-0.171607 0.204608 0.026637 60 71 71
-0.502071 -0.089015 -0.009569 82 89 83
-0.460806 0.097550 0.345491 156 156 150
0.020828 -0.187429 0.059626 120 134 125
-0.361419 0.053016 0.027916 109 127 121
0.339846 -0.075681 0.066744 143 144 138
-0.227574 -0.197778 0.047489 41 52 48
-0.362788 -0.037394 0.017227 116 127 125
-0.212529 -0.075611 0.396395 120 166 170
0.269193 0.224946 0.049402 136 142 140
0.039119 0.205783 0.039358 104 117 112
0.010513 -0.296413 0.067866 109 120 120
-0.213070 -0.189410 0.047170 124 135 131
-0.259415 0.237410 0.020972 133 145 135
0.243612 -0.217004 0.073944 142 143 137
-0.098917 -0.161586 0.056915 14 86 109
-0.094947 -0.059086 0.047469 51 64 63
0.219508 -0.225017 0.073942 133 137 130
-0.192710 0.090263 0.030441 99 114 100
-0.132429 0.193622 0.026600 121 135 124
-0.209195 -0.071675 0.394300 115 159 162
-0.136927 -0.086438 0.046470 115 129 120
0.123378 -0.214076 0.068295 132 139 133
-0.181927 -0.083944 0.044133 109 120 116
0.337428 -0.202828 0.075688 144 144 138
-0.451970 -0.038480 0.009063 97 108 104
-0.018476 0.381880 0.020614 134 143 134
0.318536 0.137491 0.057647 100 104 99
0.207851 -0.245803 0.074926 142 143 137
0.030288 0.005767 0.048977 96 108 98
-0.381274 0.070842 0.346537 92 96 91
-0.537405 0.102832 0.025446 160 164 159
-0.124232 -0.220921 0.055876 124 135 131
0.300441 -0.254776 0.080419 144 145 139
0.106293 0.047489 0.050246 111 122 120
-0.092207 -0.159812 0.056656 1 77 107
0.028681 0.280434 0.033035 121 130 121
0.203592 -0.252103 0.075172 143 143 137
0.385141 0.177207 0.058559 140 144 139
0.225486 -0.118676 0.065538 85 85 81
-0.054956 -0.263499 0.063088 126 137 133
0.309989 -0.152758 0.069591 143 143 137
0.268244 0.073330 0.058208 132 139 131
-0.140240 0.282582 0.023393 132 146 137
0.211224 -0.039822 0.059018 126 135 128
-0.149974 -0.267298 0.059229 138 145 137
-0.273676 -0.053397 0.040438 110 122 112
-0.016706 -0.211905 0.058803 123 132 125
-0.167273 0.163776 0.026999 110 124 113
0.367416 0.103296 0.062246 140 141 135
-0.009141 -0.025272 0.048672 36 47 45
0.284536 0.018112 0.059888 128 135 129
0.156925 -0.160405 0.065861 130 138 135
0.241109 -0.277489 0.078987 147 148 139
-0.486728 0.105300 0.346088 152 153 144
-0.306420 -0.080558 0.330905 45 59 50
-0.076266 -0.010013 0.048174 81 100 90
0.108394 0.236200 0.040050 69 75 77
0.202515 0.113405 0.052756 130 139 130
0.179599 0.138132 0.050466 131 140 133
0.286594 -0.175277 0.071338 103 104 100
-0.203894 -0.073773 0.336252 132 147 144
-0.244922 0.315937 0.012569 139 146 138
-0.173352 -0.191849 0.050411 111 124 119
0.232168 0.237949 0.046682 81 89 90
-0.318993 -0.110614 0.036419 126 135 128
-0.433143 -0.112965 -0.015857 96 104 101
0.058765 -0.231264 0.066270 124 136 128
-0.548675 0.112231 0.023553 160 164 159
-0.219291 -0.277464 0.056457 144 147 146
0.005784 -0.254630 0.065086 79 87 88
0.275029 0.046671 0.058528 106 113 107
-0.534009 0.086458 0.028746 153 157 152
-0.235316 -0.096501 0.386471 51 85 84
0.235547 -0.216946 0.073704 142 143 139
0.102175 -0.228612 0.068696 130 139 132
0.046992 -0.204676 0.062813 93 101 100
-0.004200 -0.282683 0.067201 124 130 128
-0.186491 -0.194897 0.049284 123 136 131
-0.023590 0.004540 0.046621 88 107 95
-0.103205 0.044820 0.109114 45 48 30
0.197428 -0.284905 0.078598 79 79 79
0.313532 0.162168 0.056515 117 124 118
-0.528507 0.020326 0.026750 157 161 156
0.064412 -0.267951 0.069768 130 134 127
-0.082651 -0.288120 0.064335 134 143 136
0.371268 0.186046 0.058522 142 143 139
0.147683 0.123206 0.049622 114 125 121
-0.048582 0.254695 0.030719 126 144 142
-0.323126 -0.007187 0.047665 116 131 126
0.135364 0.032377 0.052812 91 99 96
-0.042989 -0.112649 0.050313 116 131 126
-0.146098 0.188547 0.027243 120 134 125
-0.114686 0.087177 0.103426 58 54 43
0.256928 -0.289985 0.081324 72 67 65
-0.228404 -0.072226 0.105274 20 31 29
-0.212467 -0.087566 0.355168 61 76 71
-0.303492 -0.073943 0.343737 28 34 36
-0.197614 0.227181 0.023397 122 138 129
-0.505468 -0.051743 0.002967 82 89 83
-0.414992 0.072465 0.338991 123 126 127
0.094366 0.174057 0.044106 115 127 119
0.036787 -0.073283 0.052169 103 112 105
0.095882 -0.187068 0.064957 125 139 130
0.200161 -0.280174 0.077330 138 139 130
-0.049398 -0.214940 0.057913 48 51 52
-0.383985 -0.097478 -0.011543 122 133 131
0.386236 0.034501 0.064515 138 139 135
0.292403 -0.149115 0.068766 136 137 131
0.302216 0.171921 0.054847 140 144 139
0.006969 0.286198 0.031331 120 134 123
-0.056241 -0.292834 0.065120 83 96 95
0.071148 0.331846 0.030879 124 132 131
0.370689 0.298393 0.051680 147 147 141
0.337384 -0.259684 0.081483 94 91 88
-0.346458 0.101740 0.344434 140 170 175
0.367435 0.281074 0.052080 126 130 125
-0.347626 0.052260 0.347716 86 93 87
-0.142273 0.354089 0.017478 134 143 134
0.209665 -0.161081 0.068506 134 141 135
-0.119784 -0.256517 0.059381 126 137 133
-0.100334 0.254170 0.027037 82 95 92
0.190413 -0.253710 0.075559 140 141 135
-0.024327 0.220022 0.033956 117 131 120
0.359848 -0.281636 0.084277 150 150 146
-0.329720 -0.126623 0.036450 136 140 133
-0.334197 0.347457 0.002318 144 141 127
0.184203 -0.123597 0.064138 131 138 132
-0.329506 0.395699 -0.002920 57 63 61
-0.445315 0.087167 0.341435 138 138 138
0.132714 0.260511 0.039444 126 133 127
-0.267566 -0.136489 0.040457 113 128 123
-0.146767 -0.284491 0.061405 137 146 139
0.189023 -0.176324 0.068730 140 141 137
0.247807 -0.019153 0.060062 131 135 130
-0.290380 -0.098643 0.038472 125 134 127
-0.327371 0.110173 0.338317 146 167 173
-0.107516 -0.191061 0.054038 112 122 127
0.172635 -0.266095 0.075748 136 141 127
-0.327603 0.398625 -0.003239 91 97 97
-0.280668 -0.078269 0.390085 98 138 140
-0.324996 -0.099724 0.036010 39 50 48
0.313600 0.130951 0.057662 136 140 133
0.256865 -0.028852 0.060525 60 63 64
-0.018994 -0.044410 0.048994 90 102 92
-0.134086 -0.253172 0.058289 40 39 46
-0.015779 0.234303 0.033615 84 96 88
-0.539977 0.177270 0.001608 143 147 142
-0.510269 0.112261 0.345576 156 147 140
-0.138296 0.209188 0.027230 89 95 95
-0.327627 -0.057069 0.039755 41 48 42
-0.279086 -0.260957 0.050707 143 150 142
-0.443143 -0.028553 0.013432 119 127 124
-0.238843 -0.089036 0.042604 109 122 117
0.182923 0.388055 0.029895 130 135 125
-0.140259 0.230475 0.026532 95 106 102
0.144132 -0.268860 0.074247 137 138 132
0.162742 0.293589 0.037523 131 140 133
-0.051242 -0.218366 0.058785 116 129 124
0.201237 0.144503 0.051092 127 136 127
-0.207966 -0.061877 0.244811 19 32 31
-0.092608 -0.173895 0.058814 8 78 104
0.138984 -0.249965 0.072608 122 125 124
0.397188 -0.051804 0.067687 150 148 140
0.094249 -0.146925 0.060244 118 132 123
-0.049696 -0.251042 0.063062 127 135 132
-0.480488 -0.045166 0.006128 86 93 87
-0.266896 -0.275315 0.053207 147 150 149
0.281172 0.030165 0.059542 134 138 131
0.322249 -0.299723 0.085464 134 141 133
0.269126 0.385654 0.037829 140 140 136
-0.265844 -0.292231 0.054206 142 149 141
-0.060027 0.206947 0.032150 116 129 114
-0.215068 -0.180720 0.045827 126 138 130
-0.007307 -0.216978 0.059701 71 79 80
-0.184334 0.381320 0.011489 131 138 132
0.322844 0.014983 0.062953 137 138 134
-0.142261 0.285155 0.023149 128 143 129
0.141942 -0.151180 0.063323 128 137 128
-0.364320 -0.073282 0.000693 30 43 42
0.106528 -0.269948 0.072014 96 97 91
-0.443689 -0.008310 0.021087 119 128 121
0.272427 -0.078405 0.063525 132 139 133
0.346026 -0.168774 0.072331 143 142 144
-0.040085 0.039189 0.044436 86 102 91
0.083931 -0.178240 0.062972 125 136 132
0.241245 -0.048023 0.061091 132 139 133
0.167722 -0.097924 0.061486 132 141 134
-0.155218 -0.193824 0.051739 114 125 121
-0.424832 -0.043657 0.007772 131 142 138
0.253873 -0.156131 0.069215 138 139 135
-0.315454 -0.268179 0.047820 141 145 140
0.093081 -0.211984 0.066239 132 140 137
-0.097139 0.002109 0.111006 72 85 72
-0.152501 -0.082605 0.045785 109 123 114
0.211338 0.057996 0.055218 126 135 126
0.093477 0.010830 0.051659 51 62 58
-0.464196 -0.051857 0.003666 85 93 90
-0.469853 -0.043407 0.006657 86 93 87
0.144446 0.398012 0.026543 131 132 126
-0.101023 0.334752 0.020356 128 141 140
-0.395951 -0.035822 0.012766 129 140 136
0.302548 -0.122876 0.068207 141 141 135
0.148538 0.147458 0.048896 119 131 121
-0.278951 -0.168238 0.043135 128 137 130
0.285340 0.086100 0.057822 59 59 59
-0.147261 -0.097117 0.045850 37 50 49
-0.275094 0.297978 0.009409 138 147 138
-0.320037 -0.163370 0.037464 141 145 140
-0.217964 -0.064156 0.410215 117 166 171
-0.507590 0.084450 0.339343 62 62 64
0.050758 -0.280114 0.069418 126 134 123
0.007096 0.067425 0.045641 99 113 102
0.113993 0.000719 0.052636 105 117 107
-0.513301 0.079683 0.336495 125 132 126
-0.270821 -0.044980 0.416706 131 167 173
0.208795 -0.176458 0.069285 136 140 133
-0.158203 -0.230241 0.054451 122 137 132
-0.214738 0.340730 0.013579 139 148 139
-0.257033 -0.143576 0.040919 118 129 125
-0.471043 0.051991 0.321698 119 118 118
-0.380542 -0.062575 0.356666 137 171 179
0.052696 -0.126769 0.056543 123 132 125
0.276064 0.064948 0.058632 131 138 132
-0.406849 -0.037234 0.011310 131 142 138
-0.253142 -0.211005 0.047931 50 56 54
-0.338504 -0.124621 0.035617 139 140 134
0.395442 0.170554 0.058681 142 143 137
0.184125 0.115813 0.051963 127 136 129
0.042995 -0.177558 0.060237 134 143 136
-0.302143 -0.194958 0.042562 133 142 135
0.169788 -0.253591 0.075095 134 138 131
-0.207917 -0.241161 0.053585 133 142 135
0.149914 0.018021 0.053952 114 122 119
-0.350519 -0.005468 -0.014092 16 19 22
-0.387953 0.030773 0.332938 56 64 61
0.136035 -0.092030 0.059773 105 113 112
-0.523463 0.005579 0.024389 56 59 58
0.284963 0.334921 0.044196 143 144 138
-0.208690 0.348144 0.013964 137 149 139
0.155302 0.002224 0.054183 117 125 122
0.016861 0.132579 0.042323 102 117 112
-0.473249 0.082446 0.338098 116 116 120
0.121221 0.139196 0.047651 116 128 120
-0.046642 -0.286876 0.065527 128 137 130
0.331105 0.378668 0.044519 123 127 120
-0.198764 -0.277708 0.057720 140 147 141
-0.112074 0.062337 0.120158 107 122 108
-0.538196 -0.026855 0.013016 95 99 92
0.358434 -0.258209 0.081688 64 58 64
0.024247 -0.002379 0.049675 97 113 102
-0.128469 -0.129270 0.046377 107 120 115
-0.523968 0.069705 0.329030 139 139 141
-0.224612 -0.101649 0.042638 107 122 119
-0.358832 -0.033077 0.011018 28 33 38
0.127388 -0.093613 0.059052 121 130 123
-0.517498 0.057711 0.314841 82 79 76
-0.374102 0.100469 0.338753 115 134 138
