ply
format ascii 1.0
element vertex 1216
property float x
property float y
property float z
property uchar red
property uchar green
property uchar blue
end_header
-0.283730 -0.043978 0.403290 126 167 171
-0.367732 -0.013016 0.420428 39 49 54
-0.451930 -0.035448 -0.004111 102 110 109
0.356600 0.005268 0.016924 136 140 135
-0.008459 0.061369 0.001891 99 115 106
-0.463447 -0.022172 0.428146 73 80 74
0.160446 0.216928 0.004975 120 129 122
0.335292 -0.166208 0.016101 135 139 132
0.283634 0.211632 0.011851 128 135 129
-0.236083 -0.026528 0.015415 83 95 85
0.173106 -0.114229 0.010091 124 133 126
-0.051176 -0.111899 0.007180 64 79 76
-0.018629 0.048533 0.002345 102 118 107
-0.033803 -0.019123 0.065856 25 25 25
0.243811 -0.020915 0.011259 107 118 116
-0.024184 0.184161 -0.001692 106 120 111
0.115902 0.030599 0.007150 41 43 49
0.241820 0.326109 0.011086 132 139 133
-0.093665 0.236563 0.006939 72 103 117
0.072152 0.332019 -0.000228 120 129 122
-0.014413 0.222333 -0.002929 103 122 112
0.036059 -0.188554 0.007259 115 126 124
0.387230 0.042955 0.019907 136 137 131
-0.270646 -0.025833 0.013266 102 117 112
0.129423 0.086332 0.004923 107 116 109
-0.280569 -0.088213 0.401056 62 90 94
0.277443 0.360628 0.013541 134 138 133
0.229317 -0.180774 0.011013 135 136 130
0.259697 0.257040 0.011130 132 139 133
-0.263674 -0.090919 0.375025 50 68 62
0.078031 0.071294 0.004422 38 52 43
-0.142106 0.389111 -0.000973 132 142 130
-0.201429 0.187400 0.001595 107 125 119
-0.137920 0.100623 -0.001676 99 117 113
-0.300994 -0.130116 0.005992 124 131 123
-0.047365 -0.158285 0.005285 120 133 128
-0.340051 -0.036015 0.414642 96 104 101
-0.321160 -0.113300 0.386730 49 57 54
0.290163 -0.158422 0.013315 137 139 130
-0.052253 0.310958 -0.004924 115 129 120
0.376180 0.043250 0.019115 135 136 130
0.236566 0.217473 0.009195 126 135 128
-0.036294 -0.077554 0.032187 49 52 31
-0.486696 -0.019886 0.449045 127 127 121
-0.236843 -0.165181 0.004343 114 129 124
0.204858 -0.129121 0.011116 61 60 60
0.334491 0.098544 0.013620 133 134 128
0.299052 -0.105909 0.013816 133 134 128
0.384553 -0.024236 0.021227 138 139 135
-0.149272 0.035486 0.002025 27 45 41
-0.310979 -0.138843 0.005082 122 134 126
-0.443768 0.023379 0.462261 133 110 118
0.170401 -0.002310 0.008771 115 122 116
-0.281777 -0.068003 0.411107 122 166 171
-0.336155 -0.057870 0.005657 120 129 122
-0.302680 -0.090296 0.426673 77 88 84
0.066071 -0.180082 0.008163 118 126 123
-0.307475 -0.024746 0.415347 67 75 72
0.124602 0.096992 0.005069 107 119 109
0.329841 0.228806 0.015320 92 95 96
0.198852 0.001612 0.009338 117 125 122
0.258107 -0.024833 0.011322 126 133 127
-0.296462 -0.119202 0.005802 28 36 35
-0.231517 -0.046375 0.439550 127 153 153
-0.002312 0.069821 0.001958 93 109 100
0.208173 0.149076 0.007800 71 77 77
-0.343510 -0.103202 0.425891 86 100 104
-0.198356 -0.111008 0.003402 122 133 131
0.137564 0.168427 0.004411 113 122 115
0.185216 0.356685 0.006733 60 68 67
0.298389 0.017277 0.011812 126 133 125
-0.171447 0.171060 0.006651 162 180 176
-0.429034 -0.000158 0.450031 119 119 123
0.188445 0.131452 0.007096 123 131 128
-0.333118 -0.127316 0.002392 124 136 128
-0.246739 -0.089397 0.435357 118 168 176
0.133235 0.143731 0.004125 106 115 108
0.300737 -0.034906 0.012390 128 135 129
-0.258442 -0.145870 0.004848 120 134 125
-0.091462 0.349281 -0.002409 131 145 136
0.133013 0.201423 0.003050 115 127 119
0.193008 -0.000375 0.009210 115 126 122
-0.114354 0.390175 -0.001795 125 137 127
-0.006843 0.133279 0.000687 102 116 107
-0.165472 0.159821 0.002725 70 85 80
0.014233 0.091311 0.001892 98 114 105
-0.434929 -0.015601 0.435654 144 145 141
-0.200440 -0.170158 0.003240 36 49 44
0.220257 0.108494 0.009453 62 70 67
-0.472340 0.005365 0.468384 140 141 137
0.049209 0.205304 -0.000921 105 117 109
0.219877 0.046759 0.009376 119 128 121
-0.287637 -0.096048 0.390129 56 69 64
0.025540 -0.080372 0.008047 86 102 93
0.006300 0.158350 0.000076 101 116 111
0.394080 -0.167630 0.021768 153 148 144
-0.430269 -0.019454 -0.004753 125 136 132
-0.154871 0.028923 0.002873 84 104 97
0.126662 0.079530 0.005665 107 116 107
0.229572 0.048710 0.009795 120 129 122
0.133412 0.294848 0.003664 124 133 126
-0.329108 -0.009872 0.016669 32 40 41
-0.089634 -0.081960 0.006270 93 106 101
-0.256768 -0.063844 0.007132 104 119 116
0.307616 0.135962 0.012913 88 88 88
0.262756 -0.165363 0.012678 132 133 127
0.049046 0.202933 -0.000865 107 119 111
-0.106095 -0.104416 0.006468 54 67 62
0.204449 0.001591 0.009454 119 127 124
0.016368 0.268017 -0.002445 108 122 111
-0.108938 0.288713 -0.002622 120 136 127
-0.436846 -0.009092 0.446545 122 122 126
-0.491899 -0.008285 0.471329 137 136 136
-0.157989 0.215189 -0.001443 112 127 122
-0.366730 -0.000097 0.435152 105 113 112
-0.206009 -0.074226 0.423216 111 134 130
-0.548705 -0.103290 0.082148 82 79 74
-0.342246 0.012604 0.000727 128 138 124
0.319246 0.041654 0.012762 129 133 126
-0.084862 0.364791 -0.002281 131 140 133
-0.276974 -0.124386 0.005028 110 123 122
-0.217639 0.194192 -0.002360 120 134 125
-0.238733 -0.068986 0.005733 101 116 111
-0.504806 -0.018244 -0.003619 81 90 83
-0.433854 0.027001 0.455977 161 113 119
0.082529 -0.089758 0.008446 68 79 77
0.327511 0.226548 0.015108 103 109 107
-0.218381 -0.147501 0.004414 121 132 128
-0.398468 -0.004954 0.441417 137 137 137
0.126648 -0.164617 0.009555 126 133 125
0.109709 -0.176845 0.009225 115 126 122
0.072089 0.022858 0.005550 85 94 87
-0.326935 -0.048748 0.012135 121 130 123
0.323351 0.012521 0.013726 133 134 128
-0.255194 0.006597 0.020632 104 116 108
-0.119754 -0.026413 0.006326 91 107 98
0.189135 -0.071380 0.010775 117 129 121
-0.319005 -0.099396 0.431200 87 98 96
0.026628 -0.146439 0.007828 110 121 119
-0.123327 0.301145 -0.002931 125 141 132
0.037007 0.144495 0.001223 100 114 103
-0.237750 -0.092726 0.376259 54 72 70
-0.137843 0.371206 -0.001465 140 152 144
-0.238568 -0.165189 0.004374 116 129 124
0.267977 0.351034 0.012392 138 142 137
0.246704 -0.109300 0.012493 88 92 87
0.167194 0.034446 0.008416 110 119 112
-0.214484 -0.102216 0.004647 109 124 121
-0.189175 -0.081727 0.232637 94 110 101
-0.097543 -0.014348 0.005942 91 107 98
-0.302615 -0.160147 0.005176 125 134 127
0.073342 -0.112211 0.008929 111 119 116
-0.122507 -0.172320 0.004955 118 132 123
0.278521 0.188834 0.011021 55 60 67
-0.389208 0.001702 0.444277 117 125 124
-0.053326 0.089169 0.000908 108 124 113
-0.152382 0.307673 -0.002102 126 139 126
-0.197246 -0.159487 0.002807 127 140 139
-0.261579 -0.072331 0.435185 125 171 177
0.235150 0.321527 0.010305 133 140 134
-0.087554 0.024124 0.005350 88 104 93
0.363241 0.040126 0.016709 134 138 133
-0.246569 -0.095058 0.424282 95 145 153
0.201483 0.080846 0.008400 119 127 124
0.347401 -0.121330 0.016356 138 138 138
0.299911 0.147587 0.011934 108 109 105
0.045662 -0.053348 0.007238 86 98 90
0.178554 0.274047 0.006060 121 133 125
-0.263150 -0.194315 0.002784 31 42 42
-0.279594 -0.029382 0.012308 108 120 112
-0.442714 -0.021609 -0.004407 120 128 125
-0.189063 -0.068015 0.353521 46 57 57
0.046853 -0.158876 0.007745 115 126 122
0.151373 0.044947 0.007884 100 114 105
0.117652 -0.115872 0.009130 114 123 116
0.292706 0.005165 0.011596 132 133 129
-0.438084 0.018618 0.462923 106 100 102
-0.329928 -0.112350 0.416408 66 81 78
-0.202164 -0.089270 0.310909 19 30 28
-0.406814 -0.017341 0.419757 110 113 114
0.181746 0.285902 0.006752 96 107 105
0.082292 -0.091738 0.008775 97 109 101
-0.227125 -0.093228 0.385492 60 79 83
-0.202248 -0.080999 0.403935 71 89 85
-0.496683 0.028998 0.470513 165 156 161
0.060290 -0.119522 0.008768 110 122 114
-0.158655 0.033688 0.001324 82 100 96
-0.500060 -0.017812 0.463475 169 170 161
-0.149394 0.069831 -0.000099 93 109 98
0.237500 -0.026728 0.010906 124 133 126
-0.339768 -0.138897 -0.001280 138 147 138
0.285485 -0.048616 0.012425 105 104 104
-0.169267 0.141305 -0.004337 95 113 107
0.351630 0.168309 0.016011 138 139 135
-0.458933 -0.010734 0.454355 127 130 131
-0.359420 0.016475 0.434544 97 98 92
0.290320 0.070028 0.010013 93 97 92
-0.301551 0.151277 0.173762 60 67 71
-0.195100 -0.104559 0.215387 38 46 43
0.087974 0.238134 0.000184 109 124 119
0.315155 0.171692 0.013496 134 138 131
-0.113393 0.053888 0.003039 93 109 98
-0.265671 -0.011286 0.016046 19 33 35
0.112156 0.171220 0.003100 111 120 111
-0.496881 0.007589 0.477767 162 160 152
-0.354264 -0.107947 0.412470 116 152 160
0.185976 0.266695 0.006234 125 130 135
-0.503980 -0.005380 0.388786 53 49 50
-0.032662 -0.060962 0.037949 45 47 29
-0.283583 -0.072720 0.412193 124 165 169
0.189802 0.034299 0.009036 116 125 116
-0.035797 0.093641 0.000815 106 122 113
0.376082 0.070865 0.018271 119 119 123
-0.461267 0.007435 0.465882 148 148 142
0.123888 0.088573 0.004654 105 117 109
-0.253981 -0.040086 0.010207 102 115 110
0.225501 -0.059746 0.010625 126 133 127
0.075088 0.344562 0.000164 120 129 120
0.126336 0.039156 0.006601 106 113 105
0.342301 -0.192498 0.016453 136 135 135
-0.338250 0.056423 0.012354 139 149 137
-0.018592 -0.114134 0.060707 32 40 37
0.310716 0.206371 0.013262 84 87 86
0.352383 -0.086086 0.016409 141 139 131
-0.262606 -0.080901 0.431664 122 168 174
0.299333 0.354354 0.015420 140 141 137
-0.335552 -0.118274 0.002482 128 139 135
-0.132633 -0.047924 0.006542 106 120 111
-0.128208 0.113816 -0.001819 100 119 107
-0.375440 0.023411 0.440757 164 145 143
0.103684 -0.055660 0.008847 97 110 105
-0.246232 -0.145969 0.005249 119 130 126
-0.211456 0.350402 -0.002731 131 140 133
-0.476280 -0.016847 0.450854 166 167 156
0.005212 0.104126 0.002064 102 118 109
0.216723 0.253300 0.008712 136 142 144
-0.040019 -0.115462 0.018928 25 36 34
-0.137899 0.116471 -0.002865 33 40 44
0.382987 0.390374 0.024324 144 145 136
-0.347803 -0.113678 0.403277 97 133 139
0.282500 0.046494 0.010783 120 129 122
-0.216692 0.306262 -0.004830 128 142 131
-0.187977 -0.187602 0.003425 123 134 130
0.199668 -0.034343 0.009879 123 131 128
-0.124019 0.219110 0.007923 73 117 124
-0.340741 -0.101125 0.000354 127 136 129
-0.377679 -0.006210 0.435464 135 142 136
-0.306680 -0.051780 0.424937 67 82 77
-0.404276 -0.006147 0.440982 131 134 137
-0.303714 0.386748 -0.004447 137 141 136
-0.258653 -0.091299 0.375848 45 63 59
-0.004984 -0.182984 0.005750 125 136 134
0.123620 0.348280 0.003004 79 87 86
-0.134160 0.067282 0.001031 100 114 103
-0.328180 0.070497 0.400404 145 159 163
0.243078 0.023784 0.010253 127 130 129
0.034615 0.198088 -0.000797 107 119 111
0.013806 0.019405 0.003369 81 95 84
0.229899 -0.163376 0.011778 133 137 132
0.397030 -0.078377 0.021852 144 145 141
0.211563 0.295165 0.008213 126 135 128
0.293647 0.299279 0.014496 137 141 136
0.398363 -0.063211 0.021922 142 143 137
0.216975 -0.028573 0.010368 120 127 121
-0.182107 0.357357 -0.001148 141 149 146
-0.339803 -0.099642 0.428942 95 103 104
-0.078571 0.164981 -0.001002 104 122 116
0.346206 0.161183 0.016502 132 138 136
0.056459 0.223929 -0.000477 111 124 121
-0.181039 -0.067932 0.321988 106 120 111
-0.494157 -0.019878 0.452874 133 135 126
0.094738 0.045516 0.005889 89 101 93
0.186952 0.009957 0.008560 116 125 118
-0.095551 -0.006258 0.005603 29 43 34
-0.326630 -0.100966 0.431609 87 98 96
0.087588 0.115052 0.003247 104 117 112
-0.380919 0.010254 0.444565 134 137 136
-0.202895 -0.073217 0.001819 47 62 57
0.116318 -0.162840 0.009502 121 128 122
-0.295650 -0.032660 0.410058 67 78 76
-0.448493 -0.017893 -0.003904 116 124 121
0.068379 -0.128718 0.009092 38 49 49
0.372430 0.236205 0.019340 71 77 77
-0.048887 -0.198534 0.005813 123 134 130
-0.186874 -0.096924 0.204083 97 112 107
-0.542696 0.027793 -0.004081 104 105 101
-0.331447 -0.125607 0.002746 124 135 131
-0.227904 -0.049051 0.439527 121 151 154
0.085555 -0.055467 0.008143 31 39 36
0.024943 0.017342 0.003565 87 99 91
-0.297609 0.053009 0.396749 184 151 164
-0.117734 -0.004496 0.005918 76 89 86
0.248698 -0.073506 0.011923 126 134 133
0.099576 -0.041918 0.008259 99 113 104
-0.089910 -0.000381 0.005945 91 107 98
-0.328249 0.024246 0.426598 86 94 91
0.261717 0.256994 0.011235 134 141 135
-0.099619 -0.030078 0.005883 91 107 98
-0.085416 0.118048 -0.000897 102 122 115
-0.158988 0.365163 -0.000765 138 147 140
-0.062452 -0.193290 0.005460 130 138 135
-0.512676 -0.002197 -0.004231 86 95 88
0.126430 -0.134129 0.009248 115 129 118
0.208757 -0.152525 0.011034 130 134 129
-0.301548 -0.094377 0.424586 78 91 86
-0.285303 0.010031 0.396536 174 129 136
0.312490 0.288793 0.015678 124 124 124
0.222393 -0.166876 0.011625 136 140 135
-0.145655 0.104892 -0.001662 102 121 111
0.221844 0.331881 0.009752 129 136 130
0.134986 0.051315 0.007411 104 113 106
0.029356 -0.132023 0.007799 99 118 108
-0.239318 -0.100605 0.005233 109 122 117
-0.324694 -0.143864 0.003816 131 138 130
-0.314146 -0.194526 0.003832 133 140 134
-0.289781 -0.080935 0.007253 110 122 112
0.142984 0.332064 0.004537 126 135 128
0.237001 0.269727 0.009901 91 94 95
0.233364 0.224431 0.009332 118 131 126
-0.044352 -0.114582 0.027844 26 37 33
0.345664 0.065904 0.014977 124 133 126
-0.292527 -0.059289 0.010025 110 121 117
-0.111546 0.049668 0.003180 104 120 109
-0.205757 -0.105631 0.233715 23 26 25
-0.487803 0.007945 0.475687 160 157 152
-0.251081 -0.196115 0.003141 129 135 133
-0.158037 -0.049218 0.004568 97 112 107
0.029584 0.089268 0.001898 100 114 105
0.166678 -0.194449 0.010149 128 135 129
-0.276978 -0.005052 0.015111 105 121 112
0.211251 -0.172052 0.011178 117 124 116
0.290699 -0.050540 0.012440 69 70 66
-0.478937 -0.004093 0.469667 117 116 116
-0.030998 0.323082 -0.003846 125 137 129
0.363567 0.031851 0.016761 145 146 142
-0.254975 -0.082394 0.436708 118 169 174
0.370859 0.169395 0.018376 114 115 111
0.321273 -0.158833 0.014954 139 139 135
-0.488911 -0.014306 -0.003437 84 90 88
-0.172608 0.263132 -0.002110 135 147 139
0.001533 0.217461 -0.002416 109 123 114
-0.475386 0.003342 0.470978 136 137 133
0.227331 0.162029 0.009122 130 139 132
-0.303491 0.044856 0.403360 133 169 175
0.037139 -0.021416 0.005270 79 95 86
0.172864 0.221195 0.005909 121 130 123
-0.308616 -0.104268 0.418596 74 85 81
0.006608 0.128722 0.001132 101 117 108
0.287201 0.005290 0.011232 126 133 127
-0.229556 -0.175639 0.004208 132 144 136
0.312568 0.167309 0.013166 134 134 130
-0.295457 -0.081466 0.420390 29 39 42
-0.462811 -0.049174 -0.003714 83 90 84
-0.163330 -0.066148 0.003669 101 117 108
0.265466 -0.170623 0.012551 94 94 90
-0.293307 -0.093275 0.357068 95 102 106
-0.189921 -0.177112 0.003098 121 132 128
-0.452760 0.011507 0.466284 142 139 134
-0.246306 -0.094972 0.426542 100 150 158
-0.032629 -0.181196 0.005562 124 135 131
0.125709 0.189389 0.003654 102 110 107
0.253487 0.351577 0.011394 133 136 137
-0.014682 -0.063220 0.049386 47 50 29
0.049166 0.301599 -0.000426 117 131 122
0.177252 0.341271 0.006549 126 135 128
0.364841 0.101342 0.017064 134 138 133
0.245926 -0.161673 0.012070 131 132 128
-0.143250 -0.191306 0.004460 123 135 127
0.135136 0.068759 0.006084 101 116 102
0.035594 -0.195432 0.007122 118 126 123
0.068043 -0.047535 0.007398 77 85 82
0.213696 -0.166810 0.011355 131 135 130
0.084755 0.333896 0.000931 121 128 120
0.346018 0.351426 0.020187 130 134 129
-0.243326 -0.175634 0.004187 122 133 129
-0.136244 -0.034182 0.006032 106 120 109
-0.229264 -0.090195 0.427644 104 153 158
-0.057747 -0.154755 0.005344 122 135 130
-0.197561 -0.088520 0.296496 13 24 22
-0.050365 -0.083933 0.029073 45 55 39
0.288740 -0.007033 0.011875 133 137 132
0.096775 0.155051 0.003380 107 121 112
0.146589 0.394131 0.004966 129 133 128
-0.309180 -0.041914 0.014515 111 123 115
-0.092050 0.222529 0.010495 44 98 120
0.051603 -0.047477 0.007082 48 56 53
-0.318610 -0.066445 0.433308 77 86 79
0.150676 -0.168259 0.010031 53 59 59
-0.244330 0.011793 0.022555 13 21 20
0.091539 0.207120 0.000655 112 123 119
0.225434 0.326829 0.009787 135 139 132
-0.232132 -0.102569 0.005657 46 59 54
-0.060758 0.041139 0.004363 104 123 113
-0.037112 -0.115599 0.007364 90 103 98
-0.311559 0.059142 0.400952 137 167 170
-0.282469 0.035540 0.018381 40 56 47
-0.011442 0.117932 0.000437 60 78 72
0.018607 0.394540 -0.001409 111 119 118
-0.365525 -0.014657 0.384870 46 54 51
0.260772 0.203236 0.009908 128 134 132
-0.184546 -0.072106 0.333211 104 120 111
-0.226074 -0.124460 0.005531 89 102 101
0.096955 0.069036 0.004975 97 111 102
0.208966 0.187788 0.007740 114 122 119
0.040865 0.265338 -0.001647 108 122 113
-0.444210 0.002459 0.463448 55 55 59
0.031309 -0.102716 0.007824 86 100 89
-0.088167 0.217488 0.011134 52 105 123
0.138058 0.096799 0.005647 107 119 109
-0.211157 -0.089247 0.391206 66 81 80
0.198414 0.085502 0.007591 118 126 123
-0.330522 0.024893 0.427705 92 98 96
-0.036422 -0.051897 0.043797 44 48 27
-0.375479 -0.010063 0.428648 113 121 120
-0.220146 0.212700 -0.002262 119 135 126
-0.409545 0.004483 0.447954 124 127 128
-0.321331 -0.140547 0.004743 129 136 128
0.036469 0.050350 0.003661 88 102 93
0.307184 0.380007 0.016008 138 139 133
0.340751 0.263245 0.017807 74 77 80
-0.211961 -0.094670 0.255473 10 18 15
-0.195847 -0.143626 0.003367 114 127 122
0.234523 0.369527 0.011268 135 138 137
0.050728 -0.059098 0.007232 94 108 97
-0.458912 0.006311 0.465545 143 144 140
-0.405015 0.059689 -0.004378 130 143 140
0.063902 0.137272 0.002614 99 115 104
0.093018 0.026712 0.006362 83 99 90
-0.098437 0.194796 0.010163 66 129 139
0.041456 0.067347 0.003314 83 97 86
-0.473002 -0.000425 0.466746 112 115 116
-0.064921 -0.160127 0.005525 118 131 126
-0.188240 0.110751 -0.001006 107 121 112
-0.327683 -0.097590 0.006774 110 119 112
-0.185427 0.298049 -0.003191 131 144 139
-0.312852 -0.089921 0.432911 88 96 95
-0.173292 0.322446 -0.002079 131 143 135
-0.354199 0.026421 0.431230 112 106 110
0.038957 0.004730 0.004809 86 98 88
0.283627 0.360330 0.014051 130 133 132
0.328514 -0.148166 0.015124 139 139 133
-0.305513 -0.168850 0.004930 125 134 127
-0.471194 -0.023466 0.425708 69 73 66
-0.123035 0.359275 -0.002571 130 142 134
0.385827 -0.184741 0.020285 142 143 137
-0.193106 -0.085039 0.308253 19 27 26
-0.194767 -0.056902 0.400432 116 128 120
-0.404208 -0.010672 0.435235 122 128 128
0.034875 -0.155261 0.007479 114 125 121
-0.121056 0.338385 -0.002089 130 142 134
-0.326769 -0.104771 0.429113 86 97 93
-0.025417 -0.174300 0.005928 118 131 126
-0.284978 -0.167111 0.004991 123 135 127
0.349555 0.294253 0.019157 135 140 130
0.244452 0.032235 0.009740 59 67 68
0.168092 0.313449 0.006272 127 134 128
-0.125680 -0.109898 0.006206 113 126 121
0.261642 0.305116 0.012689 129 132 131
0.216177 0.166842 0.008454 126 134 131
0.372874 0.033425 0.017965 90 90 90
-0.116803 -0.108148 0.006550 109 122 117
-0.275088 -0.192798 0.003693 130 139 132
-0.141726 -0.024230 0.005524 105 120 115
0.097297 0.388170 0.001486 126 135 128
-0.099704 0.364655 -0.002385 134 142 139
-0.319465 -0.028938 0.419435 41 47 49
-0.227896 -0.122636 0.005488 37 49 51
0.287281 0.237363 0.012341 132 139 131
-0.486298 -0.018662 0.453257 147 145 137
0.310420 0.153774 0.013085 92 101 94
-0.223503 -0.070037 0.438685 85 110 117
-0.166884 0.099644 -0.004446 104 118 107
-0.166909 0.101914 -0.004651 104 118 107
0.089635 0.008513 0.006020 86 102 93
-0.121984 -0.085890 0.006559 38 52 54
0.053374 0.179323 -0.000005 43 55 47
-0.150783 -0.047548 0.005342 97 115 109
0.350088 0.246252 0.018172 137 138 132
-0.182686 0.121498 -0.004762 107 122 117
0.113432 -0.175042 0.009012 115 128 123
0.390553 0.119624 0.019966 138 139 135
-0.547717 -0.135751 0.060020 67 78 76
0.115927 -0.043841 0.008363 66 77 73
-0.071898 -0.160114 0.005463 23 39 30
0.337562 0.364358 0.019979 141 141 137
-0.187932 -0.084650 0.224628 94 110 101
-0.147135 -0.053550 0.006009 99 115 106
0.324501 0.094706 0.012520 133 134 130
-0.265360 -0.076401 0.430698 121 169 177
-0.284853 -0.068257 0.413880 124 165 169
0.010213 -0.012588 0.002717 76 94 88
-0.040375 -0.158299 0.005354 52 65 62
0.377303 0.086071 0.017655 137 138 132
-0.085746 0.104322 0.000338 97 117 110
0.060125 -0.121381 0.008873 110 122 114
-0.134027 0.212206 0.007586 67 108 116
-0.274983 -0.091407 0.389176 56 71 68
0.083866 0.188066 0.001292 95 103 102
0.182486 -0.138041 0.010522 131 140 131
0.047023 0.299447 -0.000957 118 130 122
-0.190714 -0.038327 0.011296 102 114 104
-0.058020 0.188576 -0.001919 100 115 101
0.294046 0.316646 0.014683 137 138 132
0.278309 -0.134985 0.012899 129 133 126
0.107633 -0.125249 0.009859 121 129 126
-0.294594 0.015928 0.411759 129 159 162
0.233149 -0.006582 0.010135 122 129 121
-0.222799 0.232514 -0.003857 120 134 123
-0.370445 0.024423 0.437548 162 141 140
0.219745 -0.123773 0.011599 124 130 128
-0.007504 -0.196896 0.006069 76 87 83
-0.289092 -0.004589 0.389071 182 135 136
-0.024367 -0.068996 0.039620 45 47 29
-0.111087 0.279010 -0.002872 122 138 129
0.313417 -0.045019 0.013467 132 133 129
0.278246 -0.014908 0.011495 63 69 67
-0.123188 0.328687 -0.002786 127 143 134
0.277214 0.013408 0.011082 56 64 61
-0.221079 -0.172083 0.003939 124 136 128
0.137881 0.094712 0.005500 107 116 107
-0.249997 -0.094401 0.405633 77 121 124
-0.131181 -0.182541 0.003956 120 133 130
-0.298702 -0.167187 0.005277 124 135 133
-0.156030 -0.077945 0.005000 108 121 116
-0.412059 -0.017704 0.402605 53 61 60
-0.325175 0.080394 0.394033 185 135 141
0.250289 0.295793 0.011585 127 133 131
0.125504 -0.141520 0.009858 124 136 128
0.287480 0.128197 0.010564 129 133 128
-0.057420 -0.196790 0.005713 123 136 131
-0.089549 0.017940 0.005512 90 105 100
-0.238190 -0.095538 0.405439 87 128 132
0.255689 -0.065557 0.011056 127 134 128
-0.549245 0.001011 -0.002757 81 84 83
0.347331 -0.044210 0.016852 130 134 129
0.263905 0.085240 0.009059 124 130 128
-0.365614 -0.013350 0.414482 83 89 89
-0.280825 -0.182405 0.003475 131 139 136
0.208931 0.347214 0.009505 103 109 107
-0.256531 -0.058628 0.436986 123 169 175
-0.452752 -0.018041 0.442972 57 60 59
-0.082761 0.066957 0.002424 92 111 101
0.043809 0.186148 -0.000032 102 116 105
-0.243972 0.003668 0.023001 13 21 22
0.318683 0.249757 0.015924 138 139 135
-0.337412 -0.009101 0.009853 108 129 118
0.188452 0.114025 0.006733 118 130 122
0.239493 0.091453 0.009176 121 130 121
-0.090717 0.051700 0.003564 94 110 99
0.183078 0.240227 0.006054 94 100 100
-0.001503 0.122249 0.000737 101 117 108
-0.041907 -0.116001 0.055307 26 34 31
-0.189189 -0.030612 0.006349 101 115 104
-0.287283 -0.093474 0.400751 61 74 71
0.350409 0.127925 0.016157 138 139 135
-0.194410 0.337733 -0.002578 134 143 134
-0.281224 -0.095122 0.385748 51 64 59
0.027168 -0.139152 0.007454 104 117 112
0.354847 0.188453 0.016805 104 104 106
-0.049023 0.249788 0.009378 93 97 92
-0.184290 -0.103885 0.004274 114 127 122
0.304524 -0.044752 0.012659 129 133 126
0.233944 -0.075328 0.011576 126 135 128
0.379923 0.102667 0.018922 135 136 130
0.201544 -0.154233 0.010729 133 137 132
-0.125378 0.308327 -0.002534 121 138 124
0.039667 0.183853 -0.000114 106 120 109
0.187859 -0.080928 0.010977 120 129 122
-0.307121 -0.105350 0.408074 64 75 71
-0.306963 -0.106387 0.402358 56 71 66
0.190837 -0.018255 0.008960 118 125 117
0.281562 0.360422 0.013890 66 69 68
-0.126050 0.216284 0.008670 78 119 123
-0.081333 -0.032003 0.005994 94 108 99
0.294003 -0.052517 0.012589 124 131 125
0.359292 -0.095671 0.017122 138 138 134
0.344994 0.093826 0.014564 130 134 127
-0.495829 -0.020609 0.453888 128 129 125
-0.365755 0.000338 0.434556 107 115 114
0.083293 0.259220 0.001012 117 129 121
0.014375 0.195661 -0.000960 109 122 119
0.194892 0.013919 0.008884 116 125 118
0.058635 -0.185368 0.008448 124 132 131
0.129623 0.070929 0.005899 39 50 48
0.211789 -0.156092 0.011042 130 134 129
0.071505 0.134828 0.003142 102 116 107
-0.308906 -0.099885 0.425040 79 90 88
0.073255 0.291068 0.000857 121 129 126
0.181398 -0.173673 0.010608 124 131 123
-0.338243 -0.027592 0.007069 115 127 117
-0.126213 0.185585 0.009769 134 164 169
0.037453 -0.167723 0.007776 38 50 52
-0.296710 0.025325 0.411246 133 167 173
0.263940 0.337849 0.012819 134 138 133
0.319121 -0.198999 0.014737 139 139 135
0.233935 0.093549 0.009213 124 133 126
0.290045 0.172695 0.011352 131 138 132
-0.065008 -0.102257 0.028888 29 37 34
-0.100985 0.003492 0.006142 92 108 99
0.117494 0.006414 0.006534 92 105 102
0.200215 -0.150699 0.010867 132 133 129
0.378370 -0.138514 0.019392 140 137 134
-0.312164 -0.103297 0.424104 77 88 84
0.191007 0.335202 0.008114 131 138 132
0.021483 -0.091142 0.006504 49 65 56
-0.291503 -0.080770 0.416811 97 114 115
-0.049295 0.043550 0.003759 107 123 114
0.145842 -0.164713 0.009958 130 139 132
0.335369 0.128630 0.014614 136 138 129
-0.045912 -0.165436 0.005594 44 57 54
0.346056 0.068031 0.014952 121 129 126
0.014438 0.270467 -0.002491 109 125 116
0.288047 0.023397 0.011703 126 135 126
-0.339906 0.021738 0.427756 90 97 91
0.039247 0.091080 0.002717 92 111 101
-0.295217 0.003146 0.018939 115 128 123
-0.100761 -0.106108 0.006010 106 119 114
-0.463643 -0.020154 0.437679 109 109 105
-0.189216 -0.071966 0.347204 98 109 107
-0.096923 0.259862 -0.003158 112 131 121
0.107236 0.077409 0.005370 100 112 104
-0.243346 -0.026414 0.015045 39 44 49
0.003618 -0.149913 0.007386 113 126 121
-0.092822 -0.160094 0.005347 117 130 125
-0.031789 0.298629 -0.004810 124 138 127
0.289955 0.023416 0.011683 124 133 124
-0.035087 0.065214 0.002307 105 121 110
-0.487975 -0.005527 0.471413 126 126 126
0.362387 0.075947 0.016347 138 139 133
0.208953 0.021876 0.009511 117 124 118
-0.394712 -0.014146 0.425884 149 156 150
0.337728 -0.144776 0.015880 140 140 134
0.218282 -0.184278 0.011086 48 51 50
-0.171061 -0.165192 0.004471 123 136 131
-0.135767 0.310663 -0.002488 68 86 80
-0.207002 -0.052508 0.002569 70 85 82
0.337137 0.175431 0.015270 129 136 128
0.236454 0.333645 0.011091 135 139 132
-0.104393 0.024086 0.005226 91 107 98
0.182174 -0.082828 0.010972 49 52 51
-0.217204 0.249414 -0.004054 128 140 132
-0.163683 -0.029237 0.003026 101 114 109
-0.301967 -0.054965 0.423489 64 77 72
-0.203390 -0.120432 0.004308 125 136 134
0.193280 -0.189383 0.010650 132 133 129
0.031916 0.037975 0.003400 86 100 91
-0.199969 -0.082367 0.356253 100 111 111
0.372918 0.006505 0.018970 81 81 83
-0.244263 -0.095081 0.424360 94 144 152
-0.007687 0.328304 -0.003618 68 80 72
0.270539 0.188871 0.010827 70 76 74
-0.117028 -0.135358 0.006210 110 128 124
0.231531 0.208451 0.008519 131 137 135
-0.320875 -0.092326 0.007699 116 124 121
-0.146915 -0.122682 0.006050 96 107 105
0.181784 -0.030310 0.009405 78 86 83
-0.295361 0.066465 0.017964 46 59 54
-0.342138 -0.018583 0.414081 67 73 73
-0.293747 0.001157 0.409426 75 83 80
0.019073 0.076069 0.002502 30 36 34
0.316225 -0.119030 0.014622 128 128 128
-0.121777 -0.051955 0.007145 91 110 100
-0.013028 -0.109953 0.058740 31 42 38
-0.328861 0.041275 0.018572 110 119 112
0.003128 0.100050 0.001521 102 118 109
0.382360 0.055714 0.019255 141 141 137
-0.187632 -0.057722 0.364016 96 107 103
-0.549448 -0.096736 0.083217 84 82 74
0.022941 0.394741 -0.001581 118 124 124
-0.275121 -0.067702 0.408290 123 169 175
-0.331059 0.052677 0.409055 132 168 174
0.141649 -0.187346 0.009404 127 133 131
0.230062 0.367135 0.010908 135 138 137
0.021145 -0.179702 0.006588 115 126 122
0.315921 0.164719 0.013781 136 137 131
-0.116362 -0.055707 0.006958 100 114 105
0.202676 -0.196364 0.010918 134 137 136
-0.116484 -0.070843 0.006659 102 116 107
-0.198164 -0.118474 0.003879 121 129 128
-0.546942 0.030820 0.007408 96 100 95
0.354704 -0.180593 0.017505 138 143 133
0.037109 0.004775 0.004677 86 98 88
-0.096493 0.192456 0.010265 59 121 136
0.300520 0.151957 0.012157 133 140 132
-0.200135 0.216518 -0.000517 122 138 129
0.249030 0.205590 0.009674 123 131 128
-0.060193 0.221372 0.012883 71 35 58
-0.299642 -0.064127 0.425186 72 83 79
0.025093 0.142362 0.000851 99 113 102
-0.268420 -0.190944 0.003082 125 137 129
-0.209181 -0.075299 0.427376 117 163 167
0.358133 0.013374 0.016903 137 138 132
-0.122872 0.397487 -0.001164 133 145 137
0.238739 -0.198219 0.011427 136 137 133
0.198444 0.251673 0.007188 127 136 129
0.312227 -0.041144 0.013502 125 125 125
0.297418 -0.167295 0.013375 135 142 136
-0.079339 0.319517 -0.003292 122 136 127
-0.185301 -0.145585 0.004029 118 131 126
-0.225275 -0.149331 0.004577 118 130 122
-0.341241 -0.089913 0.432447 96 104 103
0.252257 0.376845 0.012278 118 124 124
-0.025960 0.234981 -0.004355 66 79 76
-0.109025 -0.047985 0.006933 83 101 97
0.242172 0.126116 0.009629 128 137 130
-0.389309 -0.014681 0.393763 61 73 65
-0.244649 -0.093774 0.431541 110 159 164
0.330048 0.180147 0.014908 131 135 128
0.100019 0.041273 0.006158 89 101 93
-0.111711 0.034967 0.003672 53 62 55
-0.194340 -0.132813 0.003272 115 128 125
0.188919 -0.184049 0.010134 127 134 126
-0.069975 0.226826 0.011508 53 47 78
-0.097201 0.005833 0.005388 91 107 98
-0.188171 0.012999 0.006405 95 111 102
0.296032 0.301676 0.014667 134 138 133
0.036380 0.226490 -0.001128 107 121 110
-0.247115 -0.124534 0.005680 99 114 111
-0.360981 0.006044 0.432744 99 107 106
0.034288 0.073927 0.002750 81 94 89
-0.328559 -0.019269 0.015736 59 67 64
-0.152723 -0.023742 0.004154 98 114 105
0.226724 -0.038363 0.010436 124 130 128
-0.148279 0.322937 -0.002297 130 142 134
0.278247 -0.188157 0.012745 136 137 131
-0.290727 -0.091321 0.409258 128 140 142
0.232994 0.338950 0.010744 133 137 130
-0.023999 -0.181276 0.005898 120 133 128
0.137316 0.360764 0.003847 129 130 126
0.360570 0.389993 0.021051 143 143 137
0.168108 -0.183948 0.009719 130 134 129
0.044091 0.162548 0.001263 102 116 107
0.009864 0.151456 0.000372 58 72 63
-0.034945 -0.117177 0.053470 26 37 35
-0.027887 -0.054393 0.045541 47 47 27
0.242037 0.395787 0.011435 137 138 132
-0.159972 -0.035150 0.003201 101 114 109
-0.000888 -0.107642 0.005614 79 93 82
0.325221 -0.109734 0.014376 136 136 130
0.101988 -0.053805 0.009026 93 106 101
0.383976 -0.083509 0.020208 145 145 141
0.255692 -0.109296 0.012534 129 133 126
-0.390155 -0.015214 0.403634 78 84 82
0.285825 -0.058202 0.012232 124 133 124
-0.157035 0.072138 -0.000605 91 107 96
-0.040221 0.080306 0.001716 106 122 113
-0.409659 0.016225 0.449620 151 151 147
-0.053897 -0.142458 0.006118 119 134 131
-0.030971 -0.061194 0.038600 43 46 28
-0.462105 0.007003 0.466432 146 147 141
-0.138044 -0.000200 0.004949 96 110 101
-0.344780 -0.117337 0.394787 85 121 127
-0.064667 -0.102619 0.024321 31 39 38
-0.148482 -0.172382 0.005193 123 136 131
-0.087229 0.037053 0.003925 91 110 100
-0.110470 0.140273 -0.001524 101 122 111
0.136354 0.175513 0.003972 113 122 115
-0.195292 -0.074507 0.379186 32 39 43
0.151162 0.352325 0.005012 114 120 122
-0.062539 0.207581 0.012533 6 59 106
-0.470190 -0.020134 0.441631 115 112 109
0.190385 -0.159463 0.010285 127 135 132
0.326391 0.094652 0.012654 133 134 130
-0.470025 0.009980 0.467935 154 149 145
-0.421850 0.007737 0.451086 139 139 139
0.077151 0.202672 0.000040 110 122 114
0.100996 0.225529 0.001519 114 123 116
0.251735 -0.145770 0.012668 131 134 135
0.353761 -0.125038 0.016572 141 141 135
-0.329618 -0.007564 0.421595 83 90 84
-0.400789 0.022585 0.447176 158 144 140
-0.284303 -0.045989 0.010264 34 45 43
-0.311871 0.029995 0.419117 130 160 165
0.312400 -0.198876 0.014205 144 145 139
0.276865 0.235125 0.011932 88 89 85
0.309593 0.039785 0.012184 59 68 61
-0.211466 0.188742 -0.000840 112 128 117
-0.350263 -0.006293 0.421485 80 87 81
0.190558 -0.170207 0.010817 78 81 82
0.210031 0.355385 0.008932 131 135 128
-0.158887 -0.168850 0.005064 121 134 129
0.129315 -0.020345 0.008572 110 118 105
-0.325203 -0.000009 0.423379 84 90 88
-0.380727 -0.002895 0.438839 125 125 125
0.034198 -0.011253 0.004628 73 89 80
0.325555 -0.015912 0.014536 127 134 126
0.000741 -0.109605 0.006004 83 97 88
-0.458056 -0.014014 -0.003836 115 121 119
0.392671 0.110799 0.020174 136 140 133
0.050688 0.010990 0.004481 54 62 61
0.177197 0.023976 0.008991 121 130 123
0.008738 0.280249 -0.002549 117 131 122
-0.459401 -0.020140 0.433591 95 96 90
0.155255 0.396347 0.005688 58 64 64
0.264194 -0.069414 0.011232 129 133 128
0.147332 -0.183824 0.009206 127 136 129
0.380364 -0.027944 0.020614 139 140 136
-0.139869 -0.087490 0.005603 109 123 125
0.346361 0.301273 0.019691 131 131 131
0.285657 -0.003013 0.011812 125 132 126
-0.378460 -0.014194 0.406736 87 98 96
-0.205972 0.291182 -0.004382 127 141 132
0.085653 -0.173302 0.009052 117 128 124
-0.091561 0.102369 -0.000170 100 119 107
-0.160995 0.088527 -0.003678 103 117 108
0.037108 -0.047195 0.006175 60 67 61
-0.464394 -0.013198 0.453794 128 131 130
0.146081 0.064336 0.006647 105 112 106
-0.226828 0.371780 -0.003920 137 146 139
0.188884 -0.032330 0.009628 119 127 124
0.340889 -0.099151 0.016220 134 138 131
-0.047036 -0.051993 0.043947 44 46 28
0.023434 0.115462 0.001495 110 123 120
-0.082137 -0.068622 0.006009 91 103 95
0.066929 -0.146705 0.008935 111 122 118
-0.211276 -0.152746 0.004094 121 132 128
-0.174074 -0.197974 0.003604 119 130 126
-0.447112 -0.045201 -0.003890 96 107 103
-0.392718 -0.009021 0.435120 114 122 121
-0.053892 0.328267 -0.004427 127 136 129
0.175329 -0.008269 0.008708 93 96 95
-0.130037 0.172150 0.001509 73 95 98
-0.181349 0.169575 0.001205 89 102 99
0.045181 0.093230 0.002810 93 107 98
0.197900 0.082995 0.008327 119 127 124
0.254452 -0.000703 0.010719 126 129 128
0.176602 0.315724 0.006766 125 132 126
-0.156095 0.234599 -0.002242 78 93 88
-0.122536 0.089794 -0.001347 101 117 108
-0.149616 0.132567 -0.004317 99 114 109
-0.012789 0.089488 0.000845 30 43 40
-0.037787 -0.136891 0.005566 111 126 121
-0.469697 0.014219 0.467969 155 147 146
-0.081105 0.058071 0.003467 95 113 107
0.262298 0.061739 0.009272 121 128 120
0.096241 0.000149 0.006816 96 110 101
0.112859 -0.037940 0.008171 103 115 107
0.361236 -0.121627 0.017428 141 141 135
0.014413 -0.002819 0.003322 79 91 81
-0.008884 0.013727 0.002091 92 111 99
-0.214872 -0.149151 0.003937 122 133 129
0.217229 -0.052220 0.011049 114 125 121
0.090581 0.150799 0.002834 51 62 62
-0.360272 -0.078477 0.425833 135 169 179
-0.104980 0.271876 -0.003075 31 46 43
-0.193252 -0.081462 0.337301 32 42 45
0.365566 -0.097911 0.018332 137 138 132
-0.098626 -0.083735 0.005890 102 110 111
-0.300886 -0.131898 0.005934 125 132 126
-0.409817 0.008116 0.448865 139 139 135
-0.392123 -0.015757 0.417634 115 121 119
-0.498893 -0.008317 -0.003684 86 93 85
-0.138096 -0.165355 0.005156 103 123 118
0.159727 -0.194450 0.010168 125 134 125
-0.018660 0.131199 0.000250 103 117 108
-0.344683 -0.018598 0.402918 24 27 30
-0.060282 -0.109197 0.093306 37 43 41
-0.273601 -0.087756 0.005425 105 121 112
0.171552 -0.125411 0.010723 125 132 126
0.185983 -0.138087 0.010700 108 111 110
0.380312 -0.177776 0.020283 141 142 133
-0.190629 -0.034603 0.016740 99 113 102
0.271184 0.193463 0.010885 131 138 132
0.070007 0.066987 0.004464 90 103 90
0.217381 -0.101754 0.011875 125 131 129
0.173869 -0.106990 0.010556 124 133 126
0.287786 -0.151330 0.013462 127 134 126
-0.196232 -0.050012 0.001093 102 116 105
0.237681 -0.158101 0.011976 131 135 130
0.379563 0.231303 0.019706 134 138 133
0.045073 0.334974 -0.001291 118 129 125
-0.334071 -0.088544 0.434767 93 101 98
-0.294082 0.047219 0.019430 76 89 86
0.128918 -0.126927 0.009469 131 131 131
0.036282 -0.108288 0.007934 96 109 104
-0.134651 -0.184485 0.004845 40 55 52
-0.041553 -0.077445 0.031827 52 56 35
0.350966 0.054948 0.015997 133 138 128
-0.145242 -0.085695 0.005795 67 80 75
-0.079423 -0.106185 0.006389 101 114 111
-0.354116 0.025141 0.430946 103 102 104
0.329729 0.177933 0.014776 134 138 131
0.249812 0.291153 0.011125 122 128 128
-0.182900 -0.083004 0.003044 41 52 52
0.138397 0.047195 0.007345 104 113 106
-0.211919 -0.087882 0.344299 36 49 46
-0.100098 -0.181015 0.004834 124 135 133
0.075963 0.240661 -0.000234 112 123 119
0.231663 -0.079040 0.011330 125 133 130
-0.004469 -0.109296 0.004966 80 94 85
-0.329276 0.043388 0.419251 134 169 172
0.066658 0.121700 0.002812 97 111 102
-0.456821 0.024812 0.462027 151 135 130
0.054208 -0.061051 0.007365 38 52 41
-0.427217 -0.008108 0.441324 118 124 126
-0.020665 0.010221 0.005450 99 114 100
-0.045009 -0.054345 0.040219 42 45 24
-0.322546 0.057512 0.018992 122 138 127
-0.399028 -0.008243 0.437980 119 125 125
-0.485985 -0.018012 0.454307 161 157 150
-0.046748 -0.073855 0.032138 51 54 38
-0.360085 0.012081 0.434515 100 104 99
0.027307 0.025466 0.003700 80 96 85
0.018397 -0.165911 0.007552 75 78 77
0.326454 0.288048 0.017008 137 138 132
0.042415 0.167137 0.001148 104 117 112
-0.322933 0.081544 0.392616 185 133 140
-0.304955 -0.083140 0.430283 79 90 86
-0.191246 0.170191 -0.000028 104 118 109
-0.303675 -0.095767 0.424711 76 89 84
0.164048 -0.159397 0.009982 128 136 133
-0.135712 0.389253 -0.001031 78 86 87
0.362216 -0.175628 0.018645 136 141 131
0.374969 0.161931 0.019611 130 134 129
0.209204 0.095940 0.008389 125 134 127
-0.006057 0.229116 -0.002261 100 115 112
-0.297769 -0.074209 0.424041 65 78 73
0.094107 0.374873 0.001609 126 133 127
0.217593 0.162309 0.008471 126 134 131
0.315227 0.039715 0.012411 125 134 127
-0.430761 0.022619 0.456048 156 142 138
0.340382 -0.166313 0.016520 135 139 134
-0.201733 -0.106367 0.227837 22 28 26
-0.308906 0.022128 0.020957 104 124 119
-0.075218 0.139924 -0.000332 60 73 68
0.245331 0.224120 0.010034 63 69 69
-0.100145 0.217486 0.010931 14 93 120
0.232123 -0.112723 0.011531 131 132 128
-0.041122 -0.131515 0.005716 56 62 64
-0.048376 0.120161 -0.000183 104 120 109
-0.320626 -0.112635 0.417107 67 78 74
0.275710 -0.149527 0.013377 136 137 131
0.125797 -0.002039 0.007595 103 116 111
-0.403976 -0.014622 0.426421 142 151 144
-0.143958 0.178948 0.009136 112 146 145
0.300273 -0.140575 0.013579 128 135 129
-0.335437 0.220489 0.049063 154 150 151
-0.294526 -0.092372 0.413650 25 37 43
0.395448 0.312654 0.022123 137 141 136
-0.341155 -0.113879 0.411601 105 141 147
0.288567 0.248604 0.013483 138 139 133
0.368146 -0.017576 0.019180 137 138 132
-0.262899 -0.089436 0.004944 106 118 120
0.254941 0.221448 0.010695 123 135 127
0.188961 0.118399 0.006761 121 130 123
0.239019 0.021745 0.010187 124 131 125
-0.043597 0.394356 -0.002381 79 87 86
0.376895 0.047327 0.019284 135 136 130
-0.060326 0.055754 0.004231 106 125 115
-0.295861 -0.096151 0.410788 29 41 43
-0.075559 0.051791 0.003570 80 91 89
0.243996 -0.116509 0.011946 130 131 127
-0.413619 0.012820 0.450221 138 139 135
-0.171509 0.178761 0.009000 77 88 86
0.285392 -0.122524 0.013893 128 137 128
0.352500 0.042448 0.016018 134 138 131
-0.138079 -0.057428 0.006220 21 34 29
-0.235884 -0.075106 0.438081 117 167 175
0.368523 0.300410 0.021322 134 138 133
-0.223578 -0.147618 0.004831 119 131 123
-0.325007 0.073738 0.398379 170 146 150
-0.184498 -0.067752 0.203838 97 113 104
-0.067102 -0.099149 0.078999 40 48 47
-0.299078 -0.027259 0.016611 113 127 118
-0.332554 -0.116034 0.403002 52 71 71
-0.189192 -0.125753 0.003922 123 136 131
0.133639 0.020188 0.007760 105 113 110
0.363221 -0.154331 0.018216 140 141 135
-0.159755 0.186425 0.011638 77 106 116
-0.233913 -0.044184 0.011067 22 30 31
-0.023226 -0.051335 0.052353 51 51 29
0.000319 0.119976 0.000906 104 120 111
0.238329 0.169105 0.008832 126 132 130
-0.186661 0.030178 0.196431 108 124 115
-0.006474 0.263240 -0.002998 115 128 123
-0.126037 0.162980 -0.002232 92 107 104
0.364439 -0.156210 0.018594 142 143 137
-0.500445 -0.024028 -0.003845 82 91 84
-0.305689 0.003113 0.419240 88 100 92
-0.004006 -0.055035 0.090796 91 101 87
0.267439 -0.158270 0.012685 135 136 130
-0.309656 -0.047103 0.424001 75 88 83
0.115584 -0.046001 0.008952 89 95 95
-0.422002 0.011151 0.452286 139 140 136
0.247155 -0.036561 0.011049 99 107 106
0.305110 0.236668 0.013736 129 136 128
-0.280859 -0.093918 0.388703 52 65 60
-0.395134 -0.004606 0.440988 128 135 129
0.014886 0.104073 0.002310 98 114 105
0.127794 -0.187289 0.009175 124 133 126
-0.215837 -0.102752 0.234111 60 73 68
-0.203984 -0.061849 0.425220 116 129 124
-0.328494 -0.113591 0.005129 57 65 62
-0.239872 -0.092895 0.379277 51 75 73
0.055659 0.054247 0.004529 77 95 89
-0.332390 -0.080283 0.436344 93 99 97
-0.143923 0.215198 -0.001218 100 130 133
0.291765 0.117316 0.010380 133 134 130
0.191366 0.242355 0.006612 128 135 129
-0.317374 -0.113854 0.393387 50 61 57
-0.189130 -0.040512 0.001642 106 120 109
-0.243871 0.374535 -0.004439 136 143 137
-0.326940 -0.110063 0.005546 131 140 133
-0.068407 -0.160113 0.005464 116 129 124
-0.101625 0.077955 0.001305 99 118 106
-0.270891 -0.020156 0.013695 101 116 111
-0.235662 -0.095183 0.407339 87 128 132
0.127310 -0.108555 0.009352 122 133 129
0.252179 0.085076 0.009223 125 132 126
0.375610 -0.193231 0.019597 70 66 67
0.101083 -0.119724 0.009662 119 127 124
-0.138101 -0.119155 0.006483 76 91 86
-0.129243 -0.115323 0.005935 109 123 114
-0.274225 -0.177264 0.003730 125 137 129
-0.031053 0.210573 -0.003239 100 115 110
-0.032603 0.276270 -0.004683 66 81 80
-0.037959 0.368613 -0.002990 54 65 63
0.044626 -0.164295 0.008172 114 125 121
0.116630 -0.141555 0.009949 121 129 126
-0.242345 0.392662 -0.004079 137 146 139
-0.167171 0.336989 -0.001051 90 103 98
-0.030158 0.288185 -0.004038 121 137 126
0.228295 0.229868 0.008135 68 76 75
-0.016465 -0.110954 0.098886 41 47 47
0.386104 0.094114 0.018859 138 139 135
0.240010 0.124048 0.009338 122 128 126
-0.249838 -0.102554 0.005494 112 124 116
0.304146 0.201973 0.012719 136 137 133
-0.172747 -0.168698 0.004444 115 129 120
0.080048 0.141931 0.002497 98 114 105
0.127653 -0.104906 0.009516 121 132 130
0.260893 -0.067457 0.011066 129 132 131
0.305964 0.123262 0.011826 128 129 123
-0.032933 0.165476 -0.001140 106 122 113
-0.042236 -0.115024 0.005428 86 99 94
-0.114565 0.118416 -0.002041 105 125 118
0.386452 -0.033907 0.020908 143 143 139
-0.139847 0.154698 -0.003784 16 31 30
-0.372527 0.013500 0.442298 147 151 146
0.162114 0.316034 0.006062 125 132 126
0.254183 -0.050322 0.011496 65 68 69
0.290248 -0.042679 0.012178 130 134 129
0.175307 0.023968 0.008985 111 120 113
-0.015500 -0.146317 0.007248 110 123 118
-0.025818 -0.142603 0.006738 110 123 118
0.008551 0.128674 0.001251 100 116 107
-0.238428 -0.078172 0.005018 102 117 112
0.295489 -0.032966 0.012392 129 136 130
0.375047 0.240640 0.019893 143 143 145
0.132501 -0.043774 0.008343 114 123 116
-0.337253 -0.116984 0.402225 94 128 136
0.380541 0.036935 0.019424 138 138 132
0.097993 -0.076805 0.009246 104 113 106
-0.164200 0.024978 0.002432 97 109 101
0.371274 0.064739 0.017772 145 146 140
-0.008439 -0.146252 0.007032 30 41 39
-0.298098 -0.010411 0.018345 28 42 44
0.287876 0.078626 0.009797 127 135 124
-0.475184 -0.000003 0.469859 119 118 118
-0.297450 -0.190934 0.003085 130 141 139
0.149398 0.028116 0.008548 78 84 86
-0.016369 0.270942 -0.003754 108 124 113
-0.186958 0.265868 -0.002833 126 138 128
-0.469599 -0.011828 0.455685 128 128 128
-0.291840 0.006228 0.408558 43 56 65
0.392600 0.309722 0.022674 139 140 134
0.038989 0.086835 0.002611 92 108 99
0.244686 0.046826 0.009557 55 61 59
-0.001137 0.246168 -0.002683 117 129 121
-0.063591 0.239119 0.010869 124 85 83
-0.270235 0.048121 0.017812 79 95 84
0.072429 -0.101191 0.009139 104 112 109
0.308487 0.088859 0.011061 91 95 88
-0.456866 -0.011453 0.453443 123 126 127
-0.171383 0.156173 -0.002893 26 39 38
-0.313656 0.001543 0.421355 88 100 92
0.159222 0.286415 0.005594 127 134 128
-0.298814 -0.101588 0.384928 49 63 54
0.180051 -0.057792 0.010126 87 93 93
-0.062802 0.160824 -0.001407 105 121 112
0.223651 -0.109057 0.011564 130 131 127
-0.298968 -0.106534 0.006151 121 132 130
0.196642 -0.044018 0.009627 120 129 122
-0.279844 0.055966 0.018492 46 59 54
0.342885 0.091889 0.014105 129 132 131
-0.062032 0.060328 0.003382 106 125 115
-0.220643 0.379111 -0.003144 135 144 137
0.009935 0.017364 0.003330 85 99 88
0.039998 0.188603 -0.000346 100 119 109
0.028495 -0.144666 0.007904 108 122 113
-0.167701 0.393536 -0.000383 50 58 55
0.251795 0.308003 0.011959 71 77 79
0.057852 -0.061046 0.007383 93 107 98
-0.232984 -0.062587 0.439465 117 165 173
0.123395 0.273327 0.002499 118 126 127
-0.182762 -0.191037 0.003346 124 135 131
0.143090 0.003788 0.008296 105 117 107
0.269650 -0.133206 0.012977 120 127 119
-0.180500 -0.010619 0.000657 94 110 101
-0.293572 -0.109942 0.005350 111 123 115
-0.303097 -0.182380 0.003381 130 138 135
0.218332 -0.134576 0.011208 104 112 109
0.245133 0.036472 0.009507 53 59 57
0.167619 0.247604 0.005499 126 132 132
-0.331193 0.172128 0.119766 120 84 86
0.157893 -0.091851 0.009665 116 128 118
-0.210664 -0.080475 0.419965 118 164 170
-0.107596 -0.082015 0.006295 101 114 111
0.199061 0.032304 0.009005 114 122 119
-0.191780 -0.081857 0.240230 57 70 65
0.261096 -0.028890 0.011654 127 134 128
0.301781 0.134249 0.011888 133 137 132
0.327594 -0.004006 0.014716 134 138 131
0.227098 0.044539 0.009776 120 128 125
-0.019117 -0.149749 0.006714 113 126 121
-0.091135 -0.161957 0.005722 120 133 130
0.178748 0.237851 0.005956 126 135 126
0.270200 0.186554 0.010841 132 141 134
-0.158525 0.295448 -0.002526 128 142 133
-0.510001 -0.015221 0.410376 75 74 76
-0.473987 -0.023348 0.427607 71 75 70
0.358383 -0.152489 0.017979 140 141 135
0.376361 -0.163672 0.020050 85 84 86
-0.546234 0.011707 0.000389 80 81 77
0.213154 -0.120079 0.011448 122 129 123
-0.133650 0.340506 -0.001737 139 154 151
-0.174396 -0.048857 0.003425 102 118 109
-0.196246 0.223307 -0.000033 114 130 121
-0.116318 -0.050005 0.007122 94 115 104
0.207913 0.146860 0.007747 118 127 120
0.339408 0.040924 0.014638 101 105 100
-0.219224 -0.177166 0.003321 126 135 128
-0.207525 -0.086933 0.353963 43 58 55
0.145386 0.248138 0.004285 119 125 123
0.237481 0.106329 0.009687 121 133 125
-0.205028 -0.192703 0.003140 125 133 130
0.106763 0.295777 0.001837 119 127 124
-0.024462 0.273686 -0.004342 90 106 97
-0.169572 0.182614 0.010215 79 92 89
0.321912 -0.193791 0.014578 142 139 134
-0.344875 0.023038 0.427922 95 98 97
0.184538 0.254373 0.006503 130 138 139
-0.191913 0.025885 0.013928 92 108 97
0.268909 -0.061882 0.011621 126 133 125
-0.177922 -0.170361 0.004077 121 135 126
-0.447309 0.005063 0.465550 100 101 97
-0.338879 -0.172478 -0.001628 140 149 140
0.007495 0.255724 -0.002389 116 128 118
0.268354 0.247034 0.011850 134 137 136
-0.505974 -0.022755 0.442777 82 86 79
-0.031182 -0.086192 0.030447 51 57 38
-0.130974 -0.098939 0.006532 108 121 118
-0.226638 0.227258 -0.003098 125 134 125
-0.365752 -0.015521 0.388565 46 54 51
-0.284151 -0.005418 0.015917 106 122 113
0.113650 -0.099597 0.010243 117 129 121
0.289712 0.255953 0.013310 138 139 133
-0.268306 0.011164 0.019095 115 126 122
-0.339845 -0.060895 0.003426 123 132 123
-0.330402 -0.102292 0.429225 87 98 94
-0.201351 -0.081763 0.376976 70 85 80
0.376607 -0.085219 0.019641 138 139 135
0.140260 -0.152240 0.009786 130 139 132
-0.255216 0.395184 -0.004174 123 126 125
0.135583 0.168441 0.004353 114 123 116
-0.268949 0.025015 0.019481 39 47 46
0.275293 0.059515 0.009700 125 133 130
-0.206196 -0.084469 0.376765 64 82 76
-0.164930 0.097398 -0.004251 104 118 107
0.278312 -0.144190 0.013549 135 136 130
-0.298946 -0.012673 0.408045 35 43 42
-0.547603 -0.102060 0.057696 68 70 61
0.007366 0.071921 0.002132 72 87 86
-0.303695 -0.089561 0.427699 80 91 87
-0.177557 -0.068368 0.301655 93 104 100
0.166567 -0.065212 0.009299 118 127 120
0.282646 -0.140472 0.013142 102 102 102
0.027209 -0.111804 0.007327 97 109 101
0.055738 0.274523 -0.000497 42 50 49
0.192285 -0.101672 0.011450 123 134 130
0.295844 -0.052515 0.012599 129 136 130
0.061847 0.035460 0.004790 87 99 91
-0.386032 0.002365 0.443420 114 122 121
-0.426522 0.036513 0.443968 169 117 124
0.027805 0.253103 -0.001719 112 124 114
-0.185568 -0.131197 0.003980 112 127 122
-0.302758 -0.096291 0.423278 76 89 86
0.283576 -0.154939 0.013594 128 135 129
-0.022102 -0.138940 0.006507 106 119 114
-0.118265 0.186506 0.008350 81 124 134
0.065006 -0.084064 0.008128 90 103 90
0.125303 0.030533 0.007419 36 44 45
-0.492729 0.014029 0.475016 155 152 147
-0.201215 -0.083586 0.355844 129 140 138
-0.258350 -0.091348 0.397120 78 114 120
0.096817 -0.013916 0.007006 91 107 96
-0.324205 0.054846 0.406343 131 165 171
-0.295089 -0.096279 0.408529 30 42 48
0.158613 -0.145201 0.010285 126 134 131
0.351607 -0.059767 0.017208 138 138 134
0.179163 0.300688 0.006831 120 129 122
-0.365754 0.001409 0.435083 113 121 120
0.152888 -0.057488 0.009027 114 125 123
0.187433 -0.044031 0.009572 118 127 120
-0.143846 0.166130 -0.000090 70 89 91
-0.237729 0.382019 -0.003845 133 142 135
0.121437 -0.043837 0.008405 110 122 114
-0.069022 0.016145 0.005218 97 116 106
-0.328201 -0.145375 0.002808 64 72 69
-0.409438 0.014781 0.449616 143 143 139
0.170580 0.163335 0.005906 121 129 126
0.113581 0.143846 0.003607 102 115 102
-0.312147 0.078042 0.224510 125 166 170
-0.135769 0.298659 -0.003162 86 101 96
0.079038 0.037532 0.004997 81 97 88
-0.363871 0.009961 0.437356 46 52 54
