ply
format ascii 1.0
element vertex 1215
property float x
property float y
property float z
property uchar red
property uchar green
property uchar blue
end_header
0.242357 -0.277264 0.004829 143 143 137
-0.297425 0.009598 0.359911 82 84 71
0.286308 -0.065803 0.017467 135 136 132
-0.109490 -0.226391 0.009824 128 139 135
-0.259396 -0.043086 0.413814 125 171 177
-0.479159 0.028100 0.442313 152 152 148
0.128171 -0.122576 0.007075 125 134 127
-0.111802 -0.294005 0.005862 136 140 135
0.014903 -0.287487 0.001810 113 121 118
-0.261476 0.511418 0.000971 53 53 53
0.162789 -0.211233 0.016537 113 116 115
0.301863 0.530281 0.010755 144 145 136
-0.201335 -0.077656 0.222970 17 25 26
-0.350247 -0.067214 0.386508 94 100 98
-0.153753 0.174770 -0.003425 111 125 116
0.164814 0.089117 0.004145 117 126 119
-0.401468 -0.001923 0.392135 112 118 116
0.240837 0.322643 -0.001739 138 139 133
0.297602 -0.214183 0.013848 137 137 133
-0.047334 -0.140503 0.012020 131 92 88
-0.161580 -0.254263 -0.000361 130 138 135
-0.041302 0.098466 0.020834 93 107 96
0.085688 -0.295342 0.011394 123 127 120
-0.217973 -0.270678 0.001274 142 146 141
-0.179889 -0.049737 0.000488 100 116 107
-0.036164 -0.109744 0.000204 108 123 122
0.166645 -0.128228 0.007850 53 56 57
-0.199960 -0.043702 0.050122 30 42 34
0.397848 -0.072479 0.026663 146 141 139
0.253546 0.058149 0.016770 126 130 125
-0.025194 0.370667 -0.002017 133 140 134
-0.481239 0.026087 0.439105 146 147 143
-0.382474 -0.013533 0.358631 80 79 62
-0.171560 0.355273 -0.001606 81 89 90
0.032210 -0.225820 0.014505 118 124 124
-0.058730 0.081172 0.042034 67 70 47
0.354554 0.440464 0.024654 148 145 140
0.226530 -0.246221 0.015477 143 144 135
0.240137 0.275337 0.001596 80 86 88
0.265070 0.100388 0.000378 125 133 130
0.020586 -0.261064 0.008770 120 127 121
-0.194458 0.469320 0.005531 101 104 107
-0.006376 0.185315 0.000559 102 114 106
-0.261773 -0.127495 -0.002952 111 122 120
-0.129517 -0.124106 0.017092 58 96 108
0.297087 0.412215 0.021851 140 140 136
-0.048983 -0.256550 0.002083 128 136 133
0.319317 -0.116557 0.012524 135 136 130
0.060100 -0.156041 0.003720 124 135 131
0.137815 0.188994 0.012283 118 129 125
-0.080666 0.264612 0.000952 119 131 121
-0.308244 -0.226968 0.005568 142 148 146
0.181018 -0.075567 0.011848 53 59 61
0.304236 0.302475 0.002986 138 145 137
0.309196 -0.079032 0.023057 125 131 131
-0.273522 0.378174 -0.002950 140 147 139
-0.404644 -0.010204 0.377146 48 59 55
-0.143448 -0.069446 0.002379 107 121 112
0.118492 0.016592 0.006457 104 118 109
0.289569 0.416162 0.020144 137 139 130
0.269179 0.416319 0.016271 138 140 131
-0.308630 0.056241 0.363621 131 167 175
-0.086037 0.057007 0.023312 40 43 25
0.189247 -0.015694 0.002459 115 127 119
0.087305 -0.078203 0.007700 108 120 112
0.359756 0.298877 0.016283 137 141 134
-0.381651 -0.074053 0.370207 135 169 177
-0.210407 -0.075954 0.268723 18 29 29
-0.138073 -0.246446 0.001804 124 135 131
-0.196579 0.339054 -0.004419 135 143 140
0.337123 -0.025846 0.004548 132 139 133
0.127755 0.419219 0.013214 135 136 130
0.084146 -0.148783 0.010055 122 134 126
-0.146914 -0.161587 0.024482 97 117 112
-0.153284 0.083799 0.001688 91 107 98
-0.159751 0.181222 -0.002816 109 123 112
0.164971 -0.095525 0.015298 117 129 121
0.137528 0.080096 0.009026 105 117 109
0.300431 0.323422 -0.001726 140 141 130
0.027052 0.419901 0.010393 97 103 101
-0.037549 0.213774 0.002905 110 123 118
-0.206554 0.517269 -0.001214 140 144 139
-0.125180 -0.038089 0.000994 99 115 106
0.240967 0.032590 0.008893 85 91 89
-0.101042 -0.220124 0.011901 86 94 93
0.396290 0.365952 0.012233 145 145 141
-0.012967 -0.060799 0.006057 103 117 108
-0.052642 0.408778 0.009353 133 142 135
-0.051887 0.431509 0.007820 134 143 136
-0.351086 -0.016346 0.375955 98 104 102
-0.155547 0.142862 -0.002887 102 116 105
0.105001 0.096516 0.005726 107 119 111
-0.346198 -0.030300 0.379543 89 97 94
-0.034289 0.106114 0.010268 93 107 98
0.298134 -0.068185 0.018934 134 138 133
-0.039625 -0.285184 -0.002128 119 127 124
0.291411 0.358890 0.002366 134 138 133
-0.152017 0.225259 0.001374 121 133 123
0.083434 0.220015 0.006270 63 70 64
0.004163 0.544911 -0.004953 129 136 128
0.155427 -0.217765 0.015474 138 145 139
-0.099410 -0.262468 -0.001140 74 77 78
-0.073290 0.001026 0.007579 86 101 98
-0.410392 -0.056879 0.356341 155 158 157
0.376666 0.107008 0.014662 140 140 140
0.284502 -0.065791 0.017417 130 134 127
-0.199891 -0.058605 0.264989 23 34 34
0.218423 -0.134505 0.010955 125 133 130
-0.380736 0.021975 0.397286 120 123 122
-0.139811 0.010774 -0.002094 13 29 20
0.323607 -0.091747 0.022000 82 86 81
-0.079980 0.008178 0.028356 19 27 24
-0.322195 0.422264 0.000610 142 143 137
-0.146550 -0.233601 0.004209 132 141 134
0.376200 0.333275 0.010739 131 134 135
0.034139 -0.186559 -0.001365 123 131 128
-0.013968 0.025878 0.002238 95 108 95
0.265728 -0.000445 0.005320 128 131 130
0.231390 0.179294 0.002958 134 138 133
0.247383 -0.277298 0.004970 141 141 135
0.074881 0.209372 0.004359 116 125 118
-0.211016 -0.173864 -0.003095 122 135 132
-0.314917 -0.079188 0.380931 76 91 86
-0.325472 -0.052912 0.384007 83 98 93
0.178724 -0.209371 0.015694 62 68 70
-0.324557 -0.090202 0.369986 64 75 71
-0.166460 0.063991 0.003091 91 110 100
-0.044327 -0.146614 0.014786 110 59 59
-0.092218 0.050650 0.032298 41 44 28
0.034817 -0.056482 0.005142 93 106 101
0.113628 -0.193852 -0.000076 130 139 132
-0.218381 -0.256248 0.002462 138 144 142
0.316353 -0.079080 0.023257 135 139 132
-0.081039 0.255168 0.004268 122 136 125
-0.156949 0.377385 0.000315 137 146 137
0.228384 0.430199 0.021461 140 141 132
0.199367 0.504659 -0.004367 130 134 127
-0.081663 0.120471 0.035338 102 115 102
-0.329446 -0.068464 0.386575 87 98 94
-0.006070 0.119773 0.005367 85 98 93
-0.010316 -0.074922 0.008393 24 39 34
-0.240895 -0.227424 0.007455 134 141 135
-0.002994 -0.177806 0.005967 117 125 122
0.384518 -0.251862 0.017774 139 140 134
-0.129977 0.180008 -0.000246 114 128 117
0.270700 0.037443 0.007665 126 130 125
-0.022510 -0.252676 0.008022 121 129 126
-0.257278 -0.053838 0.415496 126 171 180
0.112396 -0.052002 0.004128 109 123 112
-0.328446 -0.070209 0.384690 87 98 94
0.365321 0.438440 0.024048 150 147 142
-0.017955 -0.189201 0.010127 120 133 128
0.369271 -0.200721 0.022348 141 142 133
-0.223874 -0.089720 0.228790 39 47 44
0.393765 -0.274507 0.016348 153 148 146
-0.000633 -0.139966 0.003794 115 131 122
0.188173 0.034658 0.008211 119 128 121
-0.016708 0.372537 -0.000882 131 138 132
0.266990 -0.162211 0.007295 138 139 133
0.010322 0.264743 -0.004979 116 125 116
0.340321 -0.157737 0.003938 142 139 134
0.087008 -0.273943 0.007051 127 131 124
0.396893 -0.122966 0.009750 144 144 140
-0.146775 -0.167409 0.006326 107 122 119
0.087028 0.027797 0.008486 87 100 95
-0.373843 0.004408 0.376080 63 67 62
0.029849 -0.098851 0.007332 112 121 112
-0.201024 -0.077376 0.229731 18 26 27
-0.026881 -0.022786 -0.002060 108 122 113
-0.011052 -0.254618 0.009682 122 134 126
-0.144913 -0.215320 0.005046 124 138 129
0.149093 -0.069788 0.011336 49 57 54
0.288778 -0.092503 0.018356 89 95 95
0.156449 0.393822 0.008906 131 140 133
-0.017023 0.232729 0.006852 112 124 116
0.177159 0.484511 -0.004508 135 137 128
-0.122723 0.422236 -0.002015 136 143 135
-0.119309 -0.156332 0.017857 82 114 123
-0.466944 0.019413 0.426511 73 76 77
-0.354293 0.010006 0.374881 95 106 102
-0.043296 -0.186545 0.006160 121 132 128
0.318920 0.376046 0.011211 137 137 133
0.162551 0.145033 -0.001895 116 125 118
0.384624 0.096308 0.018757 138 139 133
0.017246 -0.027159 -0.000514 84 96 88
-0.278463 0.462480 0.008557 149 151 142
-0.110123 -0.292388 0.005563 136 140 135
0.271270 0.137128 -0.002187 133 136 135
0.004452 0.385882 0.005990 75 83 82
0.228491 0.372745 0.003545 138 139 133
-0.072781 0.256222 0.002809 91 102 102
0.360015 -0.002210 0.000816 134 134 130
-0.465589 -0.016646 0.393214 48 51 54
0.103788 0.046393 0.017665 100 114 103
0.285035 -0.003616 0.013274 132 134 125
-0.046897 -0.194785 0.004418 124 133 126
0.140783 0.150557 -0.000002 102 115 110
-0.470411 0.012529 0.429820 138 138 138
-0.374311 -0.037356 0.368761 79 89 92
-0.385386 -0.068759 0.368142 136 170 178
0.201023 -0.253842 0.012238 136 137 131
-0.207028 -0.241762 0.004042 54 60 62
-0.061359 0.547288 -0.002577 134 138 133
-0.178447 0.405761 0.004027 140 147 139
-0.106261 -0.270657 -0.000752 132 141 134
-0.197986 0.202897 -0.004951 113 127 118
-0.326698 -0.237533 0.000075 56 62 60
-0.466896 0.011678 0.422912 61 60 62
-0.095003 -0.090281 0.003017 106 122 113
-0.283150 0.247327 0.005354 135 143 142
0.092496 0.215473 0.009955 115 127 119
0.284318 -0.122023 0.012198 134 133 133
0.214438 -0.231644 0.017473 130 131 127
0.128290 0.339766 -0.002792 122 133 129
0.330447 -0.038359 0.006239 136 137 133
0.333330 -0.243527 0.017852 147 144 141
-0.228351 -0.083750 0.317502 50 65 60
-0.133917 0.211552 0.001074 119 131 123
-0.320206 0.034766 -0.003167 110 123 118
0.029381 -0.059745 0.003453 96 109 104
0.349446 -0.194802 0.018969 145 143 135
0.151294 0.070458 0.011589 109 117 116
0.118345 -0.241704 0.009794 124 131 125
-0.055684 -0.195174 0.006170 128 136 133
-0.212219 0.383495 -0.001873 135 142 134
-0.306655 0.044724 0.361631 54 64 69
-0.047505 0.103082 0.028307 16 33 19
0.267686 0.156697 -0.000913 68 74 72
-0.139678 -0.270120 -0.003750 138 144 142
-0.030871 0.121808 0.001128 90 104 95
0.071707 -0.008904 0.004164 57 70 69
0.043249 -0.218750 0.012623 122 129 123
-0.270505 0.233557 0.004855 131 142 140
-0.132843 -0.180068 0.000867 120 133 130
0.166281 0.280717 -0.000407 128 136 133
0.349151 0.190107 0.006144 132 139 133
0.305516 0.095160 0.011343 131 132 126
0.164179 0.418973 0.014234 121 125 118
-0.393028 0.006574 0.395250 133 139 139
0.053038 -0.094148 0.010244 31 42 38
0.268806 0.300823 0.001113 137 141 136
-0.153852 -0.145315 0.035151 68 106 118
0.376673 0.035092 0.014287 143 143 139
-0.014604 0.008232 0.000624 102 116 107
0.036947 -0.233886 0.013105 122 128 126
-0.332652 0.053502 0.375942 85 91 89
-0.128006 -0.253138 0.002312 131 139 136
0.209712 -0.228354 0.017754 136 137 133
-0.263881 -0.222225 -0.001876 88 97 90
-0.070281 -0.165357 0.005251 48 55 63
0.230249 -0.217239 0.012533 135 138 137
-0.227379 -0.084104 0.359301 61 74 71
-0.072084 0.363354 -0.003572 56 62 60
0.207845 -0.136034 0.009914 127 134 126
-0.285982 -0.193167 -0.002279 136 140 135
-0.138047 -0.183641 0.001249 120 133 128
-0.042769 -0.127936 0.005874 93 42 55
-0.213564 -0.116081 0.216839 17 28 26
-0.458616 -0.008784 0.399298 51 50 50
0.222756 -0.268493 0.011612 128 134 134
0.280333 0.489795 0.004478 140 140 134
0.378544 0.038557 0.020372 140 140 134
0.012386 0.429754 0.011213 128 137 130
-0.103505 -0.296915 0.003662 136 140 135
-0.486847 -0.012691 0.424187 87 91 84
0.395208 0.195248 0.009973 140 144 139
-0.010860 0.524205 0.001492 136 140 133
0.361639 0.320888 0.010036 137 141 136
0.137157 0.138279 0.001893 109 121 113
0.097078 0.061769 0.020201 94 109 104
-0.054720 0.174894 0.001925 104 118 109
0.394772 0.091333 0.024481 146 143 138
-0.373362 0.044146 0.392388 93 100 94
-0.139823 -0.191491 0.005263 123 137 128
0.348626 0.381626 0.014734 136 131 129
0.050536 -0.084128 0.008210 111 123 115
0.072908 -0.139411 0.008551 123 135 127
0.356792 0.056944 0.007288 137 138 134
0.141509 0.543982 -0.001105 137 139 128
-0.032733 -0.263571 0.004838 127 131 126
0.287552 -0.295363 0.006639 76 72 65
0.304878 -0.133489 0.014122 131 132 123
0.200404 -0.266342 0.008606 134 138 133
-0.213531 -0.121340 0.214392 22 30 27
0.137388 0.178984 0.009816 115 127 119
0.210855 0.080479 0.009283 68 75 69
0.153496 0.018958 0.010856 107 118 114
0.208400 -0.003266 0.006635 119 128 121
0.380654 0.103395 0.017518 134 138 131
0.344722 0.477680 0.019604 143 140 135
-0.308290 0.403418 0.001097 141 145 138
0.132630 0.117171 0.004064 109 120 116
-0.207445 -0.072157 0.273893 22 33 33
-0.012021 -0.280062 0.006634 120 127 121
-0.041012 -0.210974 0.008100 122 134 126
0.267893 0.010340 0.003788 128 132 127
0.037444 -0.046522 0.004343 41 52 52
0.356280 0.368018 0.005327 140 141 137
-0.214345 -0.087652 0.220118 12 20 19
-0.093135 -0.161490 0.010754 80 106 108
-0.173644 0.545897 -0.003414 140 145 135
-0.059410 0.128940 0.020111 98 114 103
-0.289899 0.483661 0.012544 148 155 149
-0.232157 -0.084908 0.253945 28 36 33
-0.128056 -0.261409 0.002874 132 140 139
-0.303128 -0.073407 0.388404 38 50 52
0.095725 0.401945 0.004174 128 135 127
-0.331778 -0.134530 -0.003995 133 140 134
-0.371317 -0.092582 0.363007 111 145 153
0.339643 -0.175287 0.010092 147 148 139
0.399544 -0.151212 0.006614 146 146 140
-0.340105 0.077043 0.383359 137 169 176
0.227782 0.269802 -0.001366 128 135 127
0.387646 0.168600 0.016091 141 141 137
0.060889 -0.261171 0.008873 57 63 65
-0.071134 0.015183 0.035203 21 30 23
0.075062 -0.070925 0.008500 110 124 115
-0.175268 -0.114668 0.003508 103 116 113
0.364651 -0.098493 0.020139 140 140 134
-0.020849 -0.004158 0.001283 68 81 76
-0.056703 0.082065 0.040306 70 73 50
0.092204 0.234905 0.009061 116 128 120
0.024658 0.126476 -0.002693 99 113 102
0.187870 -0.123552 0.010688 127 133 131
0.366434 -0.098505 0.020189 141 141 135
0.054769 -0.283233 0.005032 115 122 116
0.041752 0.187818 0.001017 103 115 105
-0.223972 -0.081166 0.324359 56 69 64
-0.389724 -0.022480 0.360860 86 84 72
0.362868 -0.098481 0.020089 140 140 134
0.398925 0.282635 0.015460 141 141 137
-0.084628 0.012076 0.046578 18 27 20
-0.247279 -0.086720 0.311116 36 50 41
-0.371649 -0.098390 0.349258 95 124 132
0.232082 0.171232 -0.002981 132 140 137
-0.332996 -0.082777 0.374283 79 90 86
-0.170020 0.413461 0.001254 139 145 143
0.151069 0.177021 0.001604 113 119 119
-0.091725 0.329538 -0.003375 135 144 135
-0.220931 -0.084872 0.232242 14 22 19
0.009567 -0.027826 0.001143 88 100 92
0.314412 0.181337 0.008704 131 138 130
-0.168275 -0.110029 0.000368 27 38 36
-0.469415 0.024954 0.429014 113 119 117
0.176394 0.143147 -0.002342 120 129 122
0.380668 0.147321 0.013691 139 140 136
0.054336 0.349841 -0.000406 102 110 111
0.069669 -0.257859 0.008481 125 132 124
0.231327 -0.234818 0.016521 139 139 135
0.252437 0.222522 0.012704 127 134 128
-0.303202 -0.002271 0.366344 67 79 71
0.009750 -0.048680 0.004682 78 93 88
-0.094650 0.437718 0.002757 135 142 134
-0.004652 -0.299078 0.005735 130 130 130
-0.055027 0.458561 0.001557 133 140 134
0.045262 0.523920 -0.000202 137 137 131
-0.155193 -0.204059 0.000037 117 130 125
-0.075119 -0.002319 0.005965 30 43 38
-0.036009 -0.099418 0.002809 114 129 124
-0.065439 0.016352 0.032614 25 34 27
-0.052334 -0.258051 0.001280 131 137 135
-0.051953 0.050335 0.037821 31 44 39
-0.195994 -0.292628 -0.002742 57 57 61
0.262144 -0.077751 0.013359 130 134 129
-0.240718 -0.067715 0.418379 118 168 176
0.082387 -0.293826 0.011996 118 125 117
0.213349 0.192087 0.008351 64 69 74
-0.213554 0.448322 0.003988 140 147 141
0.094454 0.039653 0.014237 98 110 102
-0.009964 -0.101416 0.009311 28 41 36
0.152817 0.443286 0.007543 131 135 128
0.139833 0.183582 0.009826 108 120 112
-0.044400 -0.269559 0.001687 131 138 132
-0.172237 0.233032 -0.000051 54 68 70
0.234775 0.093837 0.012936 125 134 127
0.207010 -0.251190 0.015866 120 129 122
-0.260934 0.239864 0.002572 133 145 135
0.277257 0.184414 0.006771 134 138 133
0.191824 0.272103 0.001896 86 92 94
-0.214116 -0.230081 0.003742 134 140 138
0.111283 0.077634 0.013683 105 105 105
0.270143 0.420218 0.014805 137 139 130
0.206295 -0.027721 0.002909 126 129 128
0.004857 0.333885 -0.000549 123 135 125
0.196926 0.160615 0.003119 127 135 132
-0.108056 0.079408 0.019813 38 41 23
0.396238 0.217136 0.012470 138 139 133
-0.303149 -0.070092 0.389947 37 49 53
0.159249 0.333930 -0.001234 128 135 127
-0.106673 0.026813 0.061580 25 33 30
0.236590 -0.282077 0.004615 147 142 138
-0.226477 -0.080282 0.399731 105 149 156
0.139878 0.176383 0.006476 114 126 118
0.154617 -0.180596 0.002958 68 74 72
0.105127 0.430446 0.012218 131 136 126
0.192562 -0.157760 0.003737 132 139 133
0.248987 -0.214273 0.014498 126 126 126
0.355319 -0.125723 0.012689 148 149 138
0.114445 -0.019290 0.000661 104 116 108
0.133869 0.185422 0.010496 109 121 113
-0.253103 -0.074965 0.419032 123 171 179
0.045650 0.534147 0.001261 135 136 130
-0.222501 -0.050788 0.420206 122 163 167
0.209859 -0.075763 0.012655 120 126 124
-0.341430 -0.067758 0.387633 92 98 96
0.052348 0.536131 0.002393 131 135 130
0.079296 0.027644 -0.000654 88 102 93
0.387512 -0.023694 0.014845 144 145 136
0.335011 0.119332 0.011377 137 138 134
0.032356 -0.273266 0.003457 121 124 123
-0.243399 0.505091 0.005210 141 148 140
0.390431 -0.274484 0.016255 150 145 143
-0.326861 0.042683 0.373293 91 98 92
-0.113980 0.227776 0.009249 63 76 73
-0.217536 -0.056626 0.404401 121 162 166
0.121699 0.490918 -0.003253 133 137 130
0.302877 -0.157169 0.008553 140 141 135
0.099622 -0.022556 -0.001321 110 119 112
-0.105984 0.380849 0.000205 135 143 140
-0.116455 0.413098 0.002754 136 143 135
-0.401513 0.049338 0.403860 147 148 142
-0.199075 -0.081968 0.170272 83 91 88
0.304149 0.133585 0.004912 134 138 133
0.117852 -0.248178 0.008973 84 92 93
0.150404 0.161096 -0.002520 40 52 44
0.118264 0.060778 0.018192 99 113 104
-0.082916 -0.112514 0.002975 93 111 107
-0.299749 0.012903 0.000534 45 57 49
-0.215784 0.204041 0.000544 119 130 126
-0.163261 -0.254252 -0.000408 137 145 142
0.202985 -0.243013 0.016237 139 139 133
0.127167 0.407567 0.011081 130 131 125
-0.109267 -0.206308 0.010352 119 135 126
0.308975 0.507658 0.013687 91 90 92
-0.225601 -0.200253 -0.001489 53 53 53
0.121775 0.298923 0.001164 125 137 129
0.347193 0.452428 0.020063 81 82 76
0.138064 0.013194 0.009899 105 117 109
0.162302 0.014722 0.011365 114 123 116
0.166923 0.230737 0.009449 128 136 133
0.060881 0.261618 0.000658 118 127 120
-0.086471 0.087661 0.007775 38 40 22
-0.170891 -0.152127 0.028138 88 103 100
0.291824 0.477497 0.012353 141 141 135
0.156031 0.382893 0.006011 118 124 124
-0.195862 -0.224228 -0.000689 141 147 149
0.222687 0.010016 0.008849 126 133 127
0.283199 -0.084711 0.017396 133 134 128
0.363184 0.149871 0.008816 138 142 137
-0.082693 -0.094849 0.005688 106 121 116
0.211895 0.335484 0.001130 130 134 129
0.140906 0.057205 0.017235 97 109 99
-0.467636 -0.004859 0.412983 45 56 56
-0.322210 -0.226286 0.002140 142 146 139
0.025060 -0.179091 0.004036 40 48 45
-0.197020 0.255028 -0.004929 125 134 127
0.035504 0.008812 0.004663 98 107 100
-0.057065 -0.128401 0.007419 15 31 70
0.138296 -0.126429 0.007804 110 113 112
-0.301507 -0.027157 -0.003825 105 116 112
-0.249000 -0.064447 0.419642 123 171 179
0.357878 -0.264369 0.014432 143 144 140
0.296420 0.033026 0.008617 88 91 92
0.305346 0.028829 0.013562 84 85 81
-0.209205 0.266376 0.003285 125 139 128
-0.296825 0.517663 0.002777 143 148 138
-0.254750 -0.054371 0.416430 125 170 179
-0.387749 -0.020287 0.359736 88 84 73
0.273924 0.005353 0.006068 126 133 127
0.014534 -0.061962 0.004166 94 106 98
0.173585 0.099609 0.004889 119 128 119
-0.242104 -0.178856 -0.004180 124 133 126
0.212075 0.518888 -0.003968 129 130 124
0.342157 -0.229802 0.015689 143 141 131
-0.036659 0.549159 -0.000937 136 143 137
-0.293807 -0.221482 0.003055 76 84 81
0.170989 0.244247 0.007038 126 134 131
0.256027 0.485947 0.001929 125 127 118
-0.122683 0.441857 0.000500 140 144 139
0.212697 -0.128539 0.009140 58 57 61
-0.257308 -0.083843 0.418078 123 172 177
0.262237 0.013786 0.005216 127 134 128
-0.325825 -0.006541 0.386825 70 77 69
0.121573 -0.120348 0.005700 116 124 125
0.124224 -0.272372 0.006735 128 135 129
0.176564 -0.101370 0.016249 123 132 125
0.170913 0.386655 0.008227 110 110 110
0.100150 0.183850 0.008714 109 121 111
-0.441132 0.016837 0.416185 135 138 137
0.072490 0.340950 0.001538 124 131 123
-0.009076 -0.158698 0.006949 110 123 118
-0.285965 -0.225160 -0.003931 136 143 137
0.090963 -0.220407 0.012235 92 95 94
0.378760 0.138425 0.009491 138 147 140
0.397114 0.221855 0.012488 135 139 134
-0.275002 -0.146887 -0.004668 126 135 128
0.084212 0.424746 0.005602 121 127 125
-0.217858 -0.120235 -0.002618 35 49 53
0.177186 -0.294885 0.005630 135 136 130
0.285326 -0.130637 0.010427 125 131 131
0.370884 0.103538 0.012866 137 137 137
-0.091154 0.125683 0.037469 108 116 103
-0.015128 -0.199670 0.010859 118 129 125
-0.270300 0.272328 0.004152 78 86 83
0.047301 0.140319 -0.003267 100 114 105
0.146900 -0.298610 0.010676 130 131 127
0.366515 -0.111442 0.014169 147 144 141
0.296336 0.126511 0.001376 135 139 132
-0.391512 0.044192 0.396258 135 142 136
0.191040 0.151671 -0.001228 125 134 125
-0.310646 -0.205418 -0.001026 131 137 135
-0.021368 -0.124311 0.006022 54 53 62
-0.069146 -0.186370 0.005436 115 126 126
-0.383811 -0.001909 0.373932 25 35 38
0.300142 0.233498 0.014886 134 137 136
-0.036831 0.335967 -0.004189 129 140 138
0.371113 0.379506 0.011137 144 144 138
-0.285310 0.474387 0.010576 145 149 142
0.020177 -0.140648 0.006331 114 125 121
-0.393290 -0.052668 0.369869 140 174 180
0.317405 -0.179017 0.010973 125 125 125
-0.004131 0.119760 0.005421 89 103 94
0.023617 -0.087204 0.005939 43 51 52
-0.270769 -0.208299 0.004392 128 137 130
0.307362 0.069401 0.015961 65 58 67
0.340910 0.026785 0.009305 142 146 141
-0.026286 -0.190244 0.007175 127 135 132
0.234081 0.171218 -0.002925 132 140 137
-0.346250 -0.102407 0.349283 86 111 116
-0.251188 -0.052233 0.417536 123 168 177
-0.059255 0.534957 -0.004942 133 142 133
0.043654 -0.229349 0.015426 119 127 124
0.240272 -0.213376 0.010230 139 140 136
0.333513 -0.110197 0.015927 139 140 134
0.329226 -0.204662 0.017058 145 145 139
0.093087 -0.113705 0.007905 121 128 122
0.397503 0.499033 0.012430 149 145 138
0.171385 -0.283153 0.002083 139 139 135
0.293296 -0.163979 0.007291 140 140 134
0.159014 0.050209 0.010128 113 122 115
-0.424952 -0.011436 0.388078 48 59 55
0.007990 -0.023746 0.000786 89 101 93
0.059046 -0.267385 0.007026 118 125 119
-0.267296 -0.032145 0.414247 137 170 174
-0.111325 -0.263039 0.002637 131 139 136
-0.231256 -0.087686 0.246059 78 91 88
-0.040989 -0.280199 -0.003160 133 137 132
-0.190387 -0.148249 0.007266 118 130 122
0.315428 0.322268 0.003721 95 96 92
-0.050278 0.006009 0.000685 97 116 106
-0.098970 0.101423 0.034759 73 82 62
-0.307225 -0.084879 0.007747 43 54 52
-0.193646 -0.002059 -0.000918 30 36 38
0.158942 0.361791 0.002899 129 136 128
0.389867 0.191922 0.011568 71 74 73
-0.137837 0.366405 -0.001994 122 134 126
0.374020 0.343940 0.010119 138 139 135
0.010189 -0.131495 0.005868 115 129 120
-0.240560 -0.240195 0.004830 131 132 128
-0.326613 -0.082166 0.375870 79 90 86
0.139181 -0.173931 0.004477 128 137 130
0.086426 0.306696 0.003681 97 105 102
-0.232682 0.234189 0.000811 47 61 63
0.129292 -0.241227 0.007047 133 137 132
-0.290715 -0.067485 0.400376 131 155 157
0.347397 0.389352 0.021603 137 139 130
-0.017051 0.127953 0.002212 86 98 90
-0.135748 0.318689 -0.003177 95 106 102
-0.449779 0.060354 0.400863 155 155 151
0.332689 -0.255080 0.017971 142 137 133
0.163288 -0.025634 -0.002978 119 126 118
0.280581 0.520385 0.002175 132 129 126
-0.155250 0.453807 0.008359 136 143 135
0.164569 0.265565 0.000210 122 134 124
-0.022350 -0.168748 0.011787 108 123 120
0.259871 0.290286 -0.001864 136 139 138
0.197978 -0.114415 0.010843 128 135 129
0.105076 -0.050295 0.004694 117 129 119
0.290001 0.028839 0.008675 126 133 127
0.391623 -0.240493 0.018874 149 146 143
0.056015 -0.024071 0.002132 90 105 100
-0.166848 0.100947 0.001524 93 109 98
-0.254240 0.425081 -0.004789 139 146 138
0.213754 -0.280850 0.007786 137 138 134
-0.035084 0.420321 0.008653 134 133 135
0.051463 0.017833 0.002739 38 46 43
-0.038763 -0.242536 0.006718 108 111 114
0.251879 0.378381 0.006898 65 76 76
-0.309469 -0.017305 -0.003901 112 124 116
0.287044 0.142398 0.000758 127 136 129
-0.019038 0.232743 0.006795 112 124 116
-0.027978 0.346568 -0.004495 127 136 127
0.174220 0.403370 0.010594 134 138 133
-0.146421 0.392684 0.004455 135 143 140
-0.497380 -0.017573 0.424896 76 75 75
0.075576 0.426760 0.006271 82 88 86
0.279372 0.425365 0.015282 80 83 82
0.078039 0.000994 0.004556 101 113 105
0.039833 -0.248183 0.009849 119 128 121
-0.260618 -0.070221 0.417696 125 171 177
-0.047273 0.060085 0.030367 20 26 26
0.148923 0.500852 -0.001090 127 134 126
0.326064 -0.130913 0.011568 137 141 134
-0.327534 -0.029907 0.379204 73 84 80
0.080734 0.098482 0.001471 110 122 112
0.350651 -0.032054 0.005390 133 139 137
-0.174219 0.405728 0.000834 137 146 139
-0.164044 -0.149882 0.032708 88 107 109
-0.235017 0.515243 0.003576 141 148 140
0.153261 0.369460 0.002982 90 98 95
-0.101826 0.221491 0.004495 118 131 126
0.339330 0.001337 0.001823 137 137 131
-0.218771 -0.081004 0.245145 8 16 15
-0.264305 -0.094925 0.403873 82 119 122
0.238998 -0.067436 0.010819 128 135 129
-0.043484 -0.288877 0.001550 127 134 128
-0.196401 -0.121523 0.001865 36 46 49
-0.008225 -0.094972 0.012365 118 133 130
0.220730 -0.164329 0.001557 55 56 52
-0.248557 -0.090296 0.345827 50 62 54
-0.484136 0.009517 0.435714 136 136 136
0.300540 -0.140406 0.012974 136 137 133
-0.091356 -0.100062 -0.001423 106 119 116
0.188969 0.166058 0.005406 130 138 135
0.353671 0.402767 0.028044 145 145 139
-0.166850 0.303608 -0.000132 137 152 147
0.297935 -0.289261 0.008700 129 129 123
0.071088 0.267123 0.003539 106 115 108
-0.210732 -0.060885 0.377250 78 114 120
0.094512 0.213641 0.009165 115 127 119
0.054146 -0.069473 0.004110 25 36 34
-0.176218 0.394798 0.001200 135 143 142
0.084096 -0.048220 0.009420 44 50 52
0.054898 -0.170934 0.006556 116 127 123
0.212806 0.359422 0.000164 136 140 133
-0.241364 0.256426 0.003168 129 143 134
0.187774 0.012728 0.006817 118 126 123
-0.379009 0.012171 0.389464 45 47 53
0.168497 0.010382 0.007331 114 123 116
-0.343687 0.042252 0.380293 86 93 87
-0.315171 -0.023744 0.381355 70 81 79
-0.077041 0.128400 0.024828 84 93 84
0.325587 0.342357 0.007873 135 139 134
-0.300584 -0.042364 0.390797 84 95 95
-0.086903 -0.196085 0.010291 120 133 128
-0.419942 -0.009191 0.389279 62 70 67
-0.146352 -0.278117 -0.004371 139 150 146
0.380867 -0.151609 0.008055 72 73 69
0.162049 0.417044 0.013270 130 134 127
0.327536 -0.168488 0.004052 128 135 127
0.140413 0.052942 0.017441 97 109 99
-0.126671 0.131138 0.019039 104 118 109
-0.045414 0.060072 0.030419 53 59 59
-0.312576 -0.101718 0.362791 49 57 54
-0.073346 0.030027 0.046459 27 31 26
-0.115166 0.157464 0.027239 113 127 118
0.144395 -0.221378 0.016758 133 135 126
-0.271170 -0.277864 -0.003729 144 148 143
-0.018351 0.074184 0.010245 88 102 91
0.150515 -0.040214 0.004182 41 49 46
-0.164343 0.039643 0.001753 96 110 101
0.212642 0.482260 -0.004450 118 118 118
-0.223234 0.406064 0.002773 139 146 140
0.334156 0.037909 0.012067 134 134 130
0.028663 -0.028197 -0.002848 90 102 92
0.079683 0.347754 -0.000588 119 128 121
0.070854 0.453721 0.006537 131 136 126
-0.030766 -0.298642 0.002918 126 132 130
-0.249437 -0.057548 0.419530 126 172 178
0.185806 -0.239101 0.013109 111 111 107
0.209961 0.099860 0.000622 123 132 123
0.305024 -0.150549 0.010599 139 140 136
-0.266956 -0.037603 0.413924 130 169 176
-0.016123 0.334027 -0.001136 129 141 133
0.194163 -0.076955 0.016025 124 130 128
-0.005089 -0.052571 0.004615 93 106 93
0.297580 -0.202265 0.006154 141 141 135
-0.047014 -0.176063 0.013131 107 120 117
0.080979 -0.196772 0.012996 125 134 127
-0.452291 0.020704 0.420948 116 119 122
0.268797 0.260394 0.009878 137 138 134
0.187724 0.134956 -0.003595 124 131 125
0.164175 -0.237236 0.012200 137 138 132
0.071420 -0.024681 0.008949 101 115 106
-0.064949 -0.035885 0.006104 112 124 116
-0.254322 -0.096318 -0.002551 109 122 117
0.177072 0.167936 0.005909 127 133 131
-0.411734 0.044888 0.397055 133 136 135
0.052349 0.050965 0.011570 97 111 102
-0.454113 -0.006561 0.402681 76 82 80
0.087343 -0.296845 0.010745 122 126 119
0.201348 0.037988 0.010172 118 127 120
0.194559 0.324864 -0.002147 131 138 132
0.113986 0.231843 0.010521 98 102 97
-0.248552 0.461741 0.003627 138 145 137
-0.292056 -0.075740 0.395388 73 87 89
0.259307 0.182725 0.005425 132 138 136
0.275819 -0.269892 0.009303 145 142 139
-0.260206 -0.126946 -0.004855 115 127 119
-0.028049 -0.270140 0.005236 126 133 127
-0.220749 -0.113761 0.218798 19 25 25
-0.169252 0.337749 0.001342 66 74 73
0.169763 0.014671 0.011574 116 125 118
0.241379 0.177416 0.002395 129 132 131
-0.292575 -0.068774 0.004666 117 126 119
0.092243 -0.043578 0.007421 110 122 114
-0.324876 -0.009021 -0.004938 110 124 113
-0.006868 0.104269 0.005849 84 93 84
-0.253233 -0.088735 0.327648 47 58 54
0.051333 -0.049650 0.007734 55 63 62
0.310854 0.476000 0.014456 143 143 137
-0.281994 -0.057629 0.407443 128 169 177
0.105356 -0.275580 0.006861 124 133 124
0.215109 0.449393 0.014534 139 140 136
0.340324 -0.216022 0.014323 136 140 133
0.198165 0.213764 0.006935 131 137 135
0.208379 0.000112 0.008207 120 129 122
-0.241806 -0.087457 0.270114 40 51 49
0.218214 0.335442 0.001307 72 78 78
0.084255 -0.166242 0.001931 47 62 61
0.280238 -0.002823 0.011286 131 138 130
0.203675 0.464813 0.005908 135 136 130
-0.385478 -0.054043 0.374990 141 175 183
0.235735 0.015012 0.011582 124 131 125
0.146074 -0.134015 0.008929 126 135 128
0.008419 0.004518 -0.004802 87 101 92
0.163208 -0.147465 0.005408 131 138 132
0.121361 -0.000228 0.003130 105 114 107
0.019092 0.431028 0.009808 128 135 127
0.304007 0.438902 0.019042 143 143 139
0.171516 0.314592 0.001181 91 97 95
-0.373885 -0.096530 0.351157 97 126 136
0.309135 0.023692 0.011289 84 87 86
0.229571 0.046346 0.014942 122 129 123
-0.383540 0.031856 0.396281 128 132 127
0.082656 -0.265869 0.007364 126 133 127
0.340554 -0.089613 0.021315 53 58 63
-0.130731 0.024441 0.013379 83 99 90
-0.099251 0.424666 0.005365 131 142 140
0.091379 0.111236 0.002223 68 81 80
0.281663 -0.061822 0.016969 130 134 129
-0.271749 0.542260 -0.001543 145 150 140
0.334218 -0.073016 0.022223 137 138 134
-0.362423 -0.076007 0.382035 136 165 173
-0.042985 -0.095511 0.002203 125 136 134
0.320031 -0.090106 0.022653 138 139 135
0.114162 0.099045 0.009396 40 48 49
-0.306777 0.331192 -0.002685 138 145 139
-0.218489 -0.092743 0.220929 53 66 61
0.216558 0.518858 -0.003842 116 117 111
0.014642 -0.246490 0.009852 77 85 84
0.373759 -0.246855 0.017563 107 96 102
-0.133600 0.422950 0.003496 80 92 84
-0.115405 -0.176088 -0.001151 111 124 119
0.197469 0.308581 -0.004119 131 135 128
-0.442543 0.030707 0.411563 116 119 122
0.238768 -0.092165 0.016955 89 96 90
0.376225 0.429198 0.025603 97 96 96
0.318960 0.265445 0.010483 129 136 128
0.395329 0.493029 0.009567 151 147 140
0.077105 -0.280961 0.011200 123 127 122
-0.095380 0.249922 0.004689 125 139 130
-0.215401 -0.109008 0.214557 13 21 22
-0.186426 0.508908 0.002142 131 138 132
-0.381055 -0.095180 0.348252 99 126 135
-0.356116 -0.058810 0.381410 96 104 103
0.247499 -0.249055 0.012604 71 68 65
0.322697 -0.226195 0.014555 145 145 141
-0.363054 0.011384 0.381871 77 83 81
0.189260 0.053436 0.012573 116 128 120
0.371364 -0.295102 0.014890 143 144 135
-0.216324 -0.126922 0.212809 25 33 32
-0.308905 -0.061454 0.389375 80 91 87
0.158954 0.359868 0.002004 129 136 130
-0.322329 -0.069140 0.385378 84 95 91
0.174146 0.003565 0.004333 117 126 119
-0.275927 -0.075072 0.006666 110 121 117
0.061388 -0.208363 0.011403 84 90 90
-0.327480 0.474239 0.000365 62 65 64
0.387878 -0.251885 0.017868 143 144 140
-0.096444 0.155288 0.038948 68 64 53
-0.485180 -0.031207 0.422240 44 44 48
0.214224 0.097579 0.005210 90 101 97
0.322488 0.164349 0.006564 139 140 134
-0.068950 -0.067985 -0.001240 111 124 119
0.340656 0.211250 0.005791 137 138 132
-0.111309 -0.272293 -0.000568 133 140 134
-0.432505 0.051322 0.402714 152 153 147
-0.219089 0.259952 0.005504 129 141 131
-0.206789 -0.068046 0.287966 99 114 109
0.266431 0.352152 0.003969 113 119 119
0.387145 -0.014404 0.011433 141 141 135
-0.493084 0.026483 0.442230 144 145 141
0.045066 -0.110155 0.008061 114 128 119
0.346635 0.360443 0.004810 137 138 132
-0.405253 -0.016076 0.372186 85 86 75
-0.020649 -0.070277 0.005819 108 123 118
-0.056713 -0.014931 0.002874 102 118 107
0.288434 0.001259 0.011235 132 133 127
-0.456897 0.053100 0.406092 153 154 150
-0.251505 -0.097175 0.371223 49 62 57
0.199699 -0.293804 0.009041 134 139 127
-0.264403 -0.103297 0.372385 42 56 47
0.113089 0.197157 0.009795 119 128 119
0.169912 -0.009016 0.000551 114 127 124
-0.013326 -0.145471 0.004146 117 129 121
0.199244 -0.221871 0.010514 139 140 134
0.257310 0.016307 0.004029 125 133 122
0.031185 0.209418 -0.000292 110 122 112
0.189641 -0.123564 0.010738 128 135 129
-0.389414 -0.024168 0.361188 87 85 75
-0.288958 0.532029 -0.000222 149 150 146
0.389875 -0.179019 0.025369 145 145 139
-0.203306 0.477352 0.005684 140 147 139
-0.233008 -0.085963 0.351639 57 68 64
-0.186417 -0.073087 0.012587 104 119 114
-0.067477 0.096722 0.040173 81 85 64
0.307820 -0.059682 0.016573 128 129 123
-0.292090 -0.022669 0.384782 78 86 75
0.069658 0.193059 0.004326 112 124 116
0.174178 -0.001520 0.001967 113 122 115
-0.005993 0.035971 0.002772 91 106 103
0.366949 -0.299441 0.011629 144 144 140
-0.237126 -0.252400 -0.000745 138 144 142
0.340474 -0.064531 0.019747 68 68 70
-0.331139 0.026200 0.376521 86 92 90
0.327524 -0.206204 0.016288 145 142 139
0.226897 -0.133455 0.007294 127 131 126
0.211413 -0.266740 0.010971 143 143 137
0.302161 0.233484 0.014943 135 138 137
0.231093 0.229327 0.005275 127 134 128
0.255968 0.187389 0.005285 131 139 138
0.019390 -0.088432 0.009650 41 52 50
0.215922 -0.015139 0.001342 48 55 49
0.247737 -0.111526 0.013738 63 72 65
0.120484 -0.157272 0.001718 134 141 135
0.104092 0.444213 0.011974 130 134 127
-0.262573 -0.086132 0.412435 119 168 173
0.303828 -0.120546 0.013494 135 136 132
0.109037 0.031937 0.013306 99 113 104
0.227518 -0.052781 0.007352 121 128 122
-0.125366 0.099740 0.037567 98 114 105
0.103592 -0.180656 -0.004177 131 137 135
-0.289973 -0.092482 0.377727 55 66 64
-0.026563 0.428037 0.012510 134 141 135
0.161037 0.365621 0.004748 133 138 128
-0.062867 0.236832 -0.000391 120 134 123
0.251380 0.543419 -0.004564 139 140 134
0.295915 -0.268508 0.010574 146 145 145
0.280654 0.215030 0.010095 129 140 138
-0.058876 0.298261 -0.004774 125 139 130
-0.083419 -0.291888 0.001111 129 136 130
0.377777 -0.248768 0.019005 69 56 64
0.096873 0.316862 -0.003399 63 69 69
-0.238172 -0.079217 0.008120 108 119 115
0.048511 -0.215502 0.013196 124 131 125
-0.143163 -0.240303 0.004505 127 126 126
-0.087888 0.112323 0.042386 100 115 99
0.278848 0.162845 0.004504 81 84 83
-0.075937 -0.114757 0.004355 87 105 114
-0.168734 0.098310 0.002445 93 107 98
-0.056067 0.008657 0.003944 96 114 108
-0.277435 -0.249082 -0.000456 138 145 139
-0.275617 0.374344 -0.004799 140 147 139
0.176828 -0.079452 0.012115 122 129 123
-0.286180 -0.029066 0.395229 142 164 163
0.285625 -0.178084 0.007107 77 76 76
0.070319 0.122888 0.004784 106 120 111
-0.105346 -0.184562 0.005149 115 130 127
0.101904 0.230096 0.009332 116 127 123
-0.199920 -0.016791 0.020719 100 113 110
-0.324460 -0.245718 -0.000355 147 147 147
-0.234311 0.415839 0.000358 139 146 140
0.076208 -0.139705 0.009620 123 135 127
-0.355349 -0.095586 0.366520 100 136 144
-0.375588 0.007416 0.380737 72 81 74
0.017527 0.115260 0.001795 83 96 93
-0.033448 -0.000872 -0.001994 108 124 115
0.315801 -0.294046 0.008133 137 138 134
-0.102008 -0.143127 0.021233 37 98 122
-0.170179 0.230109 0.000859 45 60 59
0.264510 -0.137518 0.015403 131 135 128
0.294876 0.540693 0.008764 139 141 132
0.389036 -0.253592 0.018213 147 144 141
-0.226125 -0.084512 0.328252 51 66 61
-0.372161 -0.063187 0.378872 137 171 179
-0.071916 -0.104642 0.001465 53 64 62
-0.348473 -0.094747 0.364918 42 70 74
0.314817 -0.185772 0.009955 111 117 117
0.190012 0.399364 0.005910 133 140 134
0.332592 -0.103127 0.016983 139 140 134
0.000255 -0.056248 0.004174 94 106 96
-0.093555 0.343283 -0.004758 132 144 134
-0.091871 -0.004641 0.006569 24 39 36
0.217560 -0.297062 0.009185 143 140 135
-0.030669 0.532531 0.001440 136 140 133
-0.142100 0.375362 -0.000164 133 142 133
-0.360485 0.011367 0.381943 77 83 81
-0.310153 -0.090989 0.374482 60 71 67
0.003167 0.227108 0.004864 88 99 95
-0.202448 -0.168702 -0.002631 127 140 137
0.005160 -0.126094 0.006018 47 59 61
-0.014334 0.183562 -0.000505 107 121 110
0.296105 0.043583 0.003591 129 133 128
0.177883 0.470314 0.005458 96 100 95
0.212065 -0.255784 0.013885 139 141 132
0.058595 0.137029 -0.001137 102 116 105
-0.304797 -0.269780 -0.003220 144 147 146
0.328534 0.031096 0.008719 100 100 100
0.300123 -0.037188 0.008046 135 136 130
0.155341 -0.118964 0.007397 124 131 125
-0.262272 0.228779 0.005095 126 141 136
-0.164068 0.221690 -0.000663 121 135 124
-0.016977 0.362981 -0.002029 129 136 130
0.179351 -0.272745 0.008280 137 137 131
0.320197 -0.251603 0.016994 149 142 134
-0.284029 -0.093035 0.384275 57 65 62
0.358438 0.140000 0.006280 134 141 133
-0.005982 0.034262 0.001976 21 38 39
-0.430748 -0.007281 0.406384 102 111 104
0.150002 -0.184657 0.005338 128 139 135
0.039493 -0.220669 0.013820 121 127 125
-0.341256 0.058942 0.381517 84 95 91
0.101567 0.196463 0.006906 115 127 119
0.367618 0.491147 0.011138 149 146 141
0.324576 -0.292460 0.008041 139 135 128
-0.031223 -0.188190 0.005770 124 135 131
0.045117 -0.215479 0.013101 121 128 122
-0.351038 0.053610 0.382041 91 99 96
0.148955 -0.290180 0.006940 120 124 117
0.309447 0.431014 0.018850 144 144 138
0.350163 0.035189 0.009092 143 143 139
0.042585 0.130849 -0.002306 100 114 105
-0.483672 0.007830 0.436046 132 132 132
0.216816 -0.156587 0.006142 140 141 137
-0.245297 -0.041463 0.422733 126 170 177
0.029717 0.052828 0.011732 95 107 99
0.087060 0.022695 0.006111 90 108 102
0.100280 0.234850 0.009287 117 129 121
0.396640 0.162169 0.015584 140 141 137
-0.010898 0.530265 0.004312 135 139 132
-0.188650 0.370587 -0.001630 140 146 144
-0.374117 -0.042174 0.372041 89 102 101
0.094597 0.186711 0.007666 86 101 96
-0.328645 -0.124400 -0.001388 120 128 129
0.186075 -0.142827 0.008280 89 89 91
-0.084883 0.079804 0.010788 38 40 22
-0.001297 -0.149265 0.004961 120 134 125
0.320001 -0.085255 0.024911 137 138 134
0.109434 0.042954 0.016240 102 111 102
-0.307021 -0.094872 0.004204 116 128 120
0.212782 0.078728 0.008528 78 84 82
-0.265326 -0.085877 -0.000240 51 65 67
0.293153 -0.088661 0.018074 137 138 132
0.330401 0.034509 0.010367 143 144 140
-0.254131 0.499086 0.005390 142 146 139
-0.197297 -0.232878 0.000757 43 49 51
0.269952 -0.098242 0.012891 131 138 132
-0.261568 -0.197117 -0.000046 125 136 134
-0.148214 -0.238370 0.003040 131 139 136
-0.259034 -0.088288 0.411541 114 160 166
0.028810 0.268349 -0.002725 109 123 112
-0.100430 0.096576 0.023629 45 52 30
-0.191734 -0.056523 0.257385 21 29 26
-0.021333 -0.078755 0.008472 108 123 118
-0.152420 -0.082400 0.007104 102 113 111
-0.239938 -0.271423 -0.004171 144 148 143
-0.324751 -0.073567 0.383242 86 99 94
0.125254 0.094578 0.009869 109 118 111
0.262255 0.528796 -0.001102 132 133 129
0.321196 0.178686 0.005474 135 139 132
0.185510 -0.055811 0.004633 121 132 130
0.028816 -0.169181 0.006559 107 122 121
-0.416252 -0.013897 0.382789 47 55 54
0.187794 -0.201713 0.011817 134 138 133
-0.139892 -0.116075 0.008370 97 111 115
0.303526 0.262013 0.011714 134 140 138
0.353946 0.211938 0.008733 138 138 132
0.389713 0.486994 0.009893 143 143 137
0.024235 -0.210783 0.006912 126 132 130
-0.243383 -0.076591 0.011387 108 121 118
0.068598 -0.201786 0.012483 125 133 130
-0.097518 0.363526 -0.004285 136 143 135
0.338691 -0.069124 0.021968 100 100 100
0.149822 0.545859 0.003338 133 135 124
-0.285585 -0.059785 0.406327 128 169 175
-0.106819 -0.293904 0.004960 136 140 135
0.276466 0.019712 0.010625 78 86 83
-0.374361 0.042382 0.392639 102 106 101
-0.005762 -0.219752 0.009526 31 42 38
0.323527 -0.154940 0.006924 140 142 133
-0.275563 0.491782 0.006840 145 149 142
0.172195 -0.204473 0.016667 131 135 130
0.254207 -0.081608 0.013523 130 134 127
0.243792 -0.285590 0.006515 137 137 139
-0.136323 -0.166487 0.002667 55 70 67
0.079157 0.049912 0.009708 94 106 98
0.124467 -0.198180 0.003764 107 113 111
-0.123325 0.013113 0.011647 76 92 83
-0.363150 0.057875 0.382545 93 99 97
-0.328083 -0.034879 0.380183 73 84 80
0.120374 0.014882 0.005719 98 113 108
-0.065991 -0.090865 -0.000765 117 130 125
-0.447364 0.018443 0.420049 121 129 130
0.231388 -0.290320 0.006133 126 128 119
-0.059477 0.356277 -0.004267 109 117 116
-0.210548 0.502976 0.001938 135 144 135
-0.132103 0.163263 0.005134 109 123 112
-0.120111 -0.297329 0.007366 137 141 136
0.200766 -0.055238 0.003168 124 133 126
0.396471 -0.266638 0.017889 156 148 147
0.243432 0.168351 -0.001761 128 137 130
0.299713 -0.111582 0.014229 136 136 132
-0.406233 -0.007204 0.381803 59 67 68
0.070526 -0.101354 0.009642 116 128 120
0.071646 0.043111 0.006308 96 108 100
0.023530 -0.018675 -0.001886 79 97 91
-0.040292 0.192773 0.002974 102 113 113
0.312307 0.061607 0.014694 129 130 124
-0.215786 -0.233133 0.002269 134 140 138
0.380922 0.131168 0.010593 136 140 135
-0.468899 0.001797 0.416042 68 68 70
-0.146336 -0.286396 -0.002707 133 140 134
-0.333716 0.042496 -0.002197 32 46 37
-0.046686 0.027979 0.011025 47 56 49
-0.282314 0.382042 -0.004734 139 146 140
0.096834 -0.106981 0.010049 123 132 125
-0.281605 -0.064081 0.406658 123 169 175
0.015463 -0.128330 0.007506 113 126 121
-0.021994 0.524280 0.001180 137 138 132
0.060337 0.039762 0.004396 95 109 100
0.079275 0.188350 0.004641 86 92 90
-0.367962 0.078607 0.372184 147 172 177
-0.072019 0.276494 -0.002075 104 116 120
0.087521 -0.212688 0.015722 117 120 121
0.038139 -0.062122 0.004827 97 108 104
-0.189123 0.533603 -0.002998 142 143 137
-0.084766 0.100592 0.016055 45 49 28
-0.089800 -0.289794 -0.002527 132 139 133
0.371294 -0.000399 0.006424 138 142 137
0.204786 0.203807 0.008023 134 138 133
-0.209768 0.288756 0.002652 131 143 135
-0.007440 0.546923 -0.001067 134 139 129
-0.365701 -0.062595 0.380452 91 115 117
0.363312 0.454218 0.024710 146 144 136
-0.098931 0.127222 0.042357 23 23 17
0.098623 0.286532 0.007916 124 131 125
0.368517 -0.212625 0.022300 141 142 129
-0.171947 0.392838 0.000421 84 90 90
0.222796 0.247516 -0.000861 131 138 132
-0.096530 0.452882 0.000930 135 142 134
0.293320 -0.094776 0.019646 126 133 127
0.139370 0.284651 0.000586 127 134 128
0.155887 0.023131 0.010666 107 119 111
0.107170 0.154368 0.000725 66 77 75
-0.111930 0.220491 0.005921 115 131 122
-0.175972 -0.299413 0.000241 138 145 139
-0.112453 -0.195463 0.007577 119 130 126
0.172436 0.231447 0.012159 126 135 128
0.012517 -0.084505 0.009057 108 120 112
-0.375065 0.038854 0.393182 121 127 127
-0.196008 -0.054294 0.291394 33 43 46
0.196736 -0.125218 0.010189 128 135 129
0.328052 -0.194202 0.016374 150 147 142
0.012644 0.211614 0.003463 108 122 113
0.188260 0.141274 -0.002844 125 132 126
0.202172 0.341181 0.000169 134 138 131
-0.104700 0.026855 0.057247 22 30 27
-0.289149 -0.066301 0.403183 127 162 163
0.227936 0.194831 0.007877 131 138 132
0.260451 0.485917 0.002053 142 143 139
0.380680 0.145539 0.012862 138 139 135
-0.279157 0.515541 0.002340 141 148 142
0.085900 0.121018 0.004399 115 129 120
0.135367 0.093664 0.007552 109 118 111
0.157626 0.132427 -0.003503 115 127 119
0.073774 0.253385 0.006055 119 126 118
-0.080505 -0.298695 0.004653 134 140 138
-0.220788 -0.109867 0.152193 89 100 100
-0.362678 -0.079976 0.379076 126 162 168
0.046693 -0.289071 0.000960 109 121 113
-0.123940 -0.099947 0.009754 104 117 112
0.052679 -0.078612 0.008638 43 54 50
0.123494 0.415361 0.011285 117 120 121
-0.102823 -0.245516 0.005542 132 143 139
0.026569 -0.246392 0.009167 39 41 47
-0.292710 -0.061107 0.398869 133 158 163
0.202014 0.132495 0.001222 125 134 127
0.198040 -0.199120 0.007826 136 137 133
-0.270040 0.509370 0.003061 130 139 132
0.195034 0.351934 -0.000565 131 140 131
-0.361835 0.057866 0.382582 94 100 98
-0.099467 -0.123893 0.010403 35 90 107
-0.230480 -0.111765 0.166456 100 116 105
0.373296 0.201628 0.006743 135 136 132
-0.323006 -0.236405 0.002922 138 145 139
0.065994 0.199553 0.005028 112 121 114
0.005136 -0.211076 0.008387 116 124 121
-0.158881 -0.158927 0.027554 89 111 112
-0.197790 0.019641 0.000227 93 107 98
-0.353598 -0.093138 0.369921 106 143 146
-0.211816 0.207635 0.002341 120 134 125
-0.210181 0.300861 -0.000554 128 142 133
0.255926 -0.121831 0.011403 133 135 126
-0.121183 -0.219175 0.007302 131 140 133
-0.206066 -0.057550 0.330394 74 87 82
0.194956 0.074501 0.008212 120 129 122
-0.350946 -0.094730 0.364849 113 147 153
-0.323389 -0.017283 0.387417 109 123 125
-0.372278 -0.090774 0.364922 113 147 155
0.097304 -0.049273 0.007135 72 79 73
-0.321747 -0.212581 0.000811 135 142 134
0.157521 -0.182665 0.004293 135 141 141
0.381755 -0.078874 0.023185 149 146 141
0.302527 0.332714 -0.003956 138 142 135
-0.299479 -0.071012 0.005616 116 127 123
0.104552 0.108469 0.003552 104 118 107
-0.132352 0.137562 0.015231 100 114 103
-0.470109 -0.018788 0.396490 97 97 101
-0.311521 0.507545 0.004230 144 144 140
0.156021 -0.281678 0.003394 134 132 124
0.271303 -0.287572 0.008656 54 59 66
-0.204904 -0.144974 -0.004903 118 132 123
-0.079747 -0.190340 0.007671 120 133 128
-0.167123 -0.212172 -0.001905 66 69 68
-0.308485 -0.097022 0.367312 52 63 59
0.108498 0.188420 0.008894 68 76 73
0.129038 -0.288540 0.007083 117 123 121
0.114460 -0.220769 0.013902 131 138 132
-0.033559 0.395764 0.006096 132 139 133
-0.312361 0.040651 0.365074 86 95 88
-0.161074 0.100908 0.001686 97 113 102
-0.169153 0.326479 -0.000591 47 58 58
0.275300 -0.095033 0.014551 131 134 133
-0.323533 -0.072465 0.383793 85 98 93
0.378655 0.019690 0.007178 88 87 89
0.222847 -0.111358 0.013041 128 135 129
-0.011698 0.214360 0.006190 35 50 45
-0.050593 -0.201656 0.004415 112 115 116
-0.487099 0.027529 0.442904 155 152 147
0.001386 -0.134636 0.004131 118 132 123
0.081687 -0.057475 0.008347 112 121 114
-0.294121 -0.059498 0.398470 71 88 91
0.105941 0.248373 0.006932 121 132 128
0.154248 0.073906 0.008873 108 120 110
0.398670 0.262100 0.016927 139 140 134
0.200204 0.256959 0.002831 131 138 132
-0.300100 -0.207464 0.000557 140 148 145
0.319541 -0.041358 0.008917 137 137 133
-0.152236 0.274208 -0.000121 71 84 79
-0.346926 -0.034752 0.379655 89 95 93
0.113164 0.081073 0.015343 54 62 59
0.077662 -0.004824 0.004042 107 119 111
-0.093322 0.394252 0.006840 129 141 131
0.330789 0.152690 0.011326 120 126 126
0.360432 0.317222 0.011603 135 142 136
-0.304979 0.012136 0.363065 66 78 68
0.191000 -0.168551 0.004182 101 103 109
0.110828 0.330437 -0.004369 121 129 126
-0.024183 0.518236 -0.001702 135 136 130
-0.082319 0.502353 -0.004287 141 145 138
0.237113 0.404875 0.009944 138 139 135
-0.087284 0.251706 0.005772 122 136 125
0.374600 -0.107664 0.013973 144 138 142
-0.043619 -0.239078 0.005970 125 133 130
-0.215210 0.265291 0.004800 127 137 125
-0.123607 0.090180 0.039792 100 120 105
0.135876 0.382302 -0.000409 125 132 124
-0.005589 -0.158721 0.007046 129 140 138
0.374605 0.059045 0.020960 138 139 135
0.229725 -0.134028 0.009323 127 131 126
0.369330 -0.077491 0.019027 139 140 136
0.375180 0.163002 0.009786 89 90 86
-0.376597 0.009189 0.382634 84 90 88
-0.443631 0.010620 0.416523 119 127 128
0.190638 -0.071707 0.011737 121 129 126
0.160437 0.014734 0.011313 114 123 116
0.359374 -0.109776 0.014722 145 146 142
0.344730 0.351622 0.006162 135 136 132
0.193777 0.069309 0.010171 54 60 60
0.035056 -0.290501 -0.000069 118 127 120
-0.268011 -0.094436 0.402882 81 118 121
0.160899 0.326999 -0.002202 128 135 127
-0.229921 -0.132521 -0.004299 114 127 122
-0.117712 -0.147503 0.024224 69 113 127
-0.323856 0.406741 -0.003358 138 142 135
-0.206306 -0.273776 0.000196 138 145 139
0.219134 0.120761 -0.001500 126 134 131
-0.001438 -0.110433 0.008690 115 126 122
-0.336747 0.005878 0.376817 27 35 34
-0.070994 -0.269065 -0.001119 138 145 139
-0.197206 -0.008206 -0.000580 94 106 96
0.018793 0.104166 0.002187 21 36 33
0.230833 0.165639 -0.001209 132 140 137
-0.438019 -0.010034 0.401565 79 82 83
-0.060660 -0.270188 -0.004630 129 141 133
0.361933 0.272587 0.015146 138 139 135
-0.096670 -0.058974 0.010919 104 120 109
-0.063400 0.211883 -0.002091 114 128 117
0.056807 0.257929 -0.001186 121 129 126
-0.483285 -0.007280 0.426817 134 131 126
-0.086412 0.524811 -0.003891 135 142 136
0.355684 0.069943 0.011098 138 139 135
0.335046 -0.062857 0.020358 138 139 130
-0.378640 0.039446 0.394449 48 54 56
0.287822 0.549118 0.005845 137 137 133
-0.169376 0.350288 0.001658 68 79 79
0.185513 -0.111105 0.011995 133 136 137
-0.333590 -0.221753 -0.003829 144 147 146
-0.012495 0.378289 0.001927 128 137 128
0.231340 0.443855 0.024601 135 139 132
-0.050587 -0.236348 0.009231 127 133 131
0.386170 0.024651 0.005308 145 143 133
0.112325 0.388278 0.001639 127 134 126
0.310876 -0.173024 0.008042 138 139 130
