ply
format ascii 1.0
element vertex 1215
property float x
property float y
property float z
property uchar red
property uchar green
property uchar blue
end_header
0.342361 -0.032321 0.016315 88 88 84
-0.212688 -0.091028 0.402327 66 96 99
-0.244983 0.478511 0.000321 144 149 139
-0.169208 0.330330 -0.002413 52 60 61
0.178418 -0.247082 0.011502 102 101 101
0.260581 -0.069381 0.011104 133 137 130
0.027127 0.486200 0.003441 116 120 115
0.111902 0.045646 0.005828 97 109 99
-0.305639 -0.241742 0.004889 67 71 66
-0.103943 -0.208512 0.004732 130 142 134
-0.190074 0.109321 0.001734 99 115 104
-0.048469 0.456617 0.000730 133 139 137
0.108207 0.535538 0.004190 135 137 126
0.031512 0.003076 0.003851 91 103 95
0.394186 0.089112 0.020383 140 140 136
-0.459086 -0.031463 0.416526 94 98 93
-0.284698 -0.075481 0.007793 114 126 118
-0.339528 -0.016627 0.004048 117 126 117
0.162537 -0.226877 0.010502 137 138 132
0.122480 0.196661 0.003055 114 125 121
-0.357329 -0.109116 0.404447 114 148 156
0.187607 -0.057530 0.009460 121 130 123
-0.301735 0.025844 0.021725 90 105 104
0.253703 0.413975 0.008939 105 108 107
0.045162 -0.227826 0.007541 119 127 124
0.054567 -0.109275 0.005249 51 64 59
0.200485 0.301789 0.005648 134 138 133
0.133390 0.361637 0.002616 128 132 125
-0.179890 0.199822 -0.003400 115 130 125
-0.053088 0.063207 0.077476 104 118 98
-0.066931 -0.122311 0.023489 46 70 98
-0.143079 -0.285750 0.004225 131 138 132
0.269723 -0.133155 0.012802 124 131 123
0.179992 -0.017885 0.007907 70 79 72
0.395129 0.212940 0.022975 134 138 133
0.051090 -0.153104 0.006097 124 136 128
-0.112149 -0.172579 0.006009 107 118 116
-0.205904 -0.224769 0.002151 133 139 137
0.265020 0.370999 0.009937 137 137 137
-0.203313 -0.122441 0.004948 33 43 48
-0.300616 -0.195934 0.002443 134 143 136
-0.235866 0.538113 0.000543 144 149 139
0.185159 -0.294227 0.012616 128 132 125
-0.127802 0.224769 -0.001196 123 135 125
0.183173 0.221552 0.005512 119 127 124
0.158889 -0.055209 0.008097 120 129 122
0.130515 -0.296959 0.010553 128 132 125
0.088307 -0.146436 0.008009 44 56 48
-0.008453 -0.012878 0.003239 99 107 108
-0.298716 -0.037894 0.014149 103 114 112
-0.143611 0.032118 0.000417 89 101 91
0.215519 0.512533 0.006360 99 99 95
0.090807 0.483363 0.004767 133 140 134
-0.185326 0.290967 -0.003693 134 143 134
0.034897 -0.205683 0.006934 51 63 65
0.283899 0.198098 0.011100 133 137 132
-0.180866 0.422273 0.000100 134 143 134
0.374903 -0.184939 0.021123 61 61 63
0.277598 -0.265936 0.015201 144 139 135
0.243601 0.054750 0.010482 59 67 66
0.216226 -0.149030 0.011358 78 77 77
-0.178007 0.207343 -0.004258 116 130 121
0.117731 -0.047229 0.007038 50 53 54
-0.216744 -0.073023 0.420938 115 161 165
-0.297584 -0.094123 0.388855 27 37 40
-0.170576 -0.065607 0.002054 28 44 35
0.211821 -0.141928 0.011639 128 135 127
0.203745 0.129035 0.007711 127 136 129
-0.492246 -0.026908 0.459055 119 119 115
-0.273835 -0.097871 0.409365 107 142 145
-0.062428 0.329096 -0.002218 128 140 130
0.066445 0.045889 0.004698 96 110 101
0.274236 0.007170 0.011414 130 134 129
0.130489 0.533041 0.004215 133 134 128
-0.257046 0.449090 -0.001033 139 147 136
0.310203 0.203839 0.013582 85 88 87
0.263791 0.101613 0.010803 128 136 133
-0.174290 -0.296765 0.004286 138 145 139
-0.148123 -0.263174 0.004024 135 143 140
0.378282 -0.029789 0.020291 139 140 136
0.069535 0.324446 -0.000348 122 129 121
0.245143 0.414129 0.008580 137 138 132
-0.123255 -0.020563 0.001370 97 111 102
0.045240 -0.014868 0.003832 87 100 95
0.355775 0.450244 0.019579 143 143 137
-0.227457 -0.086937 0.424150 112 157 166
0.178411 0.049041 0.008394 96 103 97
-0.312503 -0.015491 0.016227 109 121 111
-0.362162 -0.019154 0.401216 48 57 50
-0.045086 -0.098100 0.004465 118 131 126
0.257117 0.358351 0.009324 137 138 132
0.265431 0.125785 0.010607 131 135 130
-0.047178 0.422455 -0.000797 130 139 132
-0.462087 -0.109654 -0.002572 81 84 83
0.297400 0.320657 0.012671 140 141 135
-0.189956 -0.000282 -0.000323 95 106 104
-0.303011 0.015342 0.383894 82 91 84
0.174177 -0.189342 0.010496 126 132 130
-0.073080 0.424612 -0.000641 140 153 140
-0.222675 0.376290 -0.002918 139 147 136
0.059588 0.334166 0.000090 125 133 132
-0.018407 0.332988 0.000248 131 143 135
-0.314481 -0.093799 0.406042 78 91 86
-0.035931 0.509149 0.001796 65 64 64
0.284549 0.273852 0.011882 133 140 134
-0.269895 -0.042806 0.012167 101 115 106
0.006875 -0.188170 0.005637 116 129 124
0.353034 -0.032652 0.017288 143 143 137
0.249615 -0.069392 0.011045 122 128 128
-0.330232 0.122355 0.159179 138 150 152
-0.263994 -0.100967 0.006217 59 70 68
0.075554 0.416675 0.002100 128 135 129
-0.151132 0.516541 0.000727 141 145 138
0.223339 -0.184399 0.011594 134 141 133
-0.313262 0.485745 -0.002947 146 147 141
-0.217493 -0.231564 0.002796 133 139 137
-0.232764 -0.100407 0.346588 45 60 55
-0.498840 -0.069277 -0.001088 80 87 79
-0.217775 -0.223164 0.002602 134 140 138
0.379575 0.136589 0.021014 140 142 133
-0.238652 -0.101397 0.409063 90 126 132
-0.052228 0.038790 0.057906 53 64 60
0.387002 0.209179 0.021374 140 141 137
0.197712 0.021965 0.009167 119 128 119
0.090292 0.269196 0.000772 114 125 121
0.210874 -0.276794 0.013202 143 143 139
0.350053 -0.200001 0.019161 145 143 135
-0.208277 -0.101055 0.267037 15 23 22
-0.454406 -0.028613 0.420943 58 61 60
-0.320717 -0.056201 0.411438 77 85 82
-0.185494 -0.131873 0.006345 101 114 111
-0.311362 -0.054043 0.405586 69 80 76
0.171055 0.490042 0.005192 136 140 133
-0.146541 -0.235146 0.003567 133 141 138
0.113124 0.037518 0.005466 107 116 107
-0.171529 0.352567 -0.001431 126 134 131
0.071196 -0.140947 0.007592 122 134 126
0.310000 0.079244 0.013213 123 123 123
-0.088188 -0.162541 0.014834 82 105 110
-0.061605 0.362258 -0.001922 134 143 134
0.167522 0.429901 0.004264 103 107 102
0.134499 -0.190649 0.008702 131 137 135
-0.372311 -0.085484 0.411983 138 172 180
0.044970 0.146556 0.001672 95 111 102
0.149053 -0.076435 0.008565 75 82 76
0.311543 0.087953 0.012926 129 128 128
0.314394 -0.047391 0.014641 140 140 140
-0.440362 0.022420 -0.004489 118 126 123
-0.178885 -0.109280 0.003876 107 120 117
-0.408075 0.004708 -0.000389 128 143 140
-0.175186 0.146714 -0.002075 107 119 111
-0.255846 -0.023847 0.018265 115 126 122
-0.480515 -0.023048 0.405226 56 61 68
0.216292 -0.208547 0.011686 65 67 75
0.210286 0.544927 0.005593 134 141 133
0.134662 0.008595 0.006361 107 115 112
-0.046210 0.181919 -0.002150 101 116 102
0.010113 -0.191660 0.005756 119 130 126
0.222187 0.293747 0.006874 133 140 134
0.308519 -0.102333 0.014310 133 134 128
0.240506 0.325689 0.008145 137 141 136
0.125219 -0.164309 0.008344 128 135 129
0.003039 -0.195041 0.005453 120 129 122
0.129235 -0.126588 0.008308 93 99 99
-0.016328 0.440586 0.000865 134 141 135
0.355396 0.090825 0.016405 138 139 135
-0.310685 -0.197684 0.002647 135 144 137
-0.112298 0.382082 -0.001508 130 139 130
0.131157 0.010684 0.006169 105 116 112
0.177871 0.107347 0.006821 114 120 120
-0.308143 -0.027116 0.016147 111 123 115
-0.101281 0.013411 0.056604 18 26 23
-0.062668 0.060447 0.012003 113 123 107
0.047218 -0.288360 0.007552 104 116 108
0.071727 -0.197219 0.007335 125 133 130
0.104839 0.434705 0.003789 129 136 128
-0.333839 -0.107452 0.406672 73 84 82
0.027070 0.318423 0.000214 119 131 123
0.085186 0.064960 0.004493 86 99 94
0.192995 0.012188 0.008154 119 126 120
0.128692 -0.298527 0.010486 124 128 123
0.349481 0.331768 0.019231 142 143 137
-0.250471 -0.209724 0.003027 129 136 130
-0.408356 0.005262 0.440992 113 119 119
-0.493132 -0.122928 -0.001011 76 85 76
-0.174844 0.121667 -0.000789 79 90 86
-0.269058 -0.102836 0.374167 48 60 52
0.166960 0.014272 0.007717 113 122 115
0.080977 0.084091 0.004432 102 116 107
-0.329751 -0.125514 0.002434 35 43 44
0.021760 -0.118496 0.005121 114 128 119
-0.186324 -0.184149 0.003456 124 132 129
0.272061 -0.182976 0.012915 140 140 134
0.373766 0.407631 0.022439 141 141 135
-0.303016 -0.153206 0.005604 128 140 132
0.228668 0.296123 0.007147 135 139 134
0.109498 -0.214608 0.008575 130 139 132
-0.208919 0.526997 0.000645 147 148 142
-0.336759 -0.217403 -0.000290 149 153 148
0.266787 -0.140377 0.012741 137 137 131
0.321375 0.401771 0.015470 143 144 138
0.029960 0.095680 0.002003 97 113 104
-0.085311 0.011208 0.087283 28 31 30
0.296411 0.315204 0.013232 140 142 133
0.389553 0.304631 0.022766 87 87 87
0.202722 -0.170294 0.011176 114 120 118
-0.315954 -0.256718 0.006585 142 146 141
-0.146793 -0.162212 0.006625 44 56 58
-0.051699 0.270748 -0.000435 100 114 105
0.170233 -0.282910 0.011815 140 140 136
0.232335 0.029622 0.010840 61 72 72
-0.380126 -0.017427 0.000655 119 130 128
0.340877 0.355204 0.018495 141 138 133
-0.205641 -0.103873 0.263028 19 25 25
0.353922 -0.056106 0.017733 138 139 128
0.047215 0.238156 -0.000560 111 125 114
0.326022 0.119785 0.014543 136 140 135
0.187288 -0.253908 0.012786 60 63 62
-0.177599 -0.295179 0.004314 136 143 137
-0.002790 0.307676 0.000647 118 130 122
0.339653 0.121513 0.015633 68 67 67
-0.243104 0.487167 0.000048 144 148 141
-0.012797 0.011481 0.002556 42 58 49
-0.252377 -0.015270 0.021197 73 86 81
0.367543 0.096638 0.017857 136 136 136
-0.005574 0.080624 0.001553 90 104 95
-0.386538 -0.028826 -0.000355 123 136 133
-0.060181 0.078739 0.082427 97 107 93
0.263586 0.073741 0.010745 127 136 129
0.143596 -0.171491 0.008865 126 135 128
-0.447963 0.019535 0.461553 98 98 98
-0.108365 -0.285950 0.004943 121 133 125
-0.151939 0.211041 -0.002214 118 130 122
0.155593 0.515196 0.005351 135 139 132
-0.320818 -0.033430 0.012333 116 125 118
0.327226 0.305554 0.016806 93 96 95
0.059461 -0.114879 0.005514 117 131 122
-0.147803 0.174459 -0.002788 109 123 114
-0.047584 -0.297406 0.006119 129 135 133
-0.164161 0.018355 -0.001110 93 107 96
-0.368248 0.025010 -0.004875 110 123 120
-0.193157 0.514948 0.001621 138 141 142
-0.061128 0.300834 -0.001347 124 138 129
-0.111083 0.529134 0.000335 137 141 134
0.135439 0.166323 0.004077 116 124 121
-0.117996 0.183265 -0.001702 116 128 118
0.142403 0.345707 0.003361 121 130 123
-0.262128 -0.087503 0.431723 121 170 175
-0.478704 -0.024193 0.409272 46 46 50
-0.182553 -0.101950 0.004003 108 121 116
-0.322609 -0.259658 0.004821 139 140 136
-0.036609 -0.112599 0.003520 55 71 92
-0.266076 -0.167013 0.004620 129 143 134
-0.363827 0.018534 0.427621 142 142 144
0.298125 0.227970 0.012348 91 92 86
0.254123 -0.236094 0.014263 134 137 138
-0.015357 0.256098 0.000335 116 130 119
-0.301426 -0.016348 0.362143 108 119 117
-0.337954 -0.007870 0.006819 116 131 126
0.383190 -0.160618 0.021909 144 145 141
0.014547 -0.280221 0.007231 120 126 124
0.333780 -0.256820 0.018562 146 141 137
-0.014016 0.063725 0.001285 95 108 105
0.093554 -0.221216 0.007853 131 137 135
-0.324116 0.031846 0.021530 122 134 124
-0.195615 -0.094177 0.132086 56 64 63
-0.232703 -0.133703 0.006247 31 46 41
-0.130312 0.060307 -0.001985 78 93 79
0.219830 -0.008561 0.009932 69 69 71
0.067342 -0.016911 0.004214 96 109 104
-0.243319 -0.074905 0.433064 123 171 179
-0.215044 -0.083563 0.004485 44 57 56
0.355608 0.050469 0.016706 138 139 135
-0.470878 -0.004764 0.472569 113 116 117
-0.310306 -0.021347 0.016266 108 120 112
0.091193 0.308520 0.001178 130 138 139
-0.328815 -0.111434 0.004038 50 56 54
-0.089872 -0.098330 0.004890 105 120 117
0.042112 -0.202178 0.006529 119 127 124
-0.197822 0.527064 0.000800 125 126 120
-0.164037 0.005829 -0.000217 92 106 95
0.033857 -0.220914 0.006689 119 125 123
0.348172 -0.273391 0.020401 149 144 142
0.045464 -0.010996 0.004111 80 95 90
0.261156 0.069637 0.010422 85 93 92
-0.311588 -0.091417 0.404098 76 91 86
0.089894 0.406026 0.002286 76 82 80
0.347111 -0.198198 0.018779 143 140 135
-0.344770 0.015297 0.413842 85 92 86
0.109651 -0.144665 0.008164 125 136 132
0.288445 0.530311 0.010445 82 82 78
0.046925 0.063163 0.003309 93 105 95
0.201022 0.218987 0.006148 128 137 130
-0.491728 -0.026169 0.423024 66 66 68
0.130361 0.173659 0.003124 117 125 122
-0.125311 0.325625 -0.002093 133 145 135
0.088194 0.242500 0.000851 123 134 132
0.281606 -0.060328 0.012765 128 132 127
0.347219 -0.206717 0.018596 146 147 143
-0.233999 -0.087586 0.427602 111 156 165
-0.306868 -0.088847 0.008504 113 127 118
-0.494745 -0.046489 -0.000834 79 87 84
-0.324929 -0.037600 0.406074 76 87 85
-0.221541 0.416801 -0.000577 136 143 137
-0.145271 -0.063832 0.002650 107 120 115
-0.347566 0.062979 0.384623 92 109 110
0.182917 0.272660 0.004561 61 66 71
0.209557 0.128928 0.008001 131 140 133
-0.097853 0.082950 0.004204 37 40 24
0.198704 0.104705 0.008040 121 135 126
0.006864 0.131427 0.000217 98 110 100
-0.136090 0.024187 -0.000100 88 104 95
0.294246 0.052016 0.012544 132 133 129
-0.321469 -0.089925 0.413609 87 100 97
0.399158 -0.126654 0.022288 142 143 139
0.185434 0.544655 0.005369 138 139 126
0.360423 0.214731 0.019504 136 140 135
-0.005216 -0.021009 0.003776 90 104 93
0.163319 0.387133 0.004092 126 130 123
-0.449572 -0.032887 -0.000573 106 114 113
0.019632 -0.123990 0.005124 121 129 126
0.192523 0.179712 0.005551 127 136 127
-0.448661 -0.025089 0.402216 69 80 80
0.270165 -0.029072 0.012219 133 137 132
-0.306428 -0.250293 0.006955 139 146 140
0.126537 0.408143 0.003699 128 132 127
0.247237 0.052796 0.010229 127 135 132
0.027481 0.029369 0.004159 97 111 100
0.310955 0.208532 0.013552 118 124 122
0.082608 0.079924 0.004234 33 48 43
-0.141664 -0.042314 0.001730 44 55 53
0.332538 0.197863 0.016149 140 140 134
0.017174 0.412078 -0.000007 128 135 129
-0.055884 -0.149779 0.026319 72 32 59
-0.356415 -0.083436 0.420571 142 174 183
0.396025 -0.057391 0.021682 143 144 138
-0.093416 -0.282827 0.005141 64 63 70
0.194929 0.365344 0.005760 135 139 132
-0.391956 -0.019644 0.403717 62 73 73
0.285602 0.478275 0.011334 107 104 99
0.183500 -0.247099 0.011548 118 115 112
-0.446335 -0.016703 -0.001899 117 125 122
-0.053914 0.498279 0.000883 133 140 134
-0.112902 0.312706 -0.001411 82 95 90
0.156411 0.175741 0.003904 118 127 120
-0.319111 -0.029972 0.013416 114 126 116
-0.372109 0.001284 0.428998 121 127 127
0.096076 -0.102379 0.007169 121 133 125
-0.465338 -0.113114 -0.003262 82 86 81
0.345221 0.013591 0.016239 133 137 132
-0.194376 0.037413 0.001741 51 62 60
-0.241691 -0.254787 0.003800 140 146 144
-0.340009 -0.069013 0.419003 95 103 100
-0.204227 -0.089684 0.321144 29 36 40
-0.205672 -0.100293 0.004467 106 119 114
0.027469 -0.239314 0.006617 30 41 39
0.078243 0.390919 0.000984 75 82 76
0.383570 0.528276 0.020870 145 144 144
-0.194691 -0.071331 0.340195 43 51 52
-0.365633 0.015042 0.428316 54 60 62
-0.182018 0.086167 0.000803 101 115 106
-0.246830 -0.071626 0.434226 125 171 177
0.215344 0.341602 0.006818 129 133 126
0.371799 0.473230 0.022056 146 146 140
0.084999 0.308720 0.000779 124 132 129
-0.461999 -0.031682 0.421207 50 52 58
0.147022 -0.185651 0.009578 128 139 135
-0.080450 0.011412 0.065680 21 27 25
0.390569 0.359601 0.023831 145 145 141
0.336752 0.152168 0.016367 136 137 131
-0.061747 0.540991 0.001053 134 138 131
-0.150073 -0.201468 0.003858 52 60 57
-0.310927 0.074146 0.374809 134 167 171
-0.185099 -0.156294 0.004162 118 130 122
0.339307 0.021865 0.015860 96 95 97
-0.131293 -0.215225 0.004515 135 146 144
0.196007 -0.141814 0.011168 129 136 128
-0.312277 -0.199375 0.002571 140 148 145
-0.316513 -0.062950 0.411274 77 88 84
-0.008593 0.472744 0.002112 133 139 137
0.118717 -0.019574 0.006496 112 121 114
-0.122689 0.437058 -0.000279 137 145 142
-0.292738 -0.101982 0.363616 24 32 33
0.010428 -0.267227 0.006764 124 130 128
-0.067868 0.467425 0.000637 78 86 87
-0.208296 -0.086652 0.361852 65 81 72
-0.184665 0.538647 0.001029 143 145 136
-0.169570 -0.280871 0.004136 75 82 86
0.273957 0.090979 0.010623 135 140 130
-0.053854 0.416646 -0.000406 132 141 134
0.348278 0.105803 0.016572 136 136 136
0.217176 -0.130860 0.010895 42 48 50
-0.118730 0.072364 0.058489 65 70 56
0.096901 0.477428 0.005275 131 135 128
-0.317962 -0.051994 0.010664 110 123 118
0.301308 -0.262936 0.016460 139 139 133
-0.246823 -0.130146 0.006340 115 129 120
-0.097217 0.393183 -0.001927 71 77 75
0.236803 0.523725 0.007118 141 141 135
0.088918 -0.160533 0.007372 46 55 46
-0.272814 -0.170441 0.004333 130 139 130
0.323300 0.305903 0.016241 98 98 98
0.375446 -0.205706 0.021705 64 64 64
0.223585 0.019621 0.010184 121 128 122
-0.171948 0.204610 -0.003494 39 52 49
0.277775 -0.236261 0.014965 144 144 138
-0.259807 0.403250 -0.004400 141 145 138
0.161818 -0.284419 0.011329 134 134 130
-0.115631 -0.175976 0.005615 109 122 117
0.214292 -0.210265 0.011751 114 120 118
-0.227264 -0.283877 0.003976 106 109 112
0.077232 0.509255 0.003995 93 99 99
0.120881 -0.121124 0.008316 116 124 125
-0.383019 -0.025937 0.393202 60 61 57
0.181228 -0.175383 0.010429 131 132 126
0.395804 0.192743 0.021865 138 138 134
-0.446558 -0.023579 0.408880 28 34 34
0.008363 -0.247490 0.006213 109 120 116
0.135385 0.107887 0.005141 109 120 118
-0.311604 0.025681 0.391074 90 97 89
-0.062308 0.422316 -0.000924 132 141 132
0.000045 0.522707 0.003359 141 144 143
0.021980 -0.293040 0.007414 120 124 117
-0.437335 -0.032260 -0.002100 128 136 135
0.262259 -0.021037 0.011767 129 133 126
0.092730 -0.157014 0.007511 124 136 128
0.206722 -0.258947 0.013292 139 141 132
0.395736 0.067821 0.020477 120 120 116
0.089625 -0.151754 0.007829 114 120 118
0.186579 0.407410 0.005790 89 92 93
0.398587 0.243319 0.023524 137 137 133
-0.338436 0.022291 0.006429 127 142 128
0.262923 -0.088460 0.011535 81 81 85
-0.179961 -0.254800 0.003097 136 142 140
0.036729 -0.227716 0.007030 120 126 124
-0.299653 -0.104140 0.365161 54 66 58
-0.167227 0.342456 -0.001548 112 123 121
0.361152 0.029672 0.017008 69 72 75
0.315290 0.402388 0.014581 73 74 70
-0.222112 -0.098725 0.398956 61 84 89
0.308440 0.068824 0.012775 62 61 65
-0.111092 0.019640 0.033620 18 26 23
-0.115635 0.229918 -0.001650 112 128 119
-0.200542 0.138584 -0.003912 100 115 110
-0.066265 -0.024966 0.003153 107 123 114
-0.492486 -0.030376 0.435772 87 87 87
-0.069229 0.014508 0.058933 24 33 26
0.286132 0.011204 0.011597 129 133 126
-0.050121 0.393581 -0.001521 77 85 84
-0.232731 -0.057410 0.433176 117 165 173
0.259905 0.363511 0.009414 140 140 136
-0.013838 -0.149723 0.006631 119 127 124
-0.108849 0.084872 0.089183 107 124 110
0.330149 -0.208147 0.017376 112 111 113
-0.334614 0.165274 0.117243 47 47 43
-0.161981 -0.016274 0.000107 97 111 102
0.225993 -0.201689 0.011603 139 140 131
0.338205 0.312129 0.018302 133 140 132
-0.098434 -0.285981 0.004954 113 119 121
0.382732 -0.072124 0.020059 146 141 137
-0.451656 0.014310 0.464519 155 156 147
-0.120315 0.475144 0.000302 136 143 137
-0.071923 0.191093 -0.002502 114 125 121
0.342170 -0.112030 0.015943 132 128 129
-0.243979 0.377307 -0.004647 137 146 139
0.018425 0.003036 0.003794 87 99 91
0.116880 -0.287236 0.009512 50 56 54
0.336756 0.127980 0.015845 137 138 132
-0.407036 -0.028058 -0.002571 129 140 138
-0.166980 -0.063750 0.002226 107 120 115
-0.454981 -0.111323 -0.003073 82 88 86
0.319914 0.004283 0.014026 137 138 132
0.363011 0.443806 0.020866 150 147 142
-0.339442 0.041379 0.009270 132 142 130
-0.454253 -0.003234 0.467119 117 116 118
-0.137816 0.526138 -0.000090 140 144 137
0.078534 0.276721 0.000292 118 127 120
-0.166190 -0.287245 0.004009 140 146 146
-0.329066 -0.227647 0.000586 145 148 147
0.344639 -0.228647 0.018357 96 93 90
0.170213 0.090227 0.006320 119 128 121
0.075572 0.517765 0.004035 135 137 128
0.364698 0.226744 0.019176 77 81 76
0.364535 -0.280088 0.021921 149 141 138
0.376928 -0.100326 0.020146 140 141 137
-0.044237 -0.295858 0.006298 130 138 135
-0.199188 -0.287071 0.003443 131 137 135
-0.437381 -0.019773 0.416398 78 77 79
-0.370900 0.016105 -0.003105 113 128 125
-0.040260 0.438145 0.000045 137 146 139
0.383370 0.004175 0.019846 142 143 137
-0.110165 0.382156 -0.001562 128 137 128
0.215781 -0.187919 0.011789 141 141 137
0.232481 0.542053 0.006007 136 140 135
-0.325621 -0.060574 0.414104 84 87 86
0.145661 -0.043389 0.007430 112 119 113
0.339879 0.513418 0.017409 149 146 141
0.045264 0.412360 0.000192 129 135 133
0.027574 0.151276 0.000977 58 73 72
-0.396742 0.011018 0.439280 133 139 137
0.270431 0.134352 0.011211 128 132 127
-0.274545 -0.136994 0.005014 122 134 126
-0.169289 -0.022277 0.000212 92 108 99
0.366498 0.168943 0.019087 137 138 132
0.068571 0.121600 0.003031 104 118 109
0.302148 -0.035285 0.013403 131 138 130
-0.136371 -0.182717 0.004704 116 129 126
0.348979 -0.238850 0.019340 142 139 134
0.288827 0.407044 0.011582 137 141 136
-0.012173 -0.188160 0.005615 117 130 125
-0.106364 0.148883 0.046058 70 63 53
-0.245846 -0.082751 0.259398 54 65 61
-0.075070 0.328425 -0.001525 134 148 139
0.258834 0.419605 0.008733 136 138 129
-0.344808 0.002630 0.412831 83 90 84
0.036131 -0.257659 0.007705 124 131 125
-0.077906 0.088775 0.082398 93 106 89
-0.039222 -0.088379 0.003334 122 137 136
-0.261222 -0.231595 0.003307 66 70 65
-0.322782 -0.107138 0.387687 54 68 59
0.064935 -0.113089 0.005713 116 130 121
0.314653 -0.096938 0.014950 130 131 125
-0.319062 -0.147706 0.004876 133 139 137
-0.091076 -0.069787 0.003807 107 120 115
0.048872 0.231265 -0.000949 104 113 106
-0.025925 0.053163 0.001258 83 97 88
-0.063958 0.020413 0.014166 45 57 49
-0.323739 0.237982 -0.003001 127 164 165
-0.087605 0.052126 0.016103 64 74 58
0.297232 -0.222911 0.015145 145 142 137
0.199896 0.452791 0.006966 137 138 134
0.097591 0.336481 0.001127 125 137 127
0.168873 0.295197 0.003807 128 135 129
0.349685 0.194933 0.017456 137 138 134
0.339396 -0.261792 0.018930 149 140 135
0.070564 0.171715 0.001564 111 123 115
-0.131935 0.176541 -0.002182 111 125 114
0.237789 -0.097986 0.011868 127 136 129
-0.065468 0.478077 0.001245 143 144 138
-0.152671 -0.032518 0.001481 99 115 106
-0.459158 -0.027891 0.430495 62 62 64
0.098798 -0.185177 0.007599 131 137 135
-0.464133 -0.107764 -0.002764 80 86 84
0.394633 0.344896 0.022978 113 112 112
-0.297974 0.013615 0.358507 83 85 72
0.320676 0.354743 0.015313 141 146 136
0.201216 -0.022512 0.009828 124 130 128
-0.310794 -0.095898 0.399920 74 85 81
-0.056875 0.382598 -0.001104 131 140 133
0.132084 -0.083795 0.007827 124 133 126
-0.077365 -0.098346 0.005022 104 117 112
-0.128947 -0.057918 0.002301 107 121 112
-0.344980 0.004118 0.412812 84 91 85
-0.087408 0.478018 0.000869 138 142 137
0.126042 0.301106 0.001689 124 133 124
-0.255411 -0.044700 0.012240 105 113 112
-0.265779 0.206697 -0.000846 114 138 138
-0.215286 -0.099346 0.266469 11 19 16
0.352092 -0.086282 0.017000 143 140 135
-0.316052 -0.165380 0.005029 126 137 133
-0.002731 -0.291327 0.007051 45 48 49
0.256984 0.175651 0.009651 135 138 137
0.324635 -0.194167 0.016228 146 143 138
-0.128470 0.037839 -0.002991 56 71 68
0.079287 0.475254 0.004206 129 136 128
-0.147268 -0.000446 0.000569 97 109 99
0.215789 0.458244 0.007360 136 137 133
-0.433946 -0.045885 -0.001899 127 135 132
0.011395 -0.021083 0.004143 90 102 92
0.112534 0.480307 0.005498 133 137 130
0.070376 0.071322 0.004256 40 51 47
0.128983 -0.282530 0.009946 127 131 126
-0.012334 -0.286435 0.006427 108 115 109
0.324609 0.209771 0.015570 139 140 134
0.018337 -0.297790 0.007472 120 127 121
-0.202466 -0.078190 0.359159 49 62 59
0.182372 -0.095917 0.010852 49 55 57
-0.168750 -0.213293 0.003534 137 145 142
0.004198 0.195086 -0.000164 106 121 120
-0.187176 0.276812 -0.004616 66 81 78
-0.054031 0.408982 -0.000880 134 141 133
-0.475187 -0.115377 -0.001864 79 88 81
0.000828 0.058805 0.003004 87 103 94
0.250930 0.443720 0.008979 138 142 137
-0.215712 0.444728 0.001733 140 147 139
-0.101892 -0.293977 0.005402 143 147 142
-0.222083 -0.194466 0.003371 126 134 131
-0.216810 -0.097261 0.285910 10 18 17
-0.249316 0.476306 -0.000433 136 140 133
-0.072682 -0.250594 0.006016 123 135 127
0.085967 0.031097 0.005643 34 45 43
-0.158870 0.062006 -0.001511 93 109 100
0.008177 -0.138403 0.004694 118 129 125
-0.313495 0.528887 -0.003573 150 150 144
0.013467 -0.048550 0.004359 74 89 86
-0.189310 0.167590 -0.003385 108 122 113
-0.497506 -0.020433 0.472856 136 132 133
0.247732 -0.032644 0.011056 127 135 136
0.319391 0.113579 0.013751 129 136 128
-0.404069 0.019024 -0.000867 132 145 142
-0.255072 -0.105277 0.387586 47 61 52
-0.292493 -0.281275 0.009430 61 50 56
-0.218855 -0.076325 0.421980 118 164 170
0.161271 -0.183837 0.009256 134 138 133
-0.031290 -0.026810 0.003199 107 123 114
-0.000869 0.133633 0.000120 101 113 103
-0.074645 0.016015 0.005453 57 68 64
0.075819 0.067141 0.004221 96 108 98
0.207744 0.464020 0.006918 131 135 130
0.272824 -0.177802 0.013189 141 141 135
-0.371079 -0.082432 0.413732 140 174 182
0.349688 -0.089951 0.016720 63 63 59
-0.151885 -0.182600 0.004217 120 133 128
0.182596 -0.163232 0.011139 138 142 137
0.253031 0.003172 0.011067 124 133 124
0.081149 -0.109679 0.006725 118 130 122
-0.102309 0.083941 0.019260 38 41 23
-0.058571 0.166285 -0.002978 103 117 108
-0.155540 -0.146838 0.040575 76 109 122
-0.260979 -0.088293 0.007152 99 114 111
-0.178099 0.214275 -0.004113 116 130 121
-0.457354 -0.041066 0.000493 88 96 93
-0.044211 -0.026884 0.003257 83 98 95
-0.326595 0.000716 0.405115 84 91 85
-0.085179 0.480646 0.001106 140 144 139
-0.208560 -0.122554 0.249777 18 24 24
-0.071635 -0.163333 0.024665 18 54 89
-0.313429 0.032957 0.391698 91 100 91
0.327515 -0.230149 0.017584 140 140 136
-0.395844 0.013699 0.439616 131 134 133
0.303190 0.263374 0.013310 131 139 138
0.203837 0.056892 0.009846 115 127 119
0.239132 0.036108 0.010243 122 129 123
-0.131799 0.239133 -0.001460 121 135 126
-0.053559 -0.084844 0.003903 48 65 66
0.011086 -0.283351 0.006758 122 128 126
-0.201587 -0.118583 0.223580 26 34 31
-0.333315 -0.109466 0.402884 66 79 78
-0.034441 0.416787 -0.000199 131 134 133
-0.413321 0.012049 0.443488 139 140 136
0.025983 -0.136596 0.004762 125 136 134
0.079455 -0.261172 0.008622 128 132 127
0.119203 0.506408 0.004851 133 140 132
-0.293102 -0.087978 0.390147 72 78 78
0.366276 -0.255848 0.022098 144 144 138
0.294771 0.388416 0.011745 87 87 83
0.393964 0.526977 0.022488 151 147 140
-0.149079 -0.012530 0.000813 93 109 100
0.099968 -0.290331 0.009178 114 123 114
0.246595 0.171383 0.008967 119 125 127
0.363513 0.208091 0.018959 138 139 135
-0.239800 -0.078228 0.431984 118 168 176
0.197733 0.142747 0.006930 126 133 125
0.092380 0.296246 0.000896 120 129 122
0.329267 -0.150351 0.016583 143 144 138
-0.462625 -0.104306 -0.002042 80 86 84
0.178200 -0.271768 0.012538 138 138 132
0.270604 0.021212 0.011809 124 133 126
0.205897 0.027927 0.009690 121 130 123
0.041328 -0.210891 0.007351 118 127 120
-0.125117 -0.024486 0.001293 97 112 107
-0.424107 -0.005351 0.441504 128 131 130
-0.374128 0.032299 -0.002916 137 148 144
0.039872 0.218957 -0.000365 111 123 113
0.206756 -0.191265 0.011280 135 139 132
-0.107744 -0.162590 0.028401 76 110 116
0.239075 -0.277004 0.014123 143 143 137
-0.045199 -0.191683 0.005946 125 134 127
-0.220276 -0.248188 0.003254 136 143 137
0.073217 -0.160413 0.006880 127 136 129
0.151218 0.201605 0.003053 126 134 131
0.359117 -0.283189 0.021335 151 143 140
-0.061908 -0.004660 0.002054 38 54 45
-0.205710 -0.231497 0.002351 133 139 137
-0.387648 -0.006431 0.429411 119 127 124
-0.164041 -0.143446 0.040848 94 117 124
0.256990 0.093309 0.010026 127 133 131
0.080284 -0.038752 0.004807 107 119 109
-0.280717 -0.096435 0.388340 53 64 60
-0.119930 -0.284305 0.004825 128 132 127
-0.368099 -0.013239 0.414271 104 103 110
0.227337 -0.180923 0.011636 137 138 132
0.114045 0.333402 0.002159 123 131 128
0.246880 0.411266 0.008837 138 139 133
-0.243113 -0.091810 0.006666 109 122 117
-0.098365 -0.281221 0.005202 69 76 84
0.285552 0.031595 0.011708 89 95 95
0.385812 -0.064708 0.020649 149 144 140
-0.361398 0.084661 0.368724 151 181 186
0.189983 -0.201412 0.010439 129 133 128
0.106100 -0.279157 0.009261 130 131 127
-0.340045 0.013600 0.412097 85 94 87
0.251659 0.381853 0.009195 75 81 81
0.114677 0.092980 0.004316 38 51 48
0.165528 0.018322 0.007749 113 122 115
0.093095 -0.133705 0.007616 123 132 125
0.360599 -0.189791 0.019674 144 139 135
-0.159684 0.172114 -0.002868 108 121 116
-0.109676 0.439818 -0.000067 133 142 135
0.279531 -0.217655 0.014318 138 138 132
0.393452 -0.137410 0.021918 146 143 140
0.108908 0.517531 0.004978 134 138 131
-0.135163 -0.153006 0.037857 65 108 120
0.075278 0.180994 0.001428 111 123 115
-0.354215 0.024278 0.419940 89 96 90
-0.120191 0.149567 -0.002324 99 116 102
0.019788 -0.251010 0.007382 125 134 125
0.084328 0.009086 0.004593 26 42 33
0.353732 -0.253958 0.020759 140 140 136
0.288704 0.331319 0.011775 139 140 134
-0.168290 -0.105505 0.003647 41 52 52
0.140577 -0.240124 0.010027 129 136 130
-0.108585 0.325811 -0.002039 130 142 134
0.148127 0.116935 0.004750 46 54 53
-0.052345 -0.291109 0.006555 130 138 135
-0.053570 0.027193 0.003425 70 85 80
-0.209527 -0.214865 0.003153 128 137 130
0.339495 -0.038139 0.016158 139 139 135
-0.491665 -0.030731 -0.001556 81 92 88
-0.439548 -0.057776 -0.000887 98 109 105
-0.238614 -0.079392 0.431722 118 168 176
0.040246 -0.269133 0.008129 120 128 125
-0.333111 0.060575 0.390233 134 168 174
-0.257567 -0.027376 0.017353 103 115 105
-0.032706 -0.016827 0.002912 105 121 112
0.385765 -0.171395 0.022762 120 117 114
0.183575 0.170709 0.005149 118 129 129
0.282956 0.261938 0.011459 129 135 135
-0.081901 0.540812 0.000828 135 142 136
-0.491357 -0.007421 0.482989 117 117 119
0.311001 -0.282400 0.016747 140 137 132
-0.328796 -0.096705 0.413834 86 97 95
0.368675 -0.214107 0.021292 140 141 130
-0.445540 -0.024119 0.437659 46 49 52
-0.303568 -0.173876 0.004102 129 136 130
0.340138 0.036378 0.015554 64 64 64
-0.064129 -0.075572 0.004303 117 130 125
0.146997 0.494924 0.005571 127 134 126
0.277276 0.545694 0.009292 135 139 132
-0.115759 0.215570 -0.001343 116 130 121
-0.245839 -0.271195 0.005172 142 145 144
0.177694 -0.289343 0.011949 89 92 93
-0.490357 -0.007286 0.482830 117 117 119
0.234522 0.199407 0.008099 132 139 133
-0.225276 -0.049696 0.429635 87 113 115
-0.212319 -0.080712 0.413118 120 164 171
-0.143057 -0.298454 0.004364 139 145 143
0.090270 -0.236421 0.008432 78 81 82
0.072761 -0.261127 0.008436 128 133 123
0.188305 -0.284609 0.012147 83 82 82
-0.317361 -0.121025 0.005719 131 137 135
0.287622 0.158596 0.012161 136 140 135
0.363549 0.406468 0.020385 148 145 142
0.126151 -0.037363 0.006770 113 122 115
0.259845 0.112906 0.009954 114 122 119
0.173331 0.022127 0.008490 114 126 118
0.099000 0.049871 0.005533 100 112 102
0.046611 0.141984 0.001878 97 113 104
0.245006 -0.230902 0.013389 140 140 134
-0.495178 -0.019546 0.473549 136 135 135
0.332822 0.355818 0.017532 144 144 138
-0.303343 0.027093 0.380263 81 89 86
0.005623 0.546386 0.002909 126 133 127
-0.299177 0.510921 -0.002403 140 145 135
-0.205632 -0.102719 0.263868 26 32 32
0.082735 0.174130 0.001533 109 121 111
-0.115701 0.506326 0.000137 134 138 133
-0.235591 -0.068377 0.433433 119 168 173
0.308925 0.234458 0.013535 78 81 82
0.326957 0.014079 0.014874 133 134 130
0.249822 -0.158245 0.012552 64 65 61
-0.243622 -0.064516 0.435816 125 170 179
-0.179818 0.509341 0.001797 128 135 127
-0.025980 -0.186506 0.005974 123 134 130
-0.229925 -0.098779 0.321755 80 94 85
0.071255 -0.259465 0.008279 126 134 123
-0.176772 -0.014205 -0.000271 95 108 103
-0.246016 0.509326 0.000457 140 147 139
-0.160882 0.335210 -0.001979 135 147 139
-0.353640 -0.077018 0.421033 97 110 107
0.156675 -0.271563 0.011543 42 48 50
0.300088 0.325469 0.013057 141 141 135
0.201535 0.158369 0.007181 129 135 133
0.330182 0.364186 0.016680 144 144 138
0.105056 0.298733 0.001131 119 128 121
-0.027604 0.200099 -0.001313 108 122 113
0.220027 0.382708 0.007485 91 91 91
0.160476 -0.087731 0.008557 74 82 83
-0.450606 0.017228 0.462620 145 146 140
-0.218944 -0.085107 0.416130 113 157 164
0.369918 0.295709 0.020984 140 140 142
-0.341131 0.223441 0.037410 18 21 24
-0.182243 0.524358 0.000940 144 149 139
0.288230 0.343751 0.012212 131 135 128
-0.045561 -0.287895 0.006154 125 132 126
-0.139907 0.246472 -0.001860 107 123 114
0.305027 0.014692 0.013174 124 131 123
-0.297509 -0.101798 0.371635 37 49 41
0.229189 -0.234169 0.013095 140 141 137
-0.338061 0.025600 0.410095 84 93 86
0.109816 -0.035313 0.006358 111 123 115
-0.268788 0.471161 -0.001304 136 137 131
-0.360548 -0.105338 0.407262 119 155 165
-0.022831 -0.262277 0.006796 123 131 128
-0.168089 0.035003 -0.001762 93 102 95
0.028761 0.048325 0.003425 97 111 100
-0.231816 -0.082997 0.428864 112 160 168
-0.304459 0.086672 0.328396 85 90 78
0.219567 -0.036457 0.010494 128 132 127
-0.238780 -0.246431 0.002805 135 141 139
-0.338522 0.036590 0.407590 92 98 96
0.053323 0.207418 -0.000480 35 51 40
0.074047 -0.227984 0.008158 125 132 126
-0.445450 -0.002181 0.463990 68 68 70
0.327906 0.108663 0.014943 62 62 62
-0.337265 -0.210691 -0.000070 148 154 152
-0.137884 0.227247 -0.001553 76 82 82
0.089311 0.367214 0.001282 60 66 64
-0.170906 0.501088 0.001696 138 145 137
-0.227057 -0.099949 0.308436 19 27 28
0.171679 -0.154123 0.010239 132 139 133
0.309610 0.405712 0.013647 142 143 137
-0.449283 0.006667 0.467119 151 142 137
-0.499533 -0.078462 -0.001764 79 86 80
0.113729 0.437381 0.004023 131 135 128
-0.469554 -0.088166 -0.000452 82 89 83
-0.413252 -0.039518 -0.003232 129 140 138
0.087194 -0.083311 0.006027 71 77 77
0.157903 -0.223446 0.010195 134 140 138
0.315222 0.187059 0.014621 110 121 119
-0.344445 -0.008090 0.409138 93 99 99
0.004426 0.054639 0.002996 90 104 93
0.396923 -0.182120 0.023835 145 145 141
0.292981 0.056176 0.012583 130 134 129
0.371875 0.271248 0.020906 81 81 77
-0.103480 0.408586 -0.001353 71 74 73
-0.154313 0.280328 -0.001974 128 142 131
-0.325000 -0.084798 0.007368 67 82 79
0.233988 -0.170525 0.012130 105 113 112
-0.146533 0.449317 0.000906 139 146 138
-0.305618 -0.043453 0.013542 112 124 116
-0.312131 -0.173902 0.004203 130 139 132
-0.084226 -0.086899 0.004213 105 120 115
0.123373 -0.131992 0.008098 125 133 134
-0.268857 -0.100974 0.417874 82 121 126
-0.185685 -0.122598 0.005572 111 122 118
-0.404033 0.000778 -0.000509 129 144 141
-0.179776 -0.161770 0.004848 37 52 51
0.390399 -0.135544 0.021686 140 141 135
-0.385232 -0.021371 0.000631 121 134 131
0.271125 0.384273 0.009843 136 137 131
-0.155680 0.165052 -0.002368 109 122 117
-0.229606 -0.085626 0.426516 117 162 171
-0.302486 0.404761 -0.003793 141 145 138
-0.255270 -0.104071 0.376894 49 63 54
0.269954 -0.270803 0.015317 146 143 140
-0.356009 -0.095562 0.416211 128 164 174
-0.389063 -0.021053 -0.000223 124 137 134
-0.266640 -0.032000 0.014205 55 73 69
0.380522 0.461552 0.022926 84 83 85
0.112912 -0.214632 0.008673 130 139 132
0.326780 -0.137486 0.015541 134 138 131
-0.127507 0.297988 -0.002045 128 142 133
0.166669 -0.093749 0.009811 117 129 121
-0.388368 -0.051402 -0.002176 124 135 131
-0.213486 -0.072528 0.417756 117 163 167
-0.466648 -0.098989 -0.001380 79 87 84
-0.253383 -0.077976 0.433626 125 171 177
0.038960 -0.220951 0.006848 120 126 124
-0.049582 -0.022860 0.002984 105 120 115
-0.083941 0.304916 -0.000473 120 135 121
0.313471 0.043309 0.013613 125 132 124
-0.269198 -0.085857 0.431012 123 169 175
0.066857 0.027159 0.005013 85 104 94
-0.414605 -0.004946 -0.001249 130 138 137
-0.402700 0.045123 0.000213 132 145 142
0.160784 -0.143234 0.009672 133 137 130
-0.415237 -0.007085 0.431921 121 127 127
-0.078848 -0.014614 0.001831 97 113 104
-0.467036 -0.021560 0.000237 100 107 101
0.367785 0.155143 0.019554 137 137 131
-0.112276 -0.187975 0.004942 121 132 128
0.179533 0.464800 0.005438 129 136 128
0.309063 0.016659 0.013380 59 67 68
0.270487 -0.249461 0.014682 78 72 74
0.140241 -0.269816 0.010971 131 135 128
-0.116311 -0.140208 0.035822 43 93 112
0.218109 -0.136359 0.011110 115 121 121
-0.131791 0.243798 -0.001285 119 135 126
-0.391944 0.057837 0.004206 128 141 136
-0.189910 0.318159 -0.003438 114 129 126
0.205757 0.113638 0.007736 127 136 129
-0.302732 -0.072483 0.404199 72 83 83
0.022027 0.470269 0.002371 85 93 92
0.179731 -0.286184 0.012144 141 137 138
-0.484215 -0.012900 0.473994 142 143 139
-0.156564 0.001656 0.000230 91 107 98
-0.437706 -0.021650 0.421409 78 77 77
-0.048522 0.237725 -0.001546 113 129 118
-0.473657 -0.010637 0.471126 133 133 133
-0.248661 -0.280853 0.005578 98 101 104
-0.066013 -0.252262 0.006096 126 134 131
-0.232911 -0.084264 0.428751 112 160 168
0.155343 -0.021918 0.007817 114 121 115
-0.048043 -0.222303 0.005693 122 134 126
0.376543 0.172694 0.020612 137 138 134
0.181080 0.184361 0.005276 53 60 54
0.183696 -0.208373 0.010991 60 62 68
-0.381873 -0.040398 -0.000560 120 133 130
-0.131506 0.356233 -0.002125 128 139 137
-0.036874 -0.073420 0.003770 113 128 123
-0.325882 0.439431 -0.003898 116 115 117
0.098423 -0.133701 0.007622 122 133 131
-0.192633 -0.082891 0.133723 102 118 109
-0.134256 0.001793 0.000157 95 109 100
0.005216 -0.268924 0.007331 120 129 122
0.197574 -0.037970 0.009101 126 132 130
-0.049242 -0.065684 0.003313 114 129 124
-0.291290 -0.253579 0.006938 153 156 155
0.111605 0.187351 0.002962 113 121 110
0.155127 -0.297172 0.011606 133 134 128
0.150940 0.088566 0.005057 108 119 117
-0.334192 -0.003206 0.009970 116 129 124
0.161065 0.300183 0.003653 129 133 128
-0.324088 -0.099302 0.006385 125 132 124
-0.109470 -0.243587 0.004037 127 133 131
-0.315642 -0.084341 0.410774 86 97 93
0.209179 0.398966 0.006785 133 140 134
0.042323 -0.103894 0.005736 113 127 118
0.260822 -0.122183 0.012616 133 134 128
-0.040273 0.305415 -0.000382 54 65 61
0.045239 0.121874 0.002157 101 115 106
-0.221674 0.336550 -0.004954 138 145 139
-0.238134 -0.175722 0.004551 126 135 128
-0.235798 -0.101140 0.353987 50 62 54
0.053118 0.044054 0.003985 97 109 101
-0.208031 -0.074889 0.410010 92 133 139
-0.025287 0.066216 0.000325 79 93 82
0.325083 0.224154 0.015114 131 136 126
-0.117675 -0.216896 0.004354 128 137 130
-0.148258 -0.228561 0.004037 132 141 134
0.302027 0.227748 0.012767 98 99 95
0.311720 0.390078 0.013318 112 115 114
-0.071675 0.077349 0.011668 37 40 22
-0.164156 0.230279 -0.003061 115 131 122
-0.103412 0.085260 0.045589 46 53 31
0.125394 -0.162551 0.008390 129 136 130
-0.138012 -0.040383 0.001797 37 48 48
0.279434 0.077777 0.011421 129 132 131
-0.174123 0.065814 -0.000866 59 70 66
-0.098594 0.292990 -0.001461 127 141 130
0.041467 0.124053 0.002144 101 115 106
-0.226144 -0.174001 0.004640 121 134 129
0.205089 0.344159 0.006634 135 136 132
-0.128066 0.149423 -0.002187 101 118 104
0.345189 0.506826 0.018504 133 127 129
-0.365107 -0.001277 0.422375 117 120 121
-0.026563 -0.044552 0.003649 53 64 64
-0.012358 0.375080 -0.000705 129 136 130
0.216852 0.126318 0.008862 126 137 133
-0.040205 0.307818 -0.000243 52 63 61
-0.374446 -0.006411 0.425443 119 125 125
0.008343 0.023345 0.003635 85 99 90
0.358280 0.336224 0.020243 138 139 135
-0.115963 -0.215245 0.004536 125 136 132
-0.419515 -0.003304 0.438700 134 137 136
-0.455086 -0.007765 0.465699 123 126 125
0.036312 0.367838 -0.000551 126 135 128
-0.086642 0.270237 -0.000296 123 136 123
-0.216218 -0.269430 0.003659 142 146 141
-0.110784 -0.208525 0.004821 124 137 132
-0.049550 0.416605 -0.000270 133 140 134
0.098298 -0.096915 0.007563 117 131 122
0.229301 -0.166962 0.011972 138 138 140
0.323602 0.475181 0.015654 145 145 139
-0.131758 -0.152834 0.037238 65 108 120
0.228427 0.228242 0.006953 131 138 132
-0.318687 0.024006 0.399881 90 97 91
0.198567 -0.225362 0.011118 140 140 134
0.182439 -0.266810 0.011856 137 138 132
0.317242 -0.150133 0.015744 137 136 136
-0.377717 -0.024349 0.399998 51 62 60
0.192228 -0.157807 0.010753 134 138 133
0.104009 -0.113466 0.007179 123 132 125
-0.151012 0.484988 0.001208 136 143 137
0.305745 -0.195589 0.014923 143 143 139
-0.124924 0.048964 0.080989 52 57 45
0.372210 0.102707 0.018730 101 105 100
-0.313359 0.051113 0.379595 133 169 167
0.287785 0.185971 0.012118 131 132 126
-0.264178 0.405813 -0.004362 67 74 66
0.337674 0.268417 0.017279 124 124 128
-0.201960 -0.107991 0.251040 5 14 7
-0.138042 -0.071633 0.003261 19 38 28
-0.184190 0.506408 0.001811 136 144 133
-0.043664 0.200072 -0.001536 49 57 56
-0.057268 -0.032697 0.002925 112 124 116
0.251513 -0.114621 0.011827 128 135 127
-0.045224 0.050124 0.003066 24 34 22
-0.211763 -0.096790 0.301572 19 27 26
0.038635 0.027261 0.004424 88 105 91
-0.147819 0.178852 -0.002484 110 124 115
-0.161906 -0.216751 0.003875 128 134 132
0.389423 0.044929 0.020150 140 140 136
-0.433379 -0.083685 -0.002459 82 93 91
0.203820 0.192937 0.006765 125 136 136
-0.158806 -0.179196 0.004521 117 128 124
-0.423041 -0.016389 0.418036 99 108 101
0.058276 -0.061974 0.004584 97 115 109
0.119268 -0.218155 0.009294 126 133 127
-0.194246 0.031219 0.001812 91 107 98
-0.097370 0.015090 0.012052 18 26 23
-0.232515 -0.275876 0.004019 144 148 141
0.279048 -0.031096 0.012463 96 105 98
0.140134 0.232393 0.002614 84 90 90
-0.345443 -0.102103 0.413885 59 87 93
0.271320 -0.011016 0.011649 100 108 105
0.045515 0.417441 0.000562 126 132 130
-0.065276 -0.052604 0.004149 111 125 116
-0.253297 -0.254854 0.004350 138 146 143
-0.158763 -0.184429 0.004628 116 129 124
-0.373670 -0.071006 -0.000517 117 128 124
0.069478 -0.280473 0.007937 123 124 120
0.217282 0.393937 0.006585 135 135 135
0.386037 0.085202 0.019526 139 140 134
-0.123172 -0.140452 0.036646 50 99 114
0.363269 0.417341 0.020159 139 139 135
0.323466 0.266763 0.015868 81 84 85
-0.472835 0.000950 0.475985 144 145 141
-0.339333 -0.192768 -0.003945 148 153 143
0.331236 0.425445 0.016213 99 99 93
0.151990 0.064605 0.006160 105 113 112
-0.431988 -0.116239 -0.004862 92 105 102
0.025592 0.254373 0.000001 109 120 120
-0.305396 -0.003517 0.375447 69 78 69
0.118155 0.331189 0.001775 127 136 129
0.232552 -0.073287 0.011152 131 135 130
-0.211999 -0.069421 0.001731 107 120 115
-0.059844 0.193511 -0.002478 73 87 76
0.286605 0.218548 0.012110 132 141 132
0.042996 -0.167320 0.006178 61 74 69
-0.086144 0.297498 -0.000584 122 136 127
0.181683 -0.157784 0.010645 135 136 130
0.137636 -0.015678 0.006885 110 119 110
0.302491 0.258581 0.013217 138 138 138
0.279820 0.240256 0.011422 136 140 135
-0.100188 -0.075401 0.003508 109 123 114
0.264555 0.245626 0.010255 136 140 135
-0.251384 -0.070789 0.434994 126 172 178
-0.455071 -0.015472 0.459108 124 130 130
0.193230 0.329689 0.005245 133 140 134
0.307785 0.241305 0.013993 140 141 135
-0.050789 -0.157893 0.023918 19 30 69
0.209147 -0.210239 0.011648 126 130 125
0.027502 -0.001002 0.003936 87 101 92
0.275164 -0.077508 0.012745 129 133 128
-0.388453 -0.018173 0.408215 81 92 90
0.156376 -0.194358 0.009767 132 139 133
-0.247520 -0.098817 0.423977 96 145 150
-0.074164 0.015213 0.025981 22 31 24
0.090111 0.379700 0.002076 54 60 58
0.013355 0.216234 -0.000222 107 121 112
-0.316473 -0.160039 0.004732 132 140 139
-0.153297 0.087355 -0.001194 90 106 97
0.373546 0.532342 0.019388 144 146 137
0.280674 0.487861 0.009900 139 139 133
-0.067124 -0.289389 0.005907 54 65 61
0.009247 -0.026919 0.003905 89 101 93
0.351281 0.394157 0.018949 144 145 136
-0.133477 0.463769 0.000353 58 64 62
-0.090631 -0.154433 0.030455 12 82 110
0.097654 0.033477 0.005068 89 102 101
-0.223269 -0.258019 0.003378 138 144 142
0.145821 0.407849 0.004444 131 138 130
-0.334490 -0.158878 0.000201 138 144 142
0.076139 0.095071 0.003888 102 116 107
0.158917 -0.187461 0.009879 128 135 129
-0.192585 -0.043917 0.005563 33 46 41
-0.202003 -0.175575 0.003947 124 137 132
-0.148745 -0.103943 0.004683 102 113 109
0.018257 -0.116756 0.005417 114 128 119
0.356544 0.262453 0.019275 133 137 130
0.369521 -0.138492 0.019277 144 144 140
0.064206 0.372672 0.000492 127 134 126
0.174964 -0.155920 0.010306 132 139 133
-0.070244 0.459046 0.000681 100 108 107
-0.127734 0.241524 -0.001395 122 136 127
0.076039 -0.298143 0.008794 122 126 121
0.056646 -0.170934 0.006559 26 37 33
-0.098728 -0.094497 0.004480 106 122 113
0.259002 -0.042595 0.011644 128 135 127
0.185571 0.439628 0.006030 134 137 136
-0.308384 0.517068 -0.003085 92 96 91
0.209148 -0.032396 0.010010 121 128 122
-0.206047 -0.083915 0.359237 66 82 73
-0.116381 0.133953 -0.002257 99 115 106
-0.042587 0.297980 -0.000482 117 129 121
0.328100 0.220924 0.016554 134 138 131
-0.174730 0.450896 0.001718 139 146 138
0.052868 0.394249 -0.000374 114 122 119
-0.228229 -0.213229 0.003505 139 146 140
-0.134007 0.116589 -0.003034 44 58 49
0.127903 -0.106249 0.007883 126 134 131
0.228846 -0.010594 0.010123 79 87 86
-0.263962 -0.211404 0.003024 116 124 121
0.359485 -0.007153 0.017885 140 144 139
0.150364 0.410484 0.004586 127 134 126
0.300728 -0.033239 0.013161 131 138 130
0.373953 0.159004 0.020775 133 134 130
0.112071 -0.299987 0.009958 124 131 125
0.027670 0.001109 0.003694 88 102 93
-0.049368 -0.210578 0.006245 122 135 130
-0.251807 -0.104572 0.404781 100 145 145
-0.221343 -0.216563 0.003264 131 140 133
-0.460585 -0.086686 0.000783 81 89 86
-0.338762 0.000545 0.005642 119 131 121
-0.191130 -0.059346 0.339723 104 115 115
-0.132039 0.135805 -0.001818 101 115 106
-0.131205 0.500339 0.000173 110 114 107
0.325675 -0.282574 0.017682 146 141 137
0.310485 0.314349 0.014688 95 96 92
-0.263413 -0.223092 0.002528 88 97 90
-0.345312 -0.091943 0.419414 94 105 103
-0.263241 -0.192589 0.002746 35 41 41
-0.195720 0.190827 -0.004103 110 119 112
0.277018 -0.241203 0.014702 144 144 138
0.312131 0.545332 0.013522 138 138 132
-0.327955 0.221920 0.018433 133 168 169
-0.332225 -0.060183 0.006847 130 139 132
-0.084654 -0.024817 0.002576 101 115 106
-0.376094 0.002939 0.432741 115 121 119
-0.153152 0.059633 -0.000852 90 106 97
0.305903 -0.229828 0.016075 141 141 135
-0.146190 0.320037 -0.001731 131 145 134
-0.246122 -0.106311 0.005762 115 126 122
0.293649 -0.042927 0.012877 136 137 133
-0.179666 -0.168748 0.004635 116 130 121
0.286842 0.470264 0.010943 77 77 81
0.023460 -0.224167 0.006160 116 124 121
0.031558 0.486331 0.003381 131 138 132
-0.271587 -0.126283 0.005352 113 127 118
0.306329 -0.031521 0.013856 128 132 125
-0.126615 -0.157222 0.034257 75 111 119
0.162371 -0.041534 0.007843 120 127 121
0.274357 0.147719 0.011293 130 138 135
0.196315 0.339558 0.005759 137 138 134
-0.202982 -0.089237 0.320209 28 35 39
0.277887 -0.291738 0.015679 137 138 132
0.091268 -0.058439 0.005745 116 126 114
-0.006115 0.534502 0.002948 134 138 133
0.167337 0.150180 0.005163 76 89 84
-0.117671 0.543611 0.000203 135 143 132
0.045107 0.176623 0.000565 103 117 108
-0.447190 -0.024963 0.419803 43 44 38
0.327161 -0.068522 0.014694 138 139 135
-0.180659 -0.002126 -0.000606 31 42 40
0.101791 0.336441 0.001261 125 137 129
-0.333557 -0.285407 0.005800 136 140 135
-0.115744 0.500619 0.000174 137 141 136
0.271784 0.129975 0.011130 129 132 131
-0.103609 0.084995 0.050130 49 59 36
-0.088985 0.253229 -0.000267 120 134 123
0.245928 -0.215615 0.012801 139 139 133
0.128608 -0.081971 0.007989 123 132 125
0.383183 -0.041594 0.020598 144 144 138
0.205615 0.009818 0.009113 121 128 122
0.307199 0.448943 0.013668 142 143 139
-0.348976 -0.117838 0.381992 82 105 112
0.337201 0.537507 0.016193 151 144 138
-0.089413 0.008291 -0.000403 63 82 72
0.312751 -0.174887 0.015610 89 89 91
-0.069962 -0.215463 0.005372 32 41 34
0.097910 0.547360 0.003783 125 121 122
-0.148939 0.526038 -0.000210 141 145 138
0.346406 -0.218664 0.018905 122 125 124
-0.071263 -0.201763 0.004973 73 73 77
-0.108734 -0.040210 0.001620 113 126 121
0.357953 0.187380 0.018658 83 83 79
0.345800 -0.187795 0.018555 128 123 121
-0.073069 0.141266 -0.002767 104 114 102
-0.140035 0.500100 0.000261 137 146 137
-0.461111 -0.051249 0.002021 83 89 87
0.267715 -0.144157 0.013392 133 134 130
-0.193564 0.538278 0.001243 145 146 140
0.397526 0.182971 0.022873 134 138 133
-0.264419 0.525298 -0.001782 146 147 141
-0.163455 -0.231802 0.003634 138 150 142
0.143789 0.150500 0.004213 79 87 86
0.118109 -0.213051 0.009215 125 134 125
0.284710 -0.244641 0.015308 107 107 107
-0.453160 0.009380 0.467196 148 143 141
-0.357883 0.242940 0.039156 83 85 74
-0.315946 -0.019175 0.015639 108 122 113
-0.125553 -0.096242 0.003931 107 120 115
-0.271301 -0.071746 0.431754 126 170 177
0.073678 -0.133587 0.007119 120 134 125
0.323017 -0.130087 0.014999 65 65 65
-0.216384 -0.154757 0.004983 122 134 126
0.045854 0.160072 0.001666 100 114 105
-0.222211 -0.081899 0.005061 75 88 87
-0.222401 -0.097165 0.351684 52 67 62
-0.082106 -0.294067 0.005618 132 139 133
0.321711 0.154869 0.015319 138 139 133
0.137176 -0.240116 0.010016 129 136 130
0.338348 0.015876 0.015563 140 140 136
-0.457409 -0.102633 -0.001468 80 86 84
0.230804 -0.145525 0.011707 133 137 132
0.268231 0.493690 0.009434 139 140 134
-0.002095 0.277912 0.000714 122 129 121
-0.039033 0.159127 -0.002031 99 114 109
-0.426777 -0.019505 0.405137 56 64 61
-0.206346 -0.065034 0.404717 111 129 125
-0.322672 -0.122492 0.004521 54 60 62
0.112106 0.387603 0.002499 127 134 126
-0.499784 -0.023107 0.468977 180 181 172
